# .PCD v0.7 - Point Cloud Data file format
VERSION 0.7
FIELDS x y z
SIZE 4 4 4
TYPE F F F
COUNT 1 1 1
WIDTH 1543
HEIGHT 1
VIEWPOINT 0 0 0 1 0 0 0
POINTS 1543
DATA ascii
4.0438819 0.38714272 0.45678729
3.4007375 0.26298448 0.46029028
3.5862393 0.30809274 0.45896858
3.7944543 0.35872409 0.45748511
4.0158072 0.44470137 0.4548316
4.0298262 0.41595936 0.45580816
3.0726376 0.20825279 0.4728229
3.2292712 0.23404227 0.46108493
3.3786645 0.31135088 0.45864847
3.3896887 0.28719386 0.45946848
3.5684075 0.34639293 0.45766816
3.7687321 0.41276655 0.45564952
3.7815776 0.38577816 0.45656624
4.0018239 0.47336936 0.45385751
3.0643849 0.24077943 0.47261465
3.208698 0.279948 0.45952702
3.3621745 0.34748247 0.45742193
3.5447218 0.39726573 0.45594078
3.7495255 0.45311883 0.45427901
3.9809213 0.51622373 0.45240149
3.0543113 0.29498839 0.47280085
3.1882093 0.32566625 0.45797548
3.3457322 0.38351044 0.45619896
3.5211434 0.44790757 0.45422125
3.72402 0.50670576 0.45245892
3.9531708 0.57311869 0.45046833
3.0441995 0.34940293 0.47298765
3.1678045 0.37119839 0.45643026
3.3293486 0.41940957 0.45498034
3.5035267 0.48574519 0.45293647
3.7049675 0.54673469 0.45109928
3.932446 0.61560774 0.44902465
3.0360789 0.39309996 0.47313777
3.1424184 0.42784387 0.45450789
3.3075819 0.4671042 0.45336136
3.4859767 0.52344012 0.45165652
3.6859913 0.58660352 0.44974512
3.9118097 0.65791559 0.44758713
3.0279324 0.43693969 0.47328833
3.1171525 0.48422146 0.45259458
3.2859082 0.51459485 0.45174924
3.4626641 0.57351077 0.44995639
3.6607904 0.63954973 0.44794679
3.8912439 0.70007974 0.44615453
3.01771 0.49194834 0.47347724
3.0970352 0.52911067 0.45107114
3.264327 0.56188309 0.45014402
3.445246 0.61092263 0.44868609
3.0074484 0.54716724 0.47366685
3.0819979 0.56266439 0.4499324
3.2481985 0.59722322 0.44894439
2.9992077 0.59151149 0.47381911
2.9909401 0.63600153 0.47397187
2.9805655 0.69182777 0.47416359
2.9701512 0.74786901 0.47435606
2.9617879 0.79287493 0.47451064
2.9533968 0.83803004 0.4746657
2.944978 0.88333488 0.4748213
2.934413 0.94018543 0.47501653
2.9238074 0.99725699 0.47521254
2.9152896 1.0430919 0.47536996
2.9067435 1.0890801 0.47552785
2.8981686 1.1352222 0.47568628
2.8895655 1.181519 0.47584531
2.8808815 1.2277929 0.46422946
2.870049 1.2860855 0.46440491
2.8613534 1.3328769 0.4645457
2.8569934 1.356338 0.4646163
2.8503876 1.3914285 0.45287731
2.8416231 1.4385889 0.45299914
2.8328292 1.4859092 0.45312142
3.1474307 2.1202276 0.44724998
3.1492445 2.1215842 0.47496304
3.2355282 2.1366861 0.4444145
3.3291025 2.1547019 0.45598567
3.4265492 2.1729207 0.45322073
3.5292106 2.1921146 0.45031688
2.7639141 2.0485797 0.4596141
2.8331101 2.061043 0.44473192
2.9069541 2.0753021 0.45500404
2.983418 2.0895872 0.45253631
3.0634899 2.1045461 0.4499591
2.7249291 2.0665269 0.45462191
2.7157347 2.1160018 0.45474976
2.7065084 2.1656489 0.45487803
2.6972499 2.2154684 0.45500678
2.6902854 2.2529411 0.45510355
2.6856322 2.2779815 0.45516825
2.6786356 2.3156288 0.45526552
2.6692798 2.365972 0.45539558
2.6598914 2.4164915 0.45552614
2.6504698 2.4671881 0.45565715
2.6410151 2.5180626 0.45578858
2.6315272 2.5691171 0.45592049
2.6220059 2.6203513 0.45605287
2.6124508 2.6717665 0.45618573
2.6028616 2.7233636 0.45631897
2.5931363 2.7747359 0.43158725
2.5834792 2.8266985 0.4316774
2.5737886 2.8788466 0.43176788
2.5664985 2.9180732 0.43183589
2.5616264 2.9442863 0.43188131
4.2342229 -0.16361013 0.54284567
3.1939211 -0.45373058 0.53659213
3.1881943 -0.42290807 0.5367766
3.7603183 -0.25313008 0.53398448
3.8304093 -0.23948324 0.54427844
3.9058893 -0.22604614 0.52753079
3.9820733 -0.21124005 0.53813076
4.0628958 -0.19618773 0.53485858
4.1473556 -0.18046081 0.53143084
3.1824522 -0.39200419 0.53696156
3.2809744 -0.34333789 0.5326072
3.3328276 -0.33318734 0.54142541
3.3883688 -0.32339376 0.52703059
3.4440641 -0.31251049 0.5360716
3.5018091 -0.3012265 0.5454452
3.5627453 -0.2898891 0.54274726
3.5648022 -0.29062825 0.51787263
3.6260469 -0.27811164 0.5399372
3.6929617 -0.26624501 0.52409208
3.1807997 -0.3619414 0.53780895
3.230031 -0.35279888 0.53524774
3.0706646 0.20917243 0.52921712
3.0646398 0.241595 0.52939743
3.0545661 0.29580784 0.52969879
3.0448389 0.34797913 0.52542609
3.0362833 0.39376166 0.51882243
3.0281363 0.43760407 0.51904744
3.0179138 0.49261606 0.51932991
3.0076523 0.54783839 0.51961344
2.9994116 0.59218538 0.51984119
2.9911439 0.6366781 0.5200696
2.9807699 0.69250792 0.52035618
2.9703555 0.74855262 0.52064401
2.961992 0.79356134 0.5208751
2.9536006 0.83871919 0.52110684
2.9451821 0.88402683 0.52133954
2.9346173 0.94088089 0.52163148
2.9240117 0.99795616 0.5219245
2.9154942 1.043794 0.52215981
2.9069479 1.089785 0.52239597
2.8983734 1.1359301 0.5226329
2.8897698 1.1822299 0.5228706
2.8811374 1.2286851 0.52310914
2.8703051 1.2869824 0.52340841
2.8616095 1.3337774 0.52364868
2.8572495 1.3572407 0.5237692
2.8506436 1.3923337 0.51210445
2.8418794 1.4394979 0.51232654
2.8330853 1.4868221 0.51254934
2.8658934 1.5511265 0.51998973
3.0083883 1.5947928 0.51895428
3.1609466 1.6553998 0.51761156
2.8513186 1.5970953 0.51924425
2.9969192 1.630887 0.5183689
3.1488857 1.6932652 0.51699752
3.3251092 1.735575 0.51591426
3.5161974 1.7965302 0.51448506
2.83675 1.6430454 0.51849896
2.9816325 1.6789956 0.51758862
3.1368284 1.7311192 0.51638365
3.308156 1.7886591 0.51505351
3.5027494 1.8385162 0.51380438
2.8221872 1.6889765 0.5177539
2.9663522 1.7270832 0.51680869
3.1247759 1.768959 0.51577002
3.2912107 1.8417177 0.51419324
3.4848254 1.894474 0.51289713
2.8076301 1.7348888 0.5170092
2.9510787 1.7751503 0.51602912
3.1087115 1.8193932 0.51495212
3.2785072 1.8814964 0.51354814
3.4713883 1.936425 0.51221693
2.7930794 1.7807825 0.5162648
2.935812 1.8231969 0.51524991
3.0926542 1.8698046 0.51413459
3.2658081 1.9212592 0.51290339
3.457958 1.978359 0.51153719
2.7785344 1.8266571 0.51552063
2.9205513 1.8712227 0.51447093
3.0766044 1.9201934 0.51331741
3.2488828 1.9742553 0.51204401
3.4400609 2.0342491 0.51063174
2.7639952 1.8725131 0.51477695
2.9052975 1.9192286 0.51369232
3.0605619 1.9705594 0.51250064
3.2319686 2.0272279 0.51118553
3.422173 2.0901115 0.50972676
2.7525778 1.9200714 0.51458937
2.8900497 1.9672129 0.51291406
3.0445273 2.0209033 0.51168436
3.2150633 2.0801759 0.5103277
3.4087632 2.1319911 0.50904822
2.7434781 1.9690404 0.51481998
2.8748093 2.0151772 0.51213616
3.0285027 2.0712261 0.51086891
3.1510596 2.1229417 0.50270617
3.2203898 2.1293285 0.49835187
3.3321185 2.1568706 0.49969536
3.4142475 2.1671579 0.49585447
3.5325689 2.1944332 0.49636194
2.7343473 2.0181785 0.51505142
2.7660625 2.050343 0.49671623
2.8361058 2.0634584 0.49528131
2.8633845 2.0511384 0.51155329
2.9093072 2.0771654 0.49377534
2.9858859 2.0915046 0.49220666
3.0660794 2.1065204 0.49055684
2.7251339 2.0672951 0.503151
2.7159398 2.1167734 0.50336295
2.7067132 2.1664236 0.50357562
2.6974549 2.2162464 0.50378901
2.688164 2.2662427 0.50400323
2.6788409 2.3164139 0.5042181
2.6694851 2.36676 0.50443387
2.6600964 2.4172828 0.50465024
2.6506751 2.467983 0.50486743
2.6412203 2.5188615 0.50508547
2.631732 2.5699189 0.5053041
2.6222107 2.6211565 0.50552362
2.6126556 2.672575 0.50574386
2.6030669 2.7241759 0.50596493
2.593854 2.7730803 0.48876733
2.5836842 2.8275177 0.48149768
2.5739932 2.8796694 0.48167694
2.5667031 2.9188986 0.48181164
2.5618312 2.9451134 0.48190159
4.2298326 -0.16241011 0.58777612
3.1945369 -0.45508122 0.58745933
3.1883981 -0.42229539 0.58107692
3.75227 -0.25106055 0.58613098
3.8268402 -0.2383346 0.58459693
3.9009328 -0.22449946 0.58243358
3.9782052 -0.21006989 0.58018625
4.0575266 -0.19461471 0.59214258
4.0734019 -0.18351713 0.58028102
4.1431479 -0.17926973 0.57537997
3.1826558 -0.39138973 0.5813145
3.277519 -0.34193325 0.57799327
3.3292582 -0.33176929 0.58759242
3.3846719 -0.32196015 0.57405645
3.4402418 -0.31106359 0.58393645
3.4797876 -0.29644287 0.59116381
3.5596695 -0.28878272 0.58000249
3.5958674 -0.26042014 0.59964204
3.6228552 -0.27699411 0.57792461
3.6885424 -0.26473969 0.57575732
3.7410328 -0.21266133 0.59898114
3.9046102 -0.18655348 0.59809709
4.0797834 -0.13031673 0.59729248
3.1776619 -0.36058682 0.58168352
3.2197552 -0.33451658 0.596201
3.3321803 -0.30056161 0.60107696
3.454314 -0.25842363 0.60053074
3.587152 -0.21259207 0.59993672
3.7343879 -0.17510608 0.59921122
3.8956225 -0.13404456 0.59841681
4.0706744 -0.075054139 0.59762698
3.2071075 -0.27606392 0.60197651
3.321645 -0.24555975 0.60141897
3.4457281 -0.21252841 0.60081482
3.5805979 -0.17662266 0.60015815
3.5762188 -0.15259036 0.60030621
3.7299483 -0.15001199 0.599365
3.7255006 -0.12487447 0.59951895
3.8866022 -0.081346273 0.59873784
4.0615306 -0.019582152 0.59796268
3.1988101 -0.23366237 0.60224122
3.3110721 -0.19036293 0.60176212
3.4371147 -0.16648787 0.60109979
3.5696359 -0.11646247 0.60052878
3.7188137 -0.087081462 0.59975058
3.8775499 -0.028457075 0.59906
4.052352 0.036100566 0.59829962
3.1884027 -0.18047938 0.60257328
3.3025835 -0.14604878 0.60203761
3.4284749 -0.12030178 0.60138565
3.5608342 -0.068159372 0.60082632
3.7098722 -0.036545783 0.60006011
3.8684645 0.024623394 0.59938329
4.0454469 0.077994943 0.59855324
3.1779597 -0.12711486 0.60290641
3.2940695 -0.10159975 0.602314
3.417635 -0.062355161 0.60174435
3.5520031 -0.019696087 0.60112482
3.7008998 0.014165074 0.60037088
3.8593459 0.077896655 0.59970778
4.0385127 0.12002288 0.59880662
3.1695764 -0.084277242 0.60317391
3.2876675 -0.068178326 0.60252184
3.283391 -0.045852035 0.6026606
3.406754 -0.0041936934 0.60210437
3.5431433 0.028927594 0.60142434
3.6918962 0.065051585 0.60068268
3.8501904 0.13136369 0.60003287
3.1611688 -0.041313738 0.60344201
3.274816 -0.0010858178 0.60293895
3.3980176 0.042508304 0.60239339
3.5342534 0.077713042 0.60172486
3.6828611 0.11611493 0.60099542
3.1506233 0.01257515 0.6037786
3.2640646 0.055043459 0.60328799
3.3892529 0.089359209 0.60268337
3.5253346 0.12666076 0.60202634
3.6760607 0.15452346 0.60123008
3.1400414 0.066649362 0.60411608
3.2554326 0.10010745 0.60356814
3.3804607 0.13635969 0.60297436
3.5186236 0.16347384 0.6022526
3.1315465 0.11005762 0.60438716
3.2467737 0.14530967 0.60384917
3.3738468 0.17170428 0.60319287
3.1208916 0.16450524 0.60472709
3.2402627 0.17929848 0.60406047
3.0709193 0.20998564 0.58593577
3.0648947 0.24241064 0.58618492
3.054821 0.29662764 0.58660161
3.0442731 0.35313323 0.58019143
3.0365376 0.39458871 0.57593316
3.0283911 0.43843448 0.57625133
3.0181689 0.4934507 0.57665074
3.0082986 0.54639637 0.57243854
2.9996159 0.59285927 0.56586659
2.9913485 0.63735491 0.56617069
2.980974 0.69318807 0.56655228
2.9705598 0.74923617 0.56693536
2.9621964 0.79424775 0.56724292
2.9538052 0.83940834 0.56755155
2.9453864 0.88471889 0.56786132
2.9348216 0.94157666 0.56825
2.924216 0.99865538 0.56863999
2.9156985 1.0444961 0.56895334
2.9071527 1.0904901 0.56926769
2.8985782 1.136638 0.56958306
2.8899746 1.1829407 0.56989956
2.8813422 1.229399 0.57021707
2.8705099 1.2876999 0.57061553
2.8618143 1.3344979 0.57093543
2.8574543 1.3579628 0.57109571
2.8508995 1.393239 0.57133681
2.8421357 1.4404073 0.57165927
2.8333418 1.4877353 0.57198262
2.8244665 1.5350404 0.56040007
2.815613 1.58269 0.56070548
2.8071535 1.6280332 0.55621541
2.7977633 1.6782911 0.54935116
2.7888186 1.7264295 0.54963928
2.7798431 1.7747328 0.54992831
2.7708368 1.8232017 0.5502184
2.7618001 1.8718376 0.55050945
2.7527318 1.9206405 0.55080152
2.7436321 1.9696121 0.55109453
2.7345009 2.0187523 0.55138862
2.7253389 2.068063 0.55168378
2.7161448 2.1175451 0.55197996
2.7069185 2.1671984 0.55227703
2.69766 2.2170246 0.55257523
2.6883693 2.2670243 0.55287451
2.6790457 2.3171985 0.55317467
2.6696899 2.3675482 0.55347592
2.6603017 2.4180746 0.55377829
2.6508799 2.4687779 0.55408162
2.6414251 2.5196595 0.5543862
2.6319375 2.5707207 0.55469173
2.622416 2.6219618 0.55499834
2.6128609 2.6733837 0.55530608
2.6032717 2.7249882 0.55561483
2.5935977 2.7765713 0.54348445
2.5838892 2.8283372 0.53132206
2.5741982 2.880492 0.53158993
2.5669086 2.9197242 0.53179139
2.5620365 2.945941 0.53192586
3.1940188 -0.45024246 0.6405983
3.1886528 -0.42153001 0.63645703
3.1829107 -0.39062172 0.63676029
3.1752346 -0.34930241 0.63716567
3.1656029 -0.29746175 0.63767409
3.155936 -0.2454288 0.63818455
3.1461766 -0.19333124 0.62752354
3.1364324 -0.14088336 0.62801576
3.128608 -0.098768294 0.62841094
3.1187906 -0.045927644 0.62890685
3.1109111 -0.0035196841 0.62930477
3.106961 0.017741024 0.62950432
3.1010237 0.049700618 0.62980431
3.0910954 0.10313834 0.63030571
3.0811298 0.15677737 0.63080919
3.0731273 0.19985032 0.63121343
3.0650988 0.24306299 0.63161898
3.0550253 0.29728341 0.63212782
3.0449135 0.35170966 0.63263863
3.0367932 0.39541602 0.63304883
3.0286465 0.43926513 0.63346028
3.0184245 0.49428564 0.63397664
3.0077214 0.55162966 0.6276195
2.9998717 0.59370184 0.62340349
2.9916041 0.63820082 0.62380213
2.9817371 0.69119775 0.62138736
2.9707646 0.74992001 0.61323023
2.9624014 0.79493439 0.61361438
2.9540102 0.84009778 0.61399984
2.945591 0.88541102 0.61438662
2.9350266 0.94227237 0.61487192
2.9244213 0.99935478 0.61535913
2.9159036 1.0451984 0.61575043
2.9073575 1.0911951 0.61614293
2.898783 1.137346 0.61653686
2.8901796 1.1836518 0.61693203
2.8815475 1.230113 0.61732852
2.8707149 1.2884177 0.6178261
2.8620193 1.3352187 0.61822563
2.8576596 1.358685 0.61842591
2.8511047 1.3939638 0.61872703
2.8423407 1.4411347 0.6191296
2.8335469 1.4884658 0.61953354
2.824723 1.5359573 0.61993885
2.8158691 1.5836108 0.62034553
2.8065097 1.6337104 0.61360192
2.7980199 1.6792197 0.60919416
2.7895029 1.7248762 0.60476708
2.7800481 1.7754819 0.59796607
2.7710423 1.8239541 0.59833866
2.7620053 1.8725927 0.59871233
2.7529371 1.9213991 0.59908748
2.7438374 1.9703739 0.59946376
2.7347062 2.0195177 0.59984148
2.7255437 2.0688314 0.60022038
2.7163503 2.1183169 0.60060078
2.7071238 2.1679735 0.60098237
2.6978652 2.217803 0.60136527
2.6885746 2.2678061 0.60174954
2.6792512 2.3179836 0.60213512
2.6698954 2.3683367 0.60252196
2.6605065 2.4188662 0.60291022
2.6510851 2.4695733 0.60329986
2.6416306 2.5204582 0.60369086
2.6321423 2.5715225 0.60408324
2.6226211 2.6227672 0.60447705
2.6130662 2.6741931 0.60487223
2.603477 2.7258005 0.60526872
2.5933411 2.7800629 0.59822196
2.5840943 2.8291564 0.58115035
2.5744033 2.881315 0.58150697
2.5671132 2.9205499 0.58177513
2.5622413 2.9467683 0.5819543
3.1965418 -0.46185863 0.69135123
3.1908181 -0.43104577 0.69171911
3.1831656 -0.38985389 0.69221073
3.1754894 -0.34853131 0.6927039
3.165858 -0.29668671 0.6933226
3.1561906 -0.24465001 0.69394368
3.1464314 -0.19254851 0.68339306
3.1366875 -0.14009655 0.68399674
3.1288629 -0.097978443 0.6844815
3.1190455 -0.045134038 0.68508983
3.1111159 -0.0028822124 0.67432278
3.1071658 0.018379986 0.67455846
3.101228 0.050341457 0.67491275
3.0912998 0.1037824 0.6755051
3.0813339 0.15742448 0.67609978
3.0733318 0.20050034 0.67657727
3.0653036 0.24371555 0.67705631
3.0552299 0.29793924 0.67765725
3.0451181 0.35236883 0.6782608
3.036998 0.39607787 0.67874533
3.0288515 0.43992966 0.67923141
3.0186293 0.49495351 0.67984128
3.0083683 0.55018783 0.6804536
3.0001278 0.59454441 0.68094528
2.9918604 0.63904679 0.68143862
2.9808702 0.69801378 0.67713845
2.9710207 0.75077474 0.67110389
2.9626577 0.7957927 0.67158383
2.9542663 0.84095961 0.67206538
2.945796 0.88610327 0.66091537
2.9352314 0.94296819 0.66149747
2.9246261 1.0000542 0.66208178
2.9161086 1.0459007 0.66255099
2.907563 1.0919005 0.6630218
2.898988 1.1380544 0.66349417
2.8903849 1.1843629 0.66396809
2.8817527 1.2308271 0.66444367
2.8709197 1.2891355 0.66504049
2.8622248 1.3359394 0.66551954
2.8578646 1.3594072 0.66575974
2.8513098 1.3946881 0.66612083
2.8425457 1.4418621 0.66660362
2.8337519 1.4891963 0.66708803
2.824928 1.5366912 0.66757423
2.8160746 1.5843475 0.66806197
2.8071904 1.6321664 0.66855139
2.7982764 1.6801486 0.66904253
2.7888527 1.7305942 0.66236264
2.7803049 1.7764184 0.65801877
2.7712476 1.8247066 0.64646262
2.7622106 1.8733485 0.64691901
2.7531421 1.922158 0.64737707
2.7440429 1.9711359 0.64783674
2.7349117 2.0202827 0.64829803
2.725749 2.0695999 0.6487608
2.7165551 2.1190884 0.64922535
2.707329 2.1687484 0.64969146
2.6980705 2.2185812 0.65015912
2.6887798 2.2685876 0.65062839
2.6794565 2.3187685 0.65109938
2.6701007 2.3691251 0.65157193
2.660712 2.4196579 0.65204608
2.6512902 2.4703679 0.65252197
2.6418355 2.5212567 0.6529994
2.6323478 2.5723248 0.65347868
2.6228263 2.6235728 0.65395963
2.613271 2.6750019 0.65444219
2.603682 2.7266128 0.65492654
2.5940592 2.7784073 0.65541267
2.5842991 2.8299761 0.63098276
2.5746081 2.882138 0.63142806
2.5673184 2.9213755 0.63176292
2.5624461 2.9475956 0.63198656
3.1967459 -0.4612484 0.73559278
3.1910222 -0.43043387 0.736013
3.1833696 -0.38923949 0.73657471
3.1756935 -0.3479144 0.73713815
3.1660619 -0.29606682 0.73784524
3.156395 -0.24402678 0.73855478
3.1466868 -0.19176555 0.73926735
3.1369429 -0.13931003 0.73998255
3.1291182 -0.097188652 0.7405569
3.1193013 -0.044340044 0.74127752
3.111371 -0.0020851791 0.73059994
3.1074212 0.019178599 0.73088074
3.1014833 0.051142454 0.73130304
3.0915554 0.10458757 0.73200905
3.0819688 0.15601842 0.72815788
3.0735364 0.20115024 0.72194445
3.0655079 0.24436812 0.72249699
3.0554347 0.29859522 0.72319031
3.0453227 0.353028 0.72388619
3.0372028 0.39673978 0.7244451
3.0290561 0.44059432 0.72500581
3.0188339 0.49562144 0.72570932
3.0085731 0.55085921 0.72641563
3.0003326 0.59521842 0.72698283
2.9920652 0.63972378 0.72755188
2.9816909 0.6955691 0.72826582
2.971277 0.75162953 0.72898257
2.9629135 0.79665089 0.72955817
2.9545226 0.84182143 0.73013574
2.9460521 0.88696867 0.7190814
2.9354875 0.94383794 0.71978444
2.9252868 0.99856979 0.71578705
2.9163136 1.0466031 0.70935512
2.907768 1.0926058 0.70990419
2.8991928 1.1387625 0.71045506
2.89059 1.1850741 0.71100777
2.8819578 1.2315413 0.7115624
2.871125 1.2898533 0.7122584
2.8624296 1.3366604 0.71281701
2.8580699 1.3601296 0.71309721
2.8515151 1.3954127 0.71351826
2.8427513 1.44259 0.71408141
2.8339572 1.4899271 0.71464628
2.8251336 1.537425 0.71521324
2.8162796 1.5850844 0.71578211
2.8073962 1.6329064 0.71635282
2.7984817 1.6808915 0.71692556
2.7895367 1.7290409 0.71750021
2.7805614 1.777355 0.71807683
2.7715039 1.8256469 0.70662296
2.7628992 1.8717809 0.70233142
2.7533474 1.9229167 0.69567055
2.7442479 1.9718978 0.6962136
2.7351172 2.0210481 0.69675839
2.7259543 2.0703685 0.69730508
2.7167604 2.1198602 0.69785374
2.7075343 2.1695235 0.69840437
2.6982758 2.2193596 0.69895679
2.6889853 2.2693696 0.69951123
2.6796618 2.3195536 0.7000674
2.670306 2.3699136 0.70062554
2.6609173 2.4204497 0.70118576
2.6514959 2.4711635 0.70174801
2.6420407 2.5220554 0.70231199
2.6325529 2.5731268 0.70287806
2.6230314 2.6243782 0.70344621
2.613476 2.6758108 0.70401627
2.6038873 2.7274256 0.70458835
2.5942643 2.7792234 0.70516253
2.5845044 2.8307955 0.68081903
2.5748136 2.8829613 0.68135309
2.5675232 2.9222012 0.68175471
2.5626512 2.9484234 0.68202305
3.1970007 -0.46048564 0.79089928
3.1916385 -0.43178678 0.78692091
3.1835732 -0.38862485 0.78094184
3.1758969 -0.34729743 0.78157574
3.166266 -0.29544663 0.78237087
3.156599 -0.24340367 0.78316885
3.1468909 -0.19113958 0.78397048
3.1371467 -0.13868058 0.78477496
3.1293223 -0.096556604 0.78542089
3.1195054 -0.043705076 0.78623134
3.1116261 -0.0012880564 0.78688186
3.1076765 0.019977272 0.78720802
3.1017387 0.0519436 0.78769827
3.0918107 0.10539256 0.78851795
3.0814154 0.16109632 0.78257602
3.073792 0.20196261 0.77865815
3.065764 0.24518397 0.77930272
3.0561819 0.29665664 0.77722228
3.0455272 0.35368723 0.76951516
3.0374074 0.39740169 0.7701484
3.0292611 0.44125891 0.77078366
3.0190389 0.49628961 0.77158082
3.0087776 0.55153066 0.77238113
3.0005372 0.59589267 0.77302366
2.9922698 0.64040077 0.77366835
2.9818957 0.69624954 0.77447742
2.9714816 0.75231338 0.77528948
2.9631186 0.79733765 0.77594179
2.9547274 0.84251094 0.77659613
2.9463084 0.88783419 0.77725261
2.935744 0.94470805 0.77807659
2.9246831 1.0039868 0.77192408
2.9165699 1.0474811 0.76786536
2.9080238 1.0934874 0.76851219
2.8993981 1.1394708 0.75741953
2.890795 1.1857853 0.75805098
2.8821626 1.2322553 0.75868464
2.8713305 1.2905712 0.75947982
2.8626349 1.3373811 0.76011813
2.8582752 1.360852 0.76043826
2.8517203 1.3961375 0.76091927
2.8429561 1.4433174 0.76156265
2.8341625 1.4906578 0.7622081
2.8253386 1.5381587 0.76285583
2.8164854 1.5858214 0.76350576
2.807601 1.6336462 0.76415789
2.798687 1.6816347 0.76481229
2.7897422 1.7297871 0.76546878
2.7807672 1.7781045 0.76612765
2.7717607 1.8265877 0.76678884
2.7622397 1.8775609 0.76024979
2.7536039 1.9238653 0.75604284
2.7444532 1.9726598 0.7445941
2.7353225 2.0218134 0.74522251
2.7261596 2.071137 0.74585313
2.7169654 2.1206317 0.74648595
2.7077398 2.1702988 0.7471211
2.6984811 2.2201381 0.74775827
2.6891904 2.2701511 0.74839765
2.6798668 2.3203385 0.74903935
2.6705108 2.3707023 0.7496832
2.6611226 2.4212415 0.75032938
2.6517007 2.4719589 0.75097781
2.642246 2.5228543 0.75162846
2.6327581 2.5739291 0.75228143
2.6232364 2.6251838 0.75293666
2.6136813 2.6766198 0.75359434
2.6040926 2.7282381 0.75425422
2.5944691 2.7800395 0.75491649
2.5852239 2.829134 0.7381016
2.5750186 2.8837843 0.73128217
2.5677285 2.9230273 0.73175061
2.5628562 2.9492512 0.73206341
3.1972558 -0.45972282 0.84621036
3.1911187 -0.42693889 0.84015042
3.1838284 -0.38785684 0.83640552
3.1761522 -0.34652615 0.83712721
3.1665211 -0.2946716 0.8380326
3.1572213 -0.24477351 0.83444118
3.1470952 -0.19051313 0.8286767
3.137351 -0.13805109 0.82957047
3.1295266 -0.095924675 0.83028817
3.11971 -0.043069839 0.83118868
3.1118307 -0.00065037608 0.83191127
3.1078808 0.020616353 0.83227354
3.1019435 0.052584559 0.83281815
3.0920155 0.10603672 0.83372873
3.0820501 0.15969045 0.83464283
3.0740476 0.20277523 0.83537692
3.0660193 0.24599975 0.83611327
3.0553472 0.30327049 0.83220667
3.0457835 0.35451156 0.82655615
3.0376632 0.39822921 0.82728231
3.0295165 0.44208974 0.82801086
3.0192435 0.49695766 0.81745565
3.0089824 0.55220211 0.8183499
3.0007422 0.59656692 0.81906796
2.9924748 0.6410777 0.8197884
2.9821005 0.69692993 0.82069248
2.9716868 0.7529974 0.82160002
2.9633236 0.79802442 0.82232881
2.9549325 0.84320056 0.8230601
2.9465137 0.88852674 0.82379371
2.9359496 0.94540417 0.8247143
2.925344 1.0025027 0.82563859
2.9168262 1.0483594 0.82638079
2.9082806 1.0943693 0.82712561
2.8996544 1.1403562 0.81613022
2.8910515 1.1866744 0.81686026
2.8823678 1.2329695 0.80581051
2.8715353 1.2912891 0.80670494
2.8628402 1.3381021 0.80742276
2.85848 1.3615744 0.80778283
2.8519256 1.3968623 0.80832392
2.8431613 1.4440453 0.80904752
2.8343678 1.4913886 0.80977356
2.8255441 1.5388925 0.81050211
2.8166902 1.5865581 0.8112331
2.8078065 1.6343863 0.81196666
2.798892 1.6823776 0.8127026
2.7899475 1.7305334 0.8134411
2.780972 1.7788539 0.81418216
2.7719655 1.8273401 0.81492573
2.7629287 1.8759933 0.81567192
2.7538607 1.924814 0.81642061
2.7447095 1.9736125 0.80507523
2.7355275 2.0225787 0.7936905
2.7263651 2.0719056 0.79440498
2.7171702 2.1214035 0.79512191
2.7079446 2.1710739 0.79584175
2.6986864 2.2209167 0.79656363
2.6893954 2.2709329 0.79728824
2.6800723 2.3211241 0.79801518
2.6707165 2.3714907 0.79874474
2.6613276 2.4220335 0.7994768
2.651906 2.472754 0.80021161
2.6424513 2.523653 0.80094874
2.6329634 2.5747313 0.80168861
2.6234419 2.6259897 0.80243117
2.6138866 2.677429 0.80317628
2.6042972 2.7290506 0.8039239
2.5946746 2.7808557 0.80467433
2.5849659 2.8326395 0.79295999
2.5752234 2.8846073 0.78121519
2.5679331 2.9238529 0.78175038
2.5630612 2.9500787 0.78210795
3.1974595 -0.45911247 0.89046299
3.1917355 -0.42829138 0.89106667
3.1840837 -0.38708836 0.89187372
3.1764071 -0.34575474 0.89268333
3.1667759 -0.2938965 0.89369899
3.1566908 -0.23985279 0.88806331
3.1473503 -0.18973011 0.8845644
3.1376064 -0.13726428 0.88556975
3.1301534 -0.097307712 0.88184738
3.1199138 -0.042434663 0.876149
3.1120355 -1.2606382e-05 0.87694383
3.1080852 0.021255195 0.87734234
3.1021478 0.053225487 0.87794143
3.0922198 0.10668088 0.87894291
3.0822546 0.16033791 0.87994832
3.0742526 0.20342535 0.88075572
3.0662241 0.24665242 0.88156551
3.0561507 0.3008911 0.88258183
3.0460391 0.3553355 0.88360202
3.0379193 0.39905673 0.88442117
3.0297725 0.44292068 0.88524306
3.0194995 0.49779296 0.87480408
3.0092385 0.55304152 0.87581593
3.0013902 0.59512019 0.87198079
2.9926794 0.64175475 0.86591184
2.9823055 0.6976105 0.86691099
2.9718919 0.75368142 0.8679139
2.9635284 0.79871118 0.86871928
2.9551375 0.84389019 0.86952746
2.9467185 0.88921916 0.8703382
2.9361541 0.94610018 0.87135553
2.925549 1.0032024 0.87237704
2.9170318 1.0490619 0.87319726
2.9084857 1.0950747 0.87402028
2.8999109 1.1412417 0.87484604
2.8913078 1.1875634 0.87567461
2.8826241 1.2338624 0.86472291
2.8723218 1.2892189 0.86273593
2.8630455 1.3388231 0.8547312
2.8586855 1.3622968 0.85513097
2.8521307 1.3975868 0.8557322
2.8433666 1.4447732 0.85653609
2.834573 1.4921196 0.85734272
2.8257494 1.5396264 0.85815209
2.8168957 1.5872951 0.85896426
2.8080118 1.6351264 0.85977912
2.7990971 1.683121 0.86059672
2.790153 1.7312796 0.86141717
2.7811773 1.7796032 0.86224037
2.772171 1.8280928 0.86306649
2.763134 1.876749 0.86389542
2.7540658 1.9255729 0.8647272
2.7449663 1.9745655 0.86556184
2.7357843 2.0235357 0.85428095
2.7265701 2.0726745 0.84296066
2.717376 2.1221757 0.84376192
2.7081499 2.171849 0.84456605
2.6988914 2.2216949 0.84537286
2.6896009 2.2717152 0.84618247
2.6802776 2.3219092 0.84699494
2.6709216 2.3722792 0.84781009
2.6615331 2.4228258 0.84862822
2.6521111 2.4735496 0.84944922
2.6426566 2.5244517 0.85027307
2.6331687 2.5755334 0.85109979
2.6236467 2.6267951 0.85192955
2.6140916 2.6782382 0.85276216
2.6045024 2.7298632 0.8535977
2.5948794 2.781672 0.85443622
2.585171 2.8334591 0.84280926
2.5754285 2.8854303 0.83115232
2.5681386 2.9246788 0.83175433
2.5632665 2.9509065 0.83215642
3.1976633 -0.45850205 0.93471867
3.1919396 -0.42767918 0.9353748
3.1842873 -0.38647372 0.93625194
3.1766109 -0.34513772 0.93713188
3.1669803 -0.29327619 0.93823588
3.1573133 -0.24122256 0.93934399
3.1476054 -0.18894702 0.94045669
3.1378615 -0.1364772 0.94157362
3.1296148 -0.092329413 0.93578136
3.1201696 -0.04164061 0.93235433
3.1122909 0.00078478456 0.93323946
3.1083407 0.022054046 0.93368322
3.1027789 0.051828712 0.92979091
3.0924246 0.10732509 0.92416054
3.0824592 0.16098534 0.92525709
3.0744569 0.20407562 0.92613786
3.0664287 0.24730533 0.92702127
3.0563555 0.30154729 0.92812979
3.0462439 0.35599509 0.92924255
3.0381241 0.39971897 0.93013626
3.0320175 0.43260098 0.93080813
3.0279374 0.45457006 0.93125713
3.0197554 0.49862802 0.93215758
3.0094948 0.55388105 0.93328679
3.0008106 0.60037374 0.92732823
2.9929357 0.64260101 0.92357117
2.9830689 0.69561946 0.92174166
2.9720967 0.7543655 0.91423118
2.9637334 0.79939818 0.91511327
2.9553425 0.84457988 0.91599828
2.946924 0.88991177 0.91688615
2.9363594 0.9467963 0.91800046
2.9257541 1.003902 0.91911894
2.9172366 1.0497645 0.92001718
2.9086907 1.0957803 0.92091858
2.9001162 1.1419501 0.92182302
2.8915129 1.1882749 0.92273039
2.8828809 1.2347554 0.92364073
2.8714063 1.2963479 0.91978365
2.8633022 1.3397245 0.91387177
2.858942 1.3632002 0.9143216
2.8523359 1.3983119 0.90314412
2.8435721 1.4455011 0.9040283
2.8347783 1.4928503 0.90491551
2.8259547 1.5403605 0.90580559
2.8171008 1.588032 0.90669894
2.808217 1.6358666 0.90759522
2.7993031 1.6838641 0.90849453
2.7903578 1.7320259 0.90939683
2.7813826 1.7803528 0.91030234
2.7723765 1.8288455 0.91121101
2.7633395 1.8775051 0.91212273
2.7542713 1.926332 0.91303766
2.7451715 1.9753277 0.91395557
2.7360408 2.0244925 0.91487688
2.7268269 2.0736356 0.90366071
2.7175813 2.1229477 0.89240557
2.7083552 2.1726243 0.89329416
2.6990972 2.2224739 0.89418596
2.689806 2.2724969 0.89508063
2.6804826 2.3226948 0.89597839
2.6711268 2.3730679 0.89687943
2.6617379 2.4236176 0.89778352
2.6523166 2.474345 0.89869076
2.6428618 2.5252507 0.89960128
2.633374 2.5763357 0.90051496
2.623852 2.6276011 0.90143186
2.6142967 2.6790476 0.90235198
2.604708 2.7306762 0.90327543
2.5950847 2.7824881 0.9042021
2.5853763 2.8342791 0.8926627
2.5764256 2.8818295 0.87685543
2.5699821 2.9168465 0.88577735
2.5634713 2.9517343 0.88220894
3.1979177 -0.45773894 0.99004287
3.1921942 -0.42691398 0.99076468
3.1844912 -0.38585895 0.98063338
3.176815 -0.34452051 0.98158365
3.1671841 -0.29265594 0.98277593
3.1575174 -0.24059892 0.98397261
3.1478095 -0.18832058 0.9851743
3.1380661 -0.13584739 0.98638058
3.1302416 -0.093712509 0.98734915
3.120425 -0.040846497 0.98856443
3.1125464 0.0015820563 0.98953968
3.1085966 0.022853166 0.99002874
3.1022322 0.056865722 0.98404032
3.0926797 0.10813046 0.98068702
3.082715 0.16179487 0.98189801
3.0746617 0.20472565 0.97152323
3.0666335 0.24795803 0.9724803
3.0565603 0.30220342 0.97368115
3.0464487 0.35665458 0.97488654
3.0383286 0.40038103 0.97585452
3.0322223 0.43326509 0.97658253
3.0281422 0.4552356 0.9770689
3.0199606 0.49929634 0.97804427
3.0096993 0.55455273 0.97926754
3.0014589 0.59892714 0.98024988
2.9931917 0.64344764 0.98123556
2.9822018 0.70243824 0.97758597
2.9723532 0.75522065 0.97213298
2.9643884 0.79793251 0.96841991
2.9555471 0.84526962 0.96247268
2.9471285 0.89060426 0.96343768
2.9365642 0.94749254 0.96464866
2.9259591 1.0046018 0.96586442
2.9174416 1.0504673 0.9668408
2.9088957 1.0964859 0.96782047
2.9003215 1.1426587 0.96880335
2.8917186 1.1889864 0.96978956
2.8830862 1.2354698 0.970779
2.8722537 1.2938025 0.97202086
2.8635583 1.3406258 0.97301757
2.8591986 1.3641036 0.97351742
2.8525925 1.3992178 0.96241426
2.8442471 1.4439745 0.95859754
2.8349836 1.4935813 0.95249188
2.8261595 1.5410943 0.95346296
2.8173063 1.5887694 0.95443726
2.8084223 1.6366067 0.95541495
2.7995083 1.6846075 0.95639592
2.7905633 1.7327724 0.95738029
2.7815878 1.7811024 0.958368
2.7725818 1.8295984 0.95935917
2.7635446 1.8782611 0.96035367
2.7544763 1.9270911 0.96135157
2.7453771 1.9760902 0.96235305
2.7362461 2.0252581 0.96335793
2.7270834 2.0745964 0.96436638
2.7182779 2.1213558 0.94829893
2.7085602 2.1733997 0.94202608
2.6993027 2.2232528 0.94300276
2.6900115 2.273279 0.9439826
2.6806881 2.3234799 0.9449659
2.6713321 2.3738565 0.94595242
2.6619434 2.4244099 0.94694269
2.6525216 2.4751406 0.9479363
2.6430669 2.5260496 0.94893336
2.6335785 2.5771379 0.94993389
2.6240575 2.6284068 0.95093817
2.6145022 2.6798568 0.95194584
2.6049132 2.7314892 0.95295715
2.5952899 2.7833045 0.95397192
2.5855813 2.8350987 0.94252008
2.5782654 2.8740082 0.93079358
2.5709803 2.913239 0.93152893
2.5636766 2.9525623 0.93226558
3.198173 -0.45697582 1.0453718
3.1924491 -0.42614841 1.046159
3.1847463 -0.38509071 1.0361148
3.1770699 -0.34374905 1.0371529
3.167439 -0.29188061 1.0384555
3.1577218 -0.23997551 1.0286044
3.1480138 -0.18769431 1.0298951
3.1382704 -0.13521791 1.0311906
3.130446 -0.093080312 1.032231
3.1206295 -0.040211022 1.0335363
3.1127505 0.002219975 1.0345836
3.1088009 0.023492306 1.035109
3.1028633 0.055469215 1.0358984
3.0929358 0.10893615 1.0372186
3.0829711 0.16260445 1.0385435
3.0749171 0.20553823 1.0282598
3.066889 0.2487742 1.0293088
3.057308 0.30026427 1.0277095
3.0466533 0.35731399 1.0205338
3.0385332 0.40104327 1.0215762
3.0324271 0.43392944 1.0223602
3.026304 0.46690503 1.0231464
3.0181177 0.51099247 1.0241972
3.0099044 0.55522442 1.0252516
3.0016642 0.59960163 1.0263094
2.9933965 0.64412475 1.0273708
2.9830229 0.69999278 1.0287026
2.972609 0.75607592 1.0300395
2.9637964 0.80326807 1.0242037
2.9558041 0.84613198 1.0205705
2.9484136 0.88570684 1.015677
2.9452767 0.90282351 1.0218976
2.9367697 0.94818878 1.0113003
2.9261644 1.0053017 1.0126133
2.9176469 1.0511699 1.0136678
2.909101 1.0971913 1.0147257
2.900527 1.1433673 1.0157872
2.8919234 1.189698 1.0168523
2.8832912 1.2361841 1.017921
2.8724587 1.2945206 1.019262
2.8637638 1.341347 1.0203385
2.8594038 1.364826 1.0208782
2.852849 1.4001241 1.0216895
2.8436155 1.4495754 1.0157008
2.8352401 1.4944949 1.0119678
2.8263652 1.5418286 1.0011238
2.8175116 1.5895066 1.0021793
2.8086278 1.6373472 1.0032384
2.7997134 1.6853509 1.0043012
2.7907691 1.7335188 1.0053674
2.7817934 1.781852 1.0064373
2.7727873 1.8303514 1.0075111
2.7637501 1.8790171 1.0085884
2.7546821 1.9278505 1.0096695
2.7455826 1.9768527 1.0107543
2.7364514 2.0260239 1.011843
2.727289 2.0753653 1.0129352
2.7176032 2.1272418 1.006785
2.7092583 2.1718028 0.99801672
2.6995075 2.2240312 0.99182343
2.6902165 2.274061 0.99288839
2.6808934 2.3242655 0.99395716
2.6715376 2.3746455 0.99502951
2.6621487 2.4252019 0.99610561
2.6527267 2.4759359 0.99718565
2.6432722 2.5268486 0.99826926
2.6337843 2.5779405 0.99935699
2.6242626 2.6292126 1.0004483
2.6147072 2.680666 1.0015435
2.6051185 2.732302 1.0026429
2.595495 2.7841208 1.0037458
2.5857866 2.8359189 0.99238145
2.5784707 2.8748307 0.98072034
2.5711851 2.9140642 0.9815225
2.5638814 2.9533901 0.98232615
3.1983769 -0.45636523 1.0896384
3.1926534 -0.42553622 1.0904782
3.1850016 -0.38432193 1.0916009
3.1773252 -0.34297758 1.0927272
3.1676943 -0.29110521 1.0941399
3.1579771 -0.2391963 1.0843989
3.1482692 -0.18691102 1.0858009
3.1388958 -0.13659748 1.0826682
3.1306503 -0.092447996 1.0771161
3.1208336 -0.039575756 1.0785115
3.1129551 0.0028579235 1.0796311
3.1090057 0.024131596 1.0801924
3.1030679 0.056110442 1.0810364
3.0931404 0.10958058 1.0824474
3.0831754 0.16325212 1.0838637
3.0751731 0.20635135 1.0850012
3.0671453 0.2495904 1.0861422
3.0564733 0.30688047 1.0827705
3.0469098 0.35813859 1.077598
3.0387897 0.40187111 1.0787334
3.0326319 0.43459368 1.0681413
3.0265088 0.46757138 1.0689834
3.0183227 0.51166147 1.0701095
3.0101092 0.55589622 1.0712391
3.001869 0.60027611 1.0723727
2.9936016 0.64480197 1.0735098
2.983228 0.70067346 1.0749367
2.9728141 0.75676012 1.0763692
2.9644508 0.80180264 1.0775195
2.9560602 0.84699434 1.0786736
2.9497492 0.88098174 1.0795414
2.945482 0.90351695 1.0684766
2.9370258 0.94905901 1.0696203
2.9263694 1.0060015 1.059366
2.9178519 1.0518726 1.0604984
2.9093063 1.0978972 1.0616348
2.900732 1.1440759 1.0627748
2.8921287 1.1904094 1.0639186
2.8834965 1.2368988 1.0650663
2.872664 1.2952387 1.0665069
2.8639688 1.3420682 1.067663
2.8596091 1.3655488 1.0682428
2.8530548 1.4008491 1.0691142
2.8442905 1.4480488 1.0702795
2.8354967 1.4954088 1.0714489
2.8266218 1.5427463 1.0607054
2.8181911 1.587966 1.0570273
2.8088329 1.6380873 1.0510656
2.7999191 1.6860943 1.0522101
2.7909741 1.7342656 1.0533583
2.7819986 1.7826018 1.0545105
2.7729924 1.831104 1.0556667
2.7639556 1.8797731 1.0568268
2.7548869 1.9286098 1.057991
2.7457879 1.9776149 1.0591593
2.7366567 2.0267894 1.0603315
2.7274942 2.0761342 1.0615078
2.7182996 2.1256502 1.0626884
2.7085807 2.1777105 1.0566175
2.6997128 2.2248096 1.0406477
2.6904225 2.2748432 1.041798
2.6810987 2.3250511 1.0429522
2.6717432 2.3754342 1.0441104
2.6623542 2.4259944 1.0452726
2.6529326 2.4767318 1.0464388
2.6434774 2.5276477 1.0476093
2.6339896 2.578743 1.0487837
2.6244678 2.6300187 1.0499624
2.6149125 2.6814756 1.0511453
2.6053236 2.7331147 1.0523323
2.5957003 2.7849374 1.0535237
2.5855284 2.8394258 1.0472956
2.578676 2.8756533 1.0306513
2.5713906 2.9148896 1.0315202
2.5640869 2.9542181 1.0323907
3.1985807 -0.45575464 1.1339083
3.192857 -0.42492372 1.1348006
3.185205 -0.3837074 1.1359934
3.1775293 -0.34236008 1.13719
3.1678987 -0.29048485 1.1386913
3.158232 -0.23841697 1.140198
3.1485245 -0.18612766 1.1417112
3.13836 -0.13163429 1.1365656
3.1309061 -0.091657639 1.1332273
3.1210892 -0.038781434 1.1347352
3.1131599 0.0034959614 1.1246817
3.1092098 0.024770856 1.1252793
3.1032724 0.056751698 1.1261777
3.0933449 0.11022499 1.1276798
3.0833802 0.16389976 1.1291875
3.0753779 0.20700186 1.1303983
3.0673497 0.25024328 1.1316129
3.0572765 0.30450019 1.133137
3.0471652 0.35896301 1.1346668
3.0390458 0.40269902 1.1358953
3.0328879 0.43542409 1.1253725
3.0267646 0.46840429 1.1262851
3.0189683 0.51022267 1.1228499
3.0103145 0.55656803 1.1172303
3.0020742 0.60095078 1.1184392
2.9938068 0.64547932 1.119652
2.983433 0.70135427 1.121174
2.9730191 0.75744438 1.1227019
2.9646561 0.80248976 1.1239291
2.9562652 0.84768426 1.1251601
2.9499547 0.88167387 1.126086
2.9457383 0.90438378 1.1267045
2.9372823 0.94992954 1.1279453
2.926626 1.0068765 1.1178116
2.918515 1.0503833 1.1142944
2.9095116 1.098603 1.1085471
2.9009368 1.1447845 1.1097659
2.8923342 1.1911211 1.1109886
2.8837016 1.2376134 1.1122156
2.8728695 1.2959571 1.1137552
2.8641744 1.3427896 1.1149912
2.8598142 1.3662717 1.1156107
2.8532596 1.4015741 1.1165423
2.8444958 1.448777 1.1177881
2.8357024 1.4961402 1.119038
2.8268783 1.5436637 1.1202921
2.8175504 1.5936272 1.1144477
2.8095143 1.6365421 1.1060071
2.8001244 1.6868377 1.1001226
2.7911797 1.7350123 1.1013529
2.7822042 1.7833517 1.1025873
2.7731979 1.831857 1.1038262
2.7641606 1.8805292 1.1050692
2.7550924 1.929369 1.1063164
2.7459931 1.9783776 1.1075681
2.7368619 2.0275552 1.1088241
2.7276995 2.0769033 1.1100843
2.7185054 2.1264226 1.111349
2.7092788 2.1761138 1.1126182
2.700412 2.223208 1.0967361
2.6906276 2.2756255 1.0907116
2.6813042 2.3258364 1.0919513
2.6719484 2.3762231 1.0931951
2.6625597 2.4267867 1.0944433
2.6531379 2.4775276 1.095696
2.6436832 2.5284469 1.0969533
2.6341951 2.5795457 1.0982146
2.6246727 2.6308246 1.0994805
2.615118 2.6822851 1.100751
2.6055288 2.7339282 1.102026
2.5959055 2.7857542 1.1033055
2.5862484 2.837764 1.1045895
2.5788808 2.8764758 1.0805863
2.5715952 2.9157147 1.0815219
2.5642922 2.9550462 1.0824594
3.1988356 -0.4549914 1.1892502
3.1931124 -0.42415828 1.1902081
3.1854095 -0.38309234 1.180389
3.1777334 -0.34174275 1.181656
3.168103 -0.28986424 1.1832457
3.1584363 -0.23779327 1.184841
3.1487288 -0.18550104 1.1864433
3.1389856 -0.13301387 1.1880517
3.1311615 -0.090867162 1.1893431
3.121345 -0.037986994 1.1909634
3.1114402 0.014931858 1.1813211
3.1035283 0.057553113 1.1826092
3.0941398 0.10787763 1.177667
3.0835848 0.1645477 1.1745143
3.0755825 0.20765205 1.1757985
3.0675547 0.25089642 1.1770867
3.0574813 0.30515647 1.1787033
3.04737 0.35962278 1.1803259
3.0392504 0.40336144 1.1816288
3.033144 0.43625462 1.1826086
3.0270212 0.46923733 1.1835914
3.0183942 0.51544231 1.1780797
3.0105703 0.55740786 1.1747239
3.0027223 0.5995034 1.1713527
2.9940119 0.64615691 1.1657978
2.9836378 0.70203513 1.1674149
2.9732239 0.7581287 1.1690383
2.9648609 0.80317688 1.170342
2.9564703 0.84837437 1.1716501
2.9501598 0.882366 1.1726338
2.9459438 0.90507746 1.1732911
2.9374878 0.95062602 1.1746092
2.9268825 1.0077515 1.1762626
2.9179077 1.0558221 1.1706281
2.9097681 1.0994852 1.1671928
2.9016025 1.1432863 1.1637422
2.8925393 1.1918328 1.1580622
2.8839068 1.238328 1.1593683
2.8730748 1.2966754 1.1610072
2.8643794 1.3435109 1.1623228
2.8600197 1.3669946 1.1629826
2.8534656 1.4022992 1.1639743
2.8447011 1.4495051 1.1653001
2.8359075 1.4968712 1.1666307
2.8270836 1.5443981 1.1679658
2.8182304 1.5920868 1.1693053
2.8088708 1.6422238 1.1635383
2.8008068 1.685288 1.1551583
2.7913849 1.735759 1.149351
2.7824094 1.7841015 1.1506678
2.7734032 1.8326099 1.1519893
2.7643661 1.8812852 1.1533152
2.7552977 1.9301283 1.1546457
2.7461989 1.97914 1.1559807
2.7370675 2.028321 1.1573204
2.7279048 2.0776725 1.1586649
2.7187104 2.1271949 1.1600136
2.7094841 2.1768897 1.1613675
2.6997313 2.2291379 1.1554654
2.6908326 2.2764077 1.139629
2.6815097 2.326622 1.140954
2.6721535 2.3770123 1.1422837
2.662765 2.4275789 1.1436182
2.6533432 2.4783232 1.1449571
2.6438885 2.5292461 1.1463009
2.6344004 2.5803483 1.1476494
2.6248784 2.6316309 1.1490027
2.6153231 2.6830947 1.1503607
2.6057341 2.734741 1.1517236
2.5961111 2.7865708 1.1530913
2.5864532 2.8385842 1.1544639
2.5790861 2.8772991 1.1305252
2.5718005 2.9165404 1.1315277
2.564497 2.9558742 1.1325321
3.199091 -0.45422792 1.2445968
3.1933672 -0.42339242 1.2456203
3.1856639 -0.38232368 1.2358884
3.1779885 -0.34097105 1.2372434
3.1688275 -0.29172719 1.2360709
3.1586404 -0.23716986 1.2294874
3.1489334 -0.18487418 1.2311788
3.13919 -0.13238391 1.2328764
3.1313658 -0.090234995 1.2342396
3.1215491 -0.03735131 1.2359498
3.111696 0.015730262 1.2376667
3.1037838 0.058354795 1.2390453
3.0933208 0.11439382 1.2323754
3.0838406 0.16535744 1.231178
3.0762186 0.20624116 1.2279425
3.067759 0.25154939 1.222564
3.0576861 0.30581304 1.2242731
3.0475752 0.36028254 1.2259883
3.0394552 0.40402395 1.2273657
3.033349 0.43691894 1.2284017
3.027226 0.46990389 1.2294405
3.0190399 0.51400352 1.2308292
3.0108266 0.55824786 1.2322224
3.0021431 0.60475916 1.2267761
2.9942682 0.64700359 1.2234851
2.9844589 0.69959033 1.2185122
2.9734292 0.75881314 1.215378
2.9650662 0.80386412 1.2167585
2.9566755 0.84906435 1.2181436
2.9503651 0.88305813 1.2191851
2.9461489 0.9057709 1.2198812
2.9376926 0.95132244 1.2212769
2.9270875 1.0084515 1.2230272
2.91857 1.0543327 1.2244332
2.9100246 1.1003675 1.2258438
2.90099 1.1487634 1.220277
2.8932061 1.1903301 1.2121291
2.8841124 1.2390428 1.2065244
2.8732803 1.297394 1.2082628
2.8645849 1.3442323 1.2096581
2.860225 1.3677175 1.2103578
2.8536706 1.4030244 1.2114097
2.8449066 1.4502335 1.212816
2.8361125 1.4976025 1.2142272
2.8272889 1.5451324 1.215643
2.8184359 1.5928245 1.2170639
2.8095517 1.6406789 1.2184896
2.8001604 1.69099 1.2128003
2.792069 1.7342043 1.2044809
2.7826149 1.7848516 1.1987522
2.7736087 1.8333631 1.2001562
2.7645714 1.8820415 1.2015649
2.7555034 1.9308879 1.2029785
2.7464037 1.9799027 1.2043971
2.737273 2.0290868 1.2058206
2.7281103 2.0784416 1.2072489
2.7189159 2.1279674 1.2086822
2.7096899 2.1776652 1.2101204
2.7004311 2.227536 1.2115637
2.691534 2.2748005 1.1958152
2.6817153 2.3274078 1.1899607
2.672359 2.3778014 1.1913763
2.6629705 2.4283714 1.1927969
2.6535485 2.4791191 1.1942222
2.6440938 2.5300453 1.1956526
2.6346056 2.581151 1.1970882
2.6250837 2.632437 1.1985286
2.6163089 2.6795404 1.1957172
2.6131866 2.6969967 1.2127458
2.6059394 2.7355542 1.2014252
2.5963161 2.7873871 1.202881
2.5866585 2.8394043 1.2043421
2.5792913 2.8781216 1.1804682
2.572006 2.9173656 1.1815374
2.5647025 2.9567025 1.182609
3.1992946 -0.45361733 1.2888778
3.1935713 -0.42277974 1.2899538
3.1859195 -0.38155484 1.2913922
3.1782434 -0.34019929 1.2928352
3.1680403 -0.28540844 1.289971
3.158896 -0.23639017 1.2853
3.1496625 -0.18675053 1.2842138
3.139394 -0.13175398 1.2777044
3.1315703 -0.089602411 1.2791393
3.1217537 -0.036715835 1.2809397
3.1119006 0.016369075 1.2827468
3.1039884 0.058996439 1.2841979
3.0940609 0.11248104 1.2860186
3.0840964 0.1661673 1.2878463
3.0756624 0.21133965 1.2825733
3.0680149 0.25236574 1.2794157
3.0584896 0.30343372 1.2746221
3.04778 0.36094236 1.271654
3.0396602 0.40468636 1.273106
3.0335538 0.43758357 1.2741979
3.0274308 0.47057036 1.275293
3.0192447 0.51467276 1.2767568
3.0110316 0.55891979 1.2782254
3.0027912 0.60331213 1.2796988
2.9945242 0.64785039 1.2811773
2.9835927 0.70640862 1.2744497
2.9736857 0.75966871 1.2733079
2.9652712 0.80455136 1.2631783
2.9568806 0.84975433 1.2646406
2.9505699 0.88375038 1.2657399
2.9463534 0.90646464 1.2664746
2.9378977 0.95201898 1.267948
2.9272926 1.0091517 1.2697958
2.9187751 1.0550358 1.2712797
2.9102297 1.1010735 1.2727687
2.9016559 1.1472654 1.2742627
2.8925905 1.1958265 1.2687712
2.8843687 1.239936 1.265475
2.8734856 1.2981124 1.2555221
2.8647902 1.3449538 1.2569971
2.8604302 1.3684404 1.2577368
2.8538754 1.4037497 1.2588485
2.8451121 1.4509616 1.2603354
2.8363183 1.4983337 1.2618273
2.8274946 1.545867 1.2633243
2.8186412 1.5935621 1.2648263
2.8097575 1.6414194 1.2663333
2.8008432 1.6894405 1.2678456
2.7914195 1.7399271 1.2622348
2.7833006 1.7832921 1.2539766
2.7738144 1.8341162 1.2483267
2.7647772 1.8827977 1.2498184
2.7557089 1.9316475 1.2513152
2.7466092 1.9806654 1.2528173
2.7374783 2.0298529 1.2543243
2.7283161 2.0792108 1.2558368
2.7191215 2.1287398 1.2573545
2.7098949 2.1784408 1.2588774
2.7006366 2.2283154 1.2604055
2.6908498 2.2807527 1.2546736
2.6819203 2.3281937 1.2389715
2.6725647 2.3785906 1.2404728
2.6631753 2.4291642 1.2419792
2.653754 2.4799151 1.2434912
2.644299 2.5308447 1.2450082
2.6348109 2.5819538 1.2465309
2.6252892 2.6332433 1.2480588
2.6181269 2.6718237 1.2492081
2.6133406 2.6976044 1.2499759
2.6061447 2.7363675 1.2511307
2.5965216 2.7882042 1.2526751
2.586864 2.840225 1.2542245
2.5794969 2.8789449 1.2304152
2.572211 2.9181914 1.2315513
2.5649076 2.9575312 1.2326896
3.1994989 -0.45300627 1.3331618
3.1937752 -0.42216724 1.3342904
3.1861236 -0.3809399 1.335799
3.1784477 -0.33958179 1.3373125
3.1688178 -0.28769237 1.3392113
3.1591511 -0.23561054 1.3411171
3.1488664 -0.18037933 1.3383429
3.1396496 -0.13096669 1.333744
3.1318259 -0.088811725 1.3352687
3.1219585 -0.036080062 1.3259327
3.1121051 0.017008126 1.3278302
3.104193 0.059637755 1.329354
3.0942659 0.11312574 1.3312659
3.0843008 0.16681528 1.333185
3.076299 0.20992894 1.3347259
3.0682709 0.25318235 1.3362721
3.0576553 0.31004906 1.3297595
3.0480359 0.36176717 1.3287412
3.039865 0.40534878 1.3188494
3.0337589 0.4382481 1.3199977
3.0276358 0.471237 1.3211488
3.0194497 0.515342 1.3226876
3.0112367 0.55959183 1.3242315
3.0029967 0.60398692 1.3257809
2.9947298 0.64852804 1.327335
2.9843562 0.70441866 1.329285
2.973942 0.76052445 1.3312428
2.965528 0.80541056 1.3212086
2.9575365 0.84828389 1.3180366
2.9507754 0.88444275 1.3122982
2.946559 0.90715832 1.3130715
2.9381027 0.9527154 1.3146224
2.9274981 1.0098519 1.3165677
2.9189808 1.0557389 1.3181297
2.910435 1.1017795 1.319697
2.901861 1.1479743 1.3212696
2.8932576 1.194324 1.3228476
2.8846259 1.2408297 1.3244306
2.8737421 1.2990105 1.3146013
2.8649952 1.3456752 1.3043398
2.8606358 1.3691635 1.3051193
2.8540812 1.404475 1.3062913
2.8453169 1.45169 1.3078586
2.8365235 1.4990652 1.3094311
2.8276999 1.5466013 1.3110088
2.8188465 1.5942993 1.312592
2.8099627 1.6421599 1.3141809
2.8010485 1.6901841 1.3157748
2.792104 1.7383728 1.3173743
2.7838264 1.7825022 1.3068166
2.7808809 1.7988353 1.3193811
2.7740197 1.8348694 1.296501
2.7649825 1.8835542 1.2980756
2.7559142 1.9324069 1.2996556
2.7468145 1.9814281 1.301241
2.7376838 2.0306189 1.302832
2.7285211 2.0799801 1.3044285
2.7193267 2.1295123 1.3060305
2.7101004 2.1792169 1.3076379
2.7008421 2.2290943 1.3092512
2.691551 2.2791457 1.3108701
2.6826234 2.3265812 1.2952561
2.6727695 2.3793795 1.2895731
2.6633811 2.4299567 1.2911656
2.6539593 2.480711 1.2927641
2.6445048 2.5316441 1.2943679
2.6350162 2.5827568 1.2959772
2.6254945 2.6340494 1.2975925
2.6183326 2.6726329 1.2988076
2.6135459 2.6984153 1.2996196
2.6063499 2.7371805 1.3008401
2.5967267 2.7890208 1.3024726
2.587069 2.8410451 1.304111
2.5797019 2.8797677 1.2803663
2.5724158 2.9190168 1.281569
2.5651128 2.9583595 1.2827747
3.1221116 -0.035603404 1.3596796
3.1122584 0.017486989 1.3616449
3.1043465 0.060118854 1.3632231
3.0944192 0.11360925 1.3652031
3.0844548 0.16730122 1.3671908
3.0764525 0.21041694 1.3687871
3.0684247 0.25367242 1.3703882
3.0583522 0.30794662 1.3723977
3.0482409 0.36242694 1.3744141
3.0400703 0.40601146 1.3645967
3.0339637 0.43891269 1.3658006
3.0278406 0.47190356 1.3670079
3.0196548 0.51601142 1.3686219
3.0114417 0.56026387 1.3702414
3.0032015 0.6046617 1.371866
2.9949343 0.64920557 1.3734961
2.984561 0.7050997 1.3755416
2.9741473 0.76120901 1.3775946
2.9657843 0.80626982 1.3792436
2.9569423 0.8536405 1.3740022
2.9510317 0.88530815 1.3705012
2.9468157 0.90802556 1.371323
2.9383082 0.95341218 1.3613007
2.9277031 1.010552 1.363343
2.9191864 1.056442 1.3649832
2.9106402 1.1024854 1.366629
2.9020662 1.1486833 1.3682803
2.8934631 1.1950359 1.3699372
2.884831 1.2415445 1.3715994
2.8739986 1.2999088 1.3736857
2.8652525 1.3465774 1.3635231
2.8608925 1.3700674 1.3643527
2.8542864 1.4052002 1.3537376
2.8455224 1.4524183 1.3553853
2.8367288 1.4997966 1.3570386
2.8279057 1.5473359 1.3586971
2.8190517 1.595037 1.3603617
2.810168 1.6429007 1.3620318
2.801254 1.690928 1.3637077
2.7923093 1.7391195 1.3653892
2.7855818 1.7753665 1.3666538
2.7810867 1.7995863 1.3674991
2.7742763 1.8358109 1.3567245
2.7651882 1.8843107 1.3463366
2.7561195 1.9331665 1.3479998
2.7470202 1.9821911 1.3496687
2.7378893 2.0313849 1.3513435
2.7287264 2.0807493 1.353024
2.7195323 2.130285 1.3547105
2.7103059 2.1799927 1.3564025
2.7010474 2.2298737 1.3581007
2.691757 2.2799282 1.3598047
2.6819363 2.3325558 1.354244
2.6729753 2.3801692 1.3386773
2.6635866 2.4307492 1.340356
2.6541648 2.4815071 1.3420408
2.6447098 2.5324438 1.3437313
2.6352215 2.5835595 1.345428
2.6256998 2.634856 1.3471304
