# .PCD v0.7 - Point Cloud Data file format
VERSION 0.7
FIELDS x y z
SIZE 4 4 4
TYPE F F F
COUNT 1 1 1
WIDTH 1493
HEIGHT 1
VIEWPOINT 0 0 0 1 0 0 0
POINTS 1493
DATA ascii
3.0639012 -0.53887641 0.58304971
3.0658398 -0.48030865 0.58326876
3.0673873 -0.43355927 0.5834437
3.0689316 -0.38689935 0.58361834
3.070473 -0.34032869 0.58379251
3.0720117 -0.29384702 0.58396643
3.0735471 -0.24745408 0.58414
3.0758445 -0.17803054 0.58439964
3.0746968 -0.21271473 0.58426988
3.077373 -0.13185836 0.58457243
3.0788982 -0.085774064 0.58474475
3.08004 -0.051265568 0.5848738
2.9991119 -2.4904728 0.60011637
3.00037 -2.452457 0.60024029
3.0020452 -2.4018533 0.60040534
3.0037167 -2.3513508 0.60057002
3.0053852 -2.3009484 0.60073441
3.0070503 -2.2506464 0.6008985
3.0087123 -2.2004442 0.60106224
3.0103703 -2.1503417 0.60122555
3.0120256 -2.1003387 0.60138863
3.0136776 -2.0504346 0.60155147
3.0153263 -2.0006292 0.60171378
3.0169718 -1.9509223 0.6018759
3.0186133 -1.9013134 0.60203767
3.0202525 -1.8518022 0.6021992
3.0222967 -1.7900476 0.6024006
3.0214796 -1.8147299 0.60232008
3.0235205 -1.7530725 0.60252112
3.0255561 -1.6915686 0.60272169
3.0274854 -1.630392 0.6148988
3.0291069 -1.5814136 0.61504686
3.030725 -1.5325313 0.61519456
3.0322185 -1.4862556 0.62011009
3.0338502 -1.4352384 0.62741905
3.035459 -1.386642 0.6275543
3.0370646 -1.3381405 0.62768924
3.0386674 -1.2897336 0.62782383
3.0402672 -1.2414211 0.62795836
3.0418627 -1.1932024 0.62809235
3.0434563 -1.1450777 0.62822628
3.0450466 -1.0970464 0.62835991
3.0466337 -1.0491084 0.62849325
3.0486131 -0.98931348 0.62865949
3.047822 -1.0132129 0.62859315
3.0501933 -0.94159198 0.62879235
3.0521646 -0.8820554 0.62895799
3.0537379 -0.83453333 0.62909025
3.0553083 -0.78710318 0.6292221
3.0568752 -0.73976445 0.62935382
3.0584395 -0.69251692 0.62948519
3.0600007 -0.64536029 0.62961644
3.0615585 -0.59829438 0.62974739
3.0635021 -0.53959382 0.62991071
3.0654414 -0.48102462 0.63007361
3.0669889 -0.43427402 0.63020366
3.0685339 -0.38761303 0.63033342
3.0700755 -0.34104121 0.630463
3.0716143 -0.29455844 0.63059223
3.0731504 -0.24816434 0.63072133
3.0754488 -0.17873915 0.63091439
3.0743005 -0.21342416 0.63081795
3.0769773 -0.13256586 0.63104278
3.0785029 -0.086480424 0.63117105
3.0796449 -0.051971048 0.63126701
2.9986961 -2.4912386 0.64884973
2.9999547 -2.453222 0.64893723
3.0016303 -2.4026175 0.64905369
3.0033021 -2.3521132 0.64916998
3.0049708 -2.3017097 0.64928597
3.0066366 -2.2514064 0.64940172
3.0082984 -2.2012031 0.64951736
3.0099576 -2.1510994 0.64963263
3.0116129 -2.1010947 0.64974773
3.0132651 -2.0511897 0.64986265
3.0149145 -2.0013826 0.64997721
3.0165603 -1.9516746 0.65009165
3.018203 -1.9020644 0.65020591
3.0198421 -1.8525523 0.65031976
3.0217843 -1.790983 0.66247755
3.0210695 -1.815479 0.65040517
3.0230088 -1.754007 0.66255367
3.0250454 -1.6925012 0.66268057
3.0269747 -1.6313223 0.67478424
3.0285966 -1.5823426 0.67487353
3.0302155 -1.5334587 0.67496264
3.0318313 -1.4846705 0.67505145
3.0334435 -1.4359778 0.6751402
3.0350528 -1.3873802 0.67522877
3.0366588 -1.3388776 0.67531723
3.0382619 -1.2904695 0.67540544
3.0398614 -1.2421557 0.67549342
3.0414586 -1.193936 0.67558128
3.0430517 -1.14581 0.67566895
3.0446424 -1.0977775 0.67575651
3.0462303 -1.0498383 0.67584389
3.0482104 -0.99004197 0.67595291
3.0474188 -1.013942 0.67590934
3.0497906 -0.94231915 0.67603987
3.0517623 -0.88278115 0.67614841
3.0533359 -0.83525801 0.67623502
3.0549066 -0.78782666 0.67632145
3.0564744 -0.74048674 0.67640775
3.0580389 -0.69323802 0.67649382
3.0596006 -0.64608032 0.67657977
3.0611591 -0.59901321 0.67666554
3.0631027 -0.54031122 0.67677248
3.0650425 -0.48174059 0.67687923
3.0665905 -0.43498889 0.67696446
3.068136 -0.3883267 0.67704952
3.0696778 -0.34175372 0.67713428
3.0712175 -0.29526982 0.67721903
3.0727537 -0.24887463 0.67730361
3.0750523 -0.17944768 0.67743009
3.0739038 -0.21413356 0.67736685
3.0765982 -0.13107285 0.68448752
3.0780087 -0.087363273 0.68920511
3.0791509 -0.052853018 0.68925965
2.9982803 -2.4920046 0.69758409
2.9995394 -2.4539869 0.69763517
3.001215 -2.4033809 0.69770306
3.0028875 -2.3528755 0.69777095
3.0045569 -2.3024709 0.69783854
3.0062227 -2.2521663 0.69790602
3.0078852 -2.2019618 0.69797337
3.0095448 -2.1518569 0.69804066
3.0112007 -2.101851 0.69810772
3.0128536 -2.0519443 0.69817477
3.014503 -2.0021365 0.69824165
3.0161488 -1.9524269 0.69830835
3.0176892 -1.9030033 0.71041739
3.0193291 -1.8534895 0.71047205
3.0212724 -1.7919185 0.72255588
3.0205572 -1.8164152 0.71051288
3.0224967 -1.7549412 0.72258782
3.0245337 -1.6934334 0.72264081
3.0265665 -1.6320668 0.7226938
3.0281889 -1.5830858 0.722736
3.029808 -1.5342007 0.7227782
3.0314238 -1.4854112 0.72282028
3.0330365 -1.4367173 0.72286236
3.034646 -1.3881186 0.72290415
3.0362527 -1.3396147 0.72294617
3.0378561 -1.2912054 0.72298783
3.0394566 -1.2428904 0.72302949
3.0410535 -1.1946695 0.72307116
3.0426476 -1.1465423 0.72311258
3.0442386 -1.0985086 0.72315413
3.0458264 -1.0505682 0.72319549
3.0478072 -0.99077046 0.72324705
3.0470154 -1.014671 0.72322643
3.0493879 -0.94304645 0.72328824
3.0513601 -0.88350689 0.72333962
3.0529342 -0.83598268 0.72338074
3.0545056 -0.78855014 0.72342169
3.0560734 -0.74120909 0.72346258
3.0576384 -0.69395924 0.72350329
3.0592008 -0.64680028 0.72354406
3.0607593 -0.59973204 0.72358453
3.0627038 -0.54102862 0.72363532
3.0646434 -0.48245656 0.7236858
3.0661924 -0.43570372 0.72372615
3.0677381 -0.38904041 0.72376645
3.069181 -0.34264445 0.73547494
3.0707209 -0.29615912 0.73550385
3.0722575 -0.24976249 0.7355327
3.0745573 -0.18033347 0.73557591
3.0734081 -0.21502036 0.73555434
3.0759706 -0.13653494 0.7402494
3.0775146 -0.088246271 0.74724048
3.0786572 -0.053734899 0.74725372
2.9978642 -2.4927707 0.74631941
2.9991236 -2.454752 0.74633402
3.0008001 -2.4041445 0.74635345
3.0024726 -2.3536379 0.74637276
3.0041428 -2.303232 0.74639207
3.0058088 -2.2529261 0.74641138
3.0074723 -2.2027204 0.74643058
3.0091317 -2.1526141 0.74644977
3.010788 -2.1026075 0.74646884
3.0124414 -2.0526991 0.74648798
3.0139885 -2.0030787 0.75857353
3.0156348 -1.9533675 0.75858068
3.0171754 -1.9039423 0.77063048
3.0188158 -1.854427 0.77062565
3.0208621 -1.7926672 0.77061963
3.0200443 -1.8173516 0.77062201
3.0220871 -1.7556887 0.77061605
3.0241246 -1.6941795 0.77061015
3.0261579 -1.6328112 0.77060419
3.0277808 -1.5838289 0.77059948
3.0294003 -1.5349426 0.77059472
3.0310163 -1.4861519 0.77058995
3.0326297 -1.4374567 0.7705853
3.0342398 -1.3888569 0.77058059
3.0358467 -1.3403519 0.77057588
3.0374506 -1.2919413 0.77057123
3.0390511 -1.2436252 0.77056658
3.0406487 -1.195403 0.77056193
3.0422432 -1.1472746 0.77055722
3.0438349 -1.0992398 0.77055264
3.0454233 -1.0512983 0.77054799
3.0474043 -0.99149895 0.77054232
3.0466125 -1.0154002 0.77054459
3.048985 -0.94377375 0.77053767
3.0509579 -0.88423276 0.77053189
3.0525327 -0.83670735 0.77052736
3.0541041 -0.78927362 0.77052283
3.0556726 -0.74193144 0.7705183
3.0572379 -0.69468039 0.77051371
3.0588002 -0.6475203 0.77050906
3.06036 -0.60045099 0.77050459
3.0623267 -0.53894806 0.77928358
3.0641456 -0.48335153 0.78219533
3.0656943 -0.43659729 0.78217965
3.0672407 -0.38993257 0.78216392
3.0686843 -0.34353516 0.79381675
3.0702245 -0.29704839 0.79378992
3.0717616 -0.25065041 0.7937631
3.0740621 -0.18121924 0.79372317
3.0729129 -0.21590722 0.79374313
3.0755918 -0.135042 0.79369658
3.0771191 -0.088952661 0.79366994
3.0784831 -0.046839505 0.79750997
2.9974484 -2.4935367 0.79505581
2.9987078 -2.4555171 0.79503393
3.000385 -2.4049084 0.79500467
3.0020583 -2.3544006 0.79497558
3.0037282 -2.3039932 0.79494655
3.0053952 -2.2536864 0.79491752
3.0070586 -2.2034791 0.79488862
3.0087395 -2.1509824 0.80211806
3.0102725 -2.1035523 0.80692154
3.0119259 -2.053643 0.80688077
3.0134735 -2.0040207 0.8189069
3.0151207 -1.9543082 0.81885445
3.0167651 -1.9046935 0.818802
3.0184057 -1.8551768 0.81874961
3.0204525 -1.7934153 0.81868446
3.0196345 -1.8181005 0.81871057
3.0216775 -1.7564362 0.81864536
3.0237157 -1.6949254 0.81858045
3.0257497 -1.6335554 0.81851566
3.0273726 -1.5845721 0.81846386
3.0289929 -1.5356846 0.81841224
3.0306094 -1.4868927 0.81836069
3.0322225 -1.4381963 0.81830925
3.0338333 -1.3895953 0.81825793
3.0354407 -1.3410889 0.81820679
3.037045 -1.2926772 0.81815559
3.038646 -1.2443599 0.81810457
3.0402439 -1.1961365 0.81805366
3.0418389 -1.1480069 0.81800288
3.0434306 -1.0999709 0.8179521
3.0450196 -1.0520282 0.81790143
3.0470009 -0.99222744 0.81783837
3.0462091 -1.0161291 0.81786358
3.0485823 -0.94450104 0.817788
3.0505552 -0.88495851 0.817725
3.0521309 -0.83743203 0.81767493
3.0537028 -0.78999722 0.81762493
3.05529 -0.74039721 0.82462937
3.0567374 -0.69558185 0.82927805
3.0582998 -0.64842033 0.82921696
3.05986 -0.60134953 0.82915604
3.0616372 -0.54609674 0.83577764
3.063647 -0.48424661 0.84070629
3.0651965 -0.43749085 0.84063447
3.0667429 -0.39082468 0.84056276
3.0682864 -0.34424776 0.84049124
3.0698273 -0.29775986 0.84041989
3.0713646 -0.25136065 0.8403486
3.0736659 -0.18192784 0.84024197
3.0725162 -0.21661669 0.8402952
3.0751965 -0.13574953 0.84017098
3.0767233 -0.08965902 0.84010011
3.0782478 -0.0436562 0.84002942
2.9970324 -2.4943027 0.84379315
2.9982927 -2.4562821 0.84373486
2.9999697 -2.4056721 0.84365708
3.0016437 -2.3551631 0.84357941
3.0033143 -2.3047545 0.84350199
3.0049813 -2.2544463 0.8434248
3.0065415 -2.2044275 0.85546267
3.0080786 -2.1568971 0.86021805
3.009757 -2.1044977 0.86737573
3.0114112 -2.0545866 0.86727518
3.013062 -2.0047741 0.86717469
3.0147097 -1.9550606 0.86707455
3.0163543 -1.9054446 0.86697453
3.0179954 -1.8559271 0.86687469
3.0200424 -1.7941639 0.86675018
3.0192242 -1.8188496 0.86679989
3.0212679 -1.7571837 0.86667562
3.0233071 -1.6956714 0.86655176
3.025341 -1.6343 0.86642796
3.0269644 -1.5853153 0.86632919
3.028585 -1.5364267 0.86623067
3.0302017 -1.4876335 0.86613226
3.031816 -1.438936 0.86603421
3.033427 -1.3903335 0.86593622
3.0350344 -1.3418261 0.86583841
3.0366395 -1.2934132 0.86574084
3.0382411 -1.2450947 0.86564356
3.0398393 -1.1968701 0.86554635
3.0414343 -1.1487393 0.86544937
3.0430267 -1.1007022 0.86535251
3.0446157 -1.0527581 0.86525589
3.0465982 -0.99295592 0.86513531
3.0458055 -1.0168583 0.86518353
3.0481801 -0.94522846 0.86503917
3.0500529 -0.88586593 0.87671793
3.0516286 -0.8383379 0.87661076
3.0532012 -0.79090154 0.87650388
3.0546517 -0.74599385 0.88110703
3.0562365 -0.69648337 0.88804376
3.0578003 -0.64932048 0.88792604
3.0593603 -0.60224819 0.88780862
3.0613062 -0.54353964 0.88766205
3.0632479 -0.48496261 0.88751596
3.0647976 -0.43820572 0.88739932
3.0663452 -0.39153844 0.88728297
3.067889 -0.34496036 0.88716662
3.0694301 -0.29847133 0.88705069
3.0709679 -0.25207105 0.88693488
3.0732698 -0.18263653 0.88676167
3.07212 -0.21732621 0.88684821
3.0748003 -0.13645704 0.88664645
3.076328 -0.09036544 0.88653135
3.077853 -0.044361502 0.88641649
2.9966168 -2.4950688 0.89253163
2.9978769 -2.4570472 0.89243662
2.9995549 -2.4064362 0.89231032
3.001229 -2.3559256 0.89218432
3.0029216 -2.303112 0.89933401
3.0044644 -2.2553961 0.90406018
3.0060256 -2.2053759 0.9160381
3.0076864 -2.1552651 0.91588897
3.0093446 -2.1052537 0.91574019
3.010999 -2.0553415 0.91559178
3.0126505 -2.005528 0.91544348
3.0142984 -1.9558129 0.9152956
3.0159431 -1.9061959 0.91514796
3.0175853 -1.8566769 0.91500068
3.0196326 -1.7949121 0.91481692
3.0188138 -1.8195986 0.91489029
3.0208585 -1.7579312 0.91470695
3.022898 -1.6964175 0.9145239
3.0249321 -1.6350445 0.91434127
3.0265563 -1.5860586 0.91419566
3.028177 -1.5371686 0.9140501
3.0297949 -1.4883745 0.91390496
3.031409 -1.4396756 0.91376001
3.0330203 -1.3910719 0.91361547
3.0346284 -1.3425632 0.9134711
3.0362337 -1.294149 0.9133271
3.0378358 -1.2458293 0.91318345
3.0394344 -1.1976036 0.91303998
3.0410302 -1.1494718 0.91289669
3.0426223 -1.1014333 0.91275394
3.0442312 -1.0512027 0.91970575
3.0460939 -0.99386668 0.92425811
3.0453017 -1.0177697 0.92433488
3.0476766 -0.94613767 0.92410451
3.0495498 -0.88677323 0.9357121
3.051126 -0.83924377 0.93554795
3.0526993 -0.79180598 0.93538415
3.0542691 -0.74445969 0.93522066
3.0558362 -0.69720459 0.9350574
3.0573995 -0.65004051 0.93489444
3.0589602 -0.60296702 0.93473178
3.0609071 -0.54425716 0.93452901
3.0628493 -0.48567867 0.93432671
3.0643995 -0.43892065 0.93416512
3.0659473 -0.39225218 0.93400389
3.0674915 -0.34567297 0.93384308
3.0690327 -0.2991828 0.93368244
3.0705712 -0.25278139 0.93352211
3.0728736 -0.18334517 0.93328232
3.0717235 -0.21803571 0.93340206
3.074405 -0.13716459 0.93312275
3.0759327 -0.091071889 0.93296343
3.0774574 -0.045066774 0.93280447
2.9962008 -2.4958348 0.94127089
2.9974613 -2.4578123 0.94113952
2.9991395 -2.4072001 0.9409647
3.0007107 -2.356879 0.95294183
3.0022569 -2.3090615 0.95761949
3.003947 -2.2563462 0.96469712
3.0056119 -2.2061346 0.96449959
3.0072732 -2.1560228 0.96430242
3.0089316 -2.1060102 0.96410567
3.0105867 -2.0560966 0.96390927
3.0122385 -2.0062819 0.96371323
3.0138872 -1.9565655 0.96351761
3.0155327 -1.9069473 0.9633224
3.0171747 -1.857427 0.96312761
3.0192225 -1.7956607 0.9628846
3.0184038 -1.8203477 0.9629817
3.0204492 -1.7586787 0.96273911
3.0224891 -1.6971635 0.96249712
3.0245237 -1.6357889 0.96225554
3.0261481 -1.5868019 0.9620629
3.0277691 -1.5379107 0.96187049
3.0293875 -1.4891151 0.96167856
3.0310025 -1.4404153 0.96148688
3.032614 -1.3918104 0.96129566
3.0342221 -1.3433005 0.96110469
3.0358281 -1.2948852 0.96091437
3.0374303 -1.2465643 0.96072429
3.0390294 -1.1983372 0.96053451
3.0405247 -1.1503873 0.97220749
3.0421181 -1.1023473 0.97200692
3.0435879 -1.0568687 0.97655135
3.0455904 -0.99477732 0.98338205
3.0447974 -1.0186812 0.98348767
3.0471733 -0.94704688 0.9831714
3.0491478 -0.88749921 0.98290855
3.050724 -0.83996844 0.98269874
3.0522978 -0.79252958 0.98248953
3.0538678 -0.74518204 0.98228055
3.0554354 -0.69792581 0.98207194
3.0569997 -0.65076053 0.9818638
3.0585608 -0.60368598 0.98165601
3.060508 -0.54497468 0.98139685
3.0624504 -0.4863947 0.98113823
3.0640013 -0.43963555 0.98093188
3.0655487 -0.39296594 0.98072588
3.0670936 -0.34638563 0.98052031
3.0686357 -0.2998943 0.98031509
3.0701747 -0.25349179 0.98011035
3.0724776 -0.18405385 0.9798038
3.0713267 -0.21874523 0.97995698
3.0740087 -0.13787213 0.97960001
3.0755372 -0.091778263 0.9793964
3.0770798 -0.043579787 0.98613983
2.995785 -2.4966011 0.99001116
2.9970682 -2.4561589 0.99713618
2.9986207 -2.4081547 1.0017842
3.0001922 -2.357832 1.013701
3.0018644 -2.3074188 1.0134541
3.0035326 -2.2571063 1.0132079
3.0051982 -2.2068934 1.0129622
3.0068607 -2.1567802 1.0127169
3.0085189 -2.1067665 1.012472
3.010175 -2.0568516 1.0122279
3.011827 -2.0070355 1.0119841
3.0134759 -1.9573181 1.0117408
3.0151217 -1.9076984 1.011498
3.0167639 -1.8581768 1.0112555
3.0188129 -1.7964091 1.0109533
3.0179942 -1.8210968 1.0110741
3.0200393 -1.7594261 1.0107722
3.0220797 -1.6979092 1.0104712
3.0241153 -1.6365336 1.0101708
3.0257401 -1.5875449 1.0099313
3.0273619 -1.5386527 1.0096918
3.0289798 -1.489856 1.0094531
3.0305953 -1.4411547 1.0092148
3.0322075 -1.3925487 1.0089768
3.0338163 -1.3440375 1.0087395
3.0354421 -1.293313 1.0156273
3.0369239 -1.2474825 1.0201517
3.0385237 -1.1992542 1.0199041
3.040019 -1.1513027 1.0315195
3.0416124 -1.1032614 1.0312613
3.0432029 -1.0553132 1.0310038
3.0451872 -0.99550593 1.0306824
3.0443943 -1.0194104 1.0308111
3.0467706 -0.94777429 1.030426
3.0487459 -0.88822508 1.0301059
3.0503225 -0.84069324 1.0298506
3.0518966 -0.79325318 1.0295959
3.053467 -0.74590445 1.0293413
3.0550349 -0.69864714 1.0290877
3.0565994 -0.65148067 1.028834
3.0581605 -0.60440493 1.028581
3.0601084 -0.54569215 1.0282657
3.0620518 -0.48711076 1.0279509
3.0636032 -0.44035053 1.0276997
3.0651512 -0.39367974 1.0274489
3.0666964 -0.34709823 1.0271986
3.0682383 -0.30060583 1.0269487
3.0697777 -0.25420216 1.0266994
3.0719824 -0.18493974 1.0379572
3.0709305 -0.21945477 1.0265127
3.0735142 -0.13875657 1.0376979
3.0750432 -0.092661366 1.0374391
3.0764532 -0.049022436 1.0418316
2.9952655 -2.4975586 1.0509382
2.9964013 -2.4621437 1.0556083
2.9981017 -2.4091098 1.0626048
2.9997773 -2.3585944 1.062309
3.0014498 -2.3081803 1.062014
3.003119 -2.2578664 1.0617195
3.0047853 -2.2076523 1.0614257
3.0064473 -2.1575377 1.0611323
3.0081067 -2.1075227 1.0608395
3.0097628 -2.0576065 1.0605475
3.011415 -2.0077891 1.0602558
3.0130646 -1.9580705 1.0599648
3.0147107 -1.9084498 1.0596743
3.0163538 -1.858927 1.0593846
3.0184028 -1.7971576 1.0590229
3.0175836 -1.8218459 1.0591675
3.01963 -1.7601739 1.0588064
3.0216706 -1.6986555 1.0584464
3.0237072 -1.6372777 1.0580871
3.0253317 -1.5882882 1.0578003
3.0269537 -1.5393946 1.0575142
3.0285728 -1.4905968 1.0572284
3.0301886 -1.4418943 1.0569434
3.0316992 -1.3934716 1.0685797
3.0333087 -1.3449591 1.068284
3.0347943 -1.2990332 1.0727617
3.0364172 -1.2484012 1.0795804
3.0380175 -1.2001714 1.079275
3.0396149 -1.1520352 1.0789703
3.0412085 -1.1039926 1.078666
3.0427995 -1.0560433 1.0783625
3.0447843 -0.99623454 1.0779837
3.0439909 -1.0201395 1.078135
3.0463676 -0.94850159 1.0776813
3.0483434 -0.88895094 1.0773042
3.0499208 -0.84141791 1.0770032
3.0514948 -0.79397666 1.0767031
3.0530663 -0.74662697 1.0764033
3.0546341 -0.69936836 1.0761039
3.0561988 -0.65220076 1.0758053
3.0577612 -0.60512388 1.0755072
3.0597091 -0.54640967 1.0751354
3.0616529 -0.48782685 1.0747643
3.0632043 -0.44106543 1.0744683
3.0647531 -0.39439353 1.0741727
3.0663164 -0.34559089 1.0808634
3.0677416 -0.30149522 1.085242
3.0692813 -0.25509015 1.0849371
3.0714867 -0.1858256 1.0961117
3.0704346 -0.22034167 1.0847087
3.0730193 -0.13964108 1.0957969
3.074549 -0.093544424 1.0954829
3.0760751 -0.047535449 1.0951693
2.9947457 -2.4985163 1.1118667
2.9960072 -2.4604905 1.1116076
2.9976871 -2.4098735 1.1112627
2.9993629 -2.3593574 1.1109185
3.0010359 -2.3089416 1.110575
3.0027053 -2.2586265 1.1102322
3.0043716 -2.208411 1.1098901
3.0060346 -2.1582954 1.1095486
3.007694 -2.108279 1.1092079
3.0093503 -2.0583615 1.108868
3.0110035 -2.008543 1.1085285
3.0126534 -1.958823 1.1081897
3.0142999 -1.9092011 1.1078516
3.0159433 -1.859677 1.1075143
3.0179932 -1.7979062 1.1070935
3.0171738 -1.8225949 1.1072618
3.0192204 -1.7609212 1.1068416
3.0212615 -1.6994014 1.1064222
3.0232983 -1.6380222 1.1060042
3.024924 -1.5890316 1.1056706
3.0265465 -1.5401367 1.1053375
3.0280638 -1.4915229 1.1169493
3.02968 -1.4428189 1.1166058
3.0311913 -1.3943949 1.128184
3.0328014 -1.3458806 1.12783
3.0344083 -1.2974612 1.127477
3.0360119 -1.249136 1.1271245
3.0376127 -1.2009048 1.1267731
3.0392101 -1.1527675 1.1264218
3.0408044 -1.1047238 1.1260717
3.0423961 -1.0567734 1.1257221
3.0443811 -0.99696314 1.1252859
3.0435877 -1.0208687 1.1254601
3.045965 -0.94922912 1.1249378
3.0479412 -0.88967693 1.1245035
3.0495186 -0.84214282 1.1241571
3.0510933 -0.79470032 1.123811
3.0526655 -0.74734938 1.1234658
3.0542336 -0.70008969 1.1231211
3.055799 -0.65292096 1.1227772
3.0573611 -0.60584283 1.122434
3.0593097 -0.54712719 1.1220058
3.0612719 -0.48630995 1.1285821
3.0627062 -0.44195908 1.1329302
3.0642555 -0.39528582 1.1325787
3.0656846 -0.35109997 1.1369123
3.0672452 -0.30238464 1.1435367
3.0687857 -0.2559782 1.143176
3.0710905 -0.18653433 1.1426364
3.0699387 -0.22122864 1.142906
3.0726235 -0.14034864 1.1422775
3.0741532 -0.094250888 1.1419191
3.07568 -0.048240811 1.1415614
2.9943295 -2.4992824 1.1606104
2.9955914 -2.4612556 1.1603149
2.9972718 -2.4106374 1.1599215
2.9989486 -2.3601201 1.1595287
3.0006213 -2.3097029 1.1591369
3.0022917 -2.2593863 1.1587459
3.003958 -2.2091699 1.1583556
3.0056214 -2.1590528 1.157966
3.0072815 -2.1090353 1.1575773
3.0089386 -2.0591168 1.1571895
3.010592 -2.0092967 1.1568022
3.0122421 -1.9595755 1.1564157
3.0138888 -1.9099524 1.1560299
3.015533 -1.860427 1.1556451
3.0175829 -1.7986547 1.1551651
3.0167637 -1.8233442 1.1553569
3.0188105 -1.7616689 1.1548775
3.0208523 -1.7001475 1.1543995
3.0228896 -1.6387668 1.1539224
3.0244138 -1.5899607 1.1655097
3.0260367 -1.5410644 1.165118
3.0275548 -1.4924489 1.1766714
3.0291712 -1.4437436 1.1762695
3.0307848 -1.3951333 1.1758683
3.0323951 -1.3466179 1.175468
3.0340025 -1.2981972 1.1750686
3.0356069 -1.2498708 1.1746697
3.0372078 -1.2016385 1.1742718
3.0388055 -1.1535001 1.1738746
3.0404007 -1.1054552 1.1734782
3.0419927 -1.0575035 1.1730825
3.0439777 -0.99769163 1.1725891
3.0431843 -1.0215979 1.1727864
3.0455623 -0.94995654 1.1721951
3.0475392 -0.89040291 1.1717037
3.0491171 -0.84286749 1.1713115
3.0506918 -0.79542392 1.1709199
3.0522642 -0.74807179 1.1705296
3.0538328 -0.70081091 1.1701394
3.0553989 -0.6536411 1.1697503
3.0568612 -0.60674161 1.1810941
3.0588107 -0.54802418 1.1805956
3.0606382 -0.49185014 1.1847984
3.0622089 -0.44285285 1.1913937
3.0637581 -0.3961781 1.1909863
3.0653048 -0.34959263 1.1905793
3.066848 -0.30309629 1.1901734
3.0683889 -0.25668862 1.1897684
3.0706944 -0.18724307 1.189162
3.0695429 -0.22193822 1.1894649
3.0722275 -0.14105627 1.1887586
3.0737579 -0.094957396 1.1883563
3.075285 -0.048946172 1.1879543
2.9939134 -2.5000484 1.2093551
2.9951761 -2.4620206 1.2090231
2.9968567 -2.411401 1.2085812
2.9985332 -2.3608828 1.2081401
3.0002074 -2.3104646 1.2076998
3.0018778 -2.2601466 1.2072606
3.0035448 -2.2099288 1.206822
3.0052087 -2.1598103 1.2063844
3.0068691 -2.1097918 1.2059478
3.0085261 -2.0598719 1.2055118
3.0101802 -2.0100508 1.2050767
3.0118308 -1.9603279 1.2046427
3.013478 -1.9107037 1.2042093
3.0151224 -1.8611771 1.2037771
3.0171731 -1.7994031 1.2032377
3.0163534 -1.8240933 1.2034532
3.0184011 -1.7624166 1.2029146
3.0205162 -1.6974624 1.2074848
3.0223792 -1.6396978 1.2138215
3.0239034 -1.5908898 1.2253503
3.025527 -1.5419919 1.2248998
3.0271473 -1.4931899 1.2244503
3.0287645 -1.4444832 1.2240016
3.0303786 -1.3958716 1.2235539
3.0319893 -1.3473551 1.2231069
3.033597 -1.2989333 1.2226609
3.0352013 -1.2506057 1.2222157
3.0368028 -1.2023722 1.2217716
3.0384014 -1.1542325 1.2213283
3.0399964 -1.1061864 1.2208856
3.0415885 -1.0582335 1.220444
3.0435743 -0.99842024 1.219893
3.0427806 -1.0223271 1.2201132
3.0451593 -0.95068395 1.2194533
3.047137 -0.8911289 1.218905
3.0487149 -0.84359229 1.218467
3.0502901 -0.79614753 1.21803
3.0518813 -0.74653721 1.2246302
3.0533321 -0.70171261 1.2289135
3.0548983 -0.65454125 1.2284679
3.0563619 -0.60764033 1.2397553
3.0583117 -0.54892111 1.2391863
3.060257 -0.49033326 1.2386186
3.06181 -0.44356781 1.2381654
3.06336 -0.39689195 1.237713
3.0649068 -0.35030535 1.2372618
3.0664508 -0.30380782 1.2368112
3.067992 -0.25739905 1.2363615
3.0702982 -0.18795186 1.2356884
3.0691459 -0.22264782 1.2360247
3.0718317 -0.14176391 1.2352409
3.0733624 -0.095663935 1.2347941
3.0748899 -0.049651533 1.2343482
2.9934978 -2.5008147 1.2581009
2.9947608 -2.462786 1.2577325
2.9964414 -2.4121652 1.2572418
2.9981189 -2.3616452 1.2567524
2.9997933 -2.3112259 1.2562637
3.0014641 -2.2609067 1.2557762
3.0031312 -2.2106876 1.2552894
3.0047956 -2.160568 1.2548038
3.0064566 -2.1105478 1.2543191
3.0081143 -2.060627 1.2538352
3.0097682 -2.0108044 1.2533524
3.0114193 -1.9610807 1.2528706
3.0130672 -1.9114552 1.2523897
3.0147116 -1.8619273 1.2519097
3.016763 -1.8001518 1.2513111
3.0159435 -1.8248426 1.2515503
3.0180118 -1.7608122 1.2581328
3.0198042 -1.7049448 1.2653791
3.0218682 -1.6406283 1.2737221
3.0234954 -1.5916331 1.2732236
3.0251193 -1.5427341 1.2727264
3.0267401 -1.4939307 1.27223
3.0283575 -1.445223 1.2717346
3.0299718 -1.3966103 1.2712404
3.0315831 -1.3480924 1.2707467
3.033191 -1.2996693 1.2702543
3.0347962 -1.2513405 1.2697629
3.0363977 -1.2031059 1.2692722
3.0379968 -1.154965 1.2687826
3.0395923 -1.1069176 1.268294
3.0411851 -1.0589637 1.2678063
3.0431716 -0.99914896 1.267198
3.0423775 -1.0230563 1.2674413
3.0447571 -0.95141137 1.2667124
3.0467348 -0.89185488 1.2661067
3.0482132 -0.8444984 1.2774125
3.0497885 -0.79705215 1.2769189
3.0512426 -0.75213504 1.2811559
3.0528314 -0.70261431 1.2876892
3.0543983 -0.65544146 1.2871869
3.0559621 -0.6083594 1.2866853
3.0579126 -0.54963869 1.28606
3.0598581 -0.49104941 1.2854362
3.0614119 -0.44428283 1.284938
3.0629621 -0.39760581 1.284441
3.0645094 -0.35101807 1.283945
3.0660536 -0.30451939 1.2834496
3.067595 -0.25810954 1.2829554
3.0699019 -0.18866064 1.2822158
3.068749 -0.22335741 1.2825854
3.0714357 -0.14247154 1.281724
3.0729673 -0.096370429 1.281233
3.0744951 -0.050356925 1.2807429
2.9930816 -2.5015807 1.3068479
2.9943449 -2.463551 1.3064429
2.996026 -2.4129291 1.3059037
2.9977043 -2.3624082 1.3053657
2.9993789 -2.3119874 1.3048285
3.00105 -2.261667 1.3042926
3.0027182 -2.2114465 1.303758
3.0043824 -2.1613257 1.3032241
3.0060437 -2.1113043 1.3026912
3.0077021 -2.0613818 1.3021595
3.0093563 -2.0115583 1.3016289
3.0110083 -1.9618334 1.3010995
3.0126562 -1.9122063 1.3005708
3.0143013 -1.8626775 1.3000435
3.0164557 -1.8007133 1.2873669
3.0157175 -1.8159771 1.3163732
3.0173564 -1.7666379 1.3158311
3.0194204 -1.7027587 1.3223265
3.0214598 -1.6413728 1.3216435
3.0230873 -1.5923766 1.3210982
3.0247114 -1.5434762 1.3205538
3.0263326 -1.4946718 1.3200108
3.0279505 -1.4459625 1.3194686
3.0295651 -1.3973486 1.3189276
3.031177 -1.3488297 1.3183875
3.0327854 -1.3004054 1.3178487
3.0343909 -1.2520756 1.3173107
3.0359929 -1.2038395 1.3167738
3.0375922 -1.1556975 1.316238
3.0391881 -1.107649 1.3157033
3.0407813 -1.0596937 1.3151696
3.0427682 -0.99987745 1.3145039
3.0419741 -1.0237855 1.3147701
3.0443776 -0.94929349 1.3227988
3.0462317 -0.89276242 1.3251108
3.0477104 -0.84540439 1.3363597
3.0492871 -0.79795671 1.335809
3.0508604 -0.75060046 1.3352592
3.0524304 -0.70333564 1.3347107
3.053998 -0.65616167 1.3341632
3.0555623 -0.60907841 1.3336165
3.0575128 -0.55035627 1.3329346
3.0594594 -0.49176556 1.3322545
3.0610132 -0.44499782 1.3317116
3.0625639 -0.39831966 1.3311698
3.0641117 -0.35173079 1.3306291
3.0656564 -0.305231 1.3300891
3.0671983 -0.25882003 1.3295505
3.0695055 -0.18936937 1.3287441
3.0683527 -0.22406709 1.3291467
3.0710402 -0.14317922 1.328208
3.0724728 -0.097253621 1.3392829
3.0740008 -0.051238745 1.3387375
2.9926665 -2.502347 1.3555956
2.9939294 -2.4643164 1.3551542
2.995611 -2.413693 1.3545662
2.9972894 -2.3631706 1.3539799
2.9989641 -2.3127487 1.3533945
3.0006363 -2.2624271 1.3528105
3.0023048 -2.2122054 1.3522273
3.0039697 -2.1620831 1.3516452
3.0056314 -2.1120605 1.3510646
3.0072896 -2.0621369 1.3504851
3.0089447 -2.0123122 1.3499064
3.010597 -1.9625858 1.3493292
3.0122662 -1.9105914 1.3559501
3.0137885 -1.8636149 1.360212
3.0153279 -1.8143691 1.3716482
3.0169671 -1.7650335 1.3710518
3.0190115 -1.703505 1.370308
3.0210514 -1.6421176 1.3695658
3.0226789 -1.59312 1.3689735
3.0243037 -1.5442184 1.3683826
3.0259254 -1.4954126 1.3677925
3.0275433 -1.4467024 1.3672036
3.0291588 -1.3980873 1.3666158
3.0307705 -1.3495669 1.3660293
3.0323796 -1.3011415 1.3654439
3.0339854 -1.2528104 1.3648597
3.0355878 -1.2045733 1.3642765
3.0371878 -1.15643 1.3636945
3.0387843 -1.1083803 1.3631138
3.0403965 -1.0581379 1.3696079
3.0422647 -1.0007885 1.3736377
3.0414701 -1.0246971 1.3739324
3.04368 -0.9565599 1.3798413
3.0457289 -0.89366996 1.3841159
3.0473089 -0.8461293 1.3835185
3.0488856 -0.79868042 1.3829223
3.0504591 -0.75132298 1.382327
3.0520301 -0.70405698 1.3817331
3.0535975 -0.65688181 1.3811402
3.0551622 -0.60979748 1.3805485
3.0571134 -0.55107385 1.3798103
3.0590606 -0.49248177 1.379074
3.0606146 -0.44571286 1.3784862
3.0621655 -0.39903361 1.3778996
3.0637138 -0.35244358 1.377314
3.0652592 -0.3059426 1.3767295
3.0668013 -0.25953048 1.3761463
3.0690103 -0.19025536 1.3869058
3.0678568 -0.22495407 1.3873503
3.0705452 -0.14406383 1.3863144
3.0719786 -0.098136812 1.397334
3.0735071 -0.052120537 1.3967335
2.9922502 -2.503113 1.4043444
2.9935138 -2.4650815 1.4038663
2.9951959 -2.4144571 1.4032302
2.9968746 -2.3639333 1.4025953
2.9985504 -2.3135102 1.4019613
3.0002224 -2.2631872 1.4013289
3.0018911 -2.2129643 1.4006977
3.0035567 -2.1628411 1.4000678
3.0052185 -2.1128168 1.3994389
3.0068777 -2.0628922 1.3988113
3.0085335 -2.0130661 1.3981853
3.0102065 -1.9609674 1.4047618
3.0116086 -1.9164511 1.4138312
3.0132749 -1.8645526 1.420382
3.0149181 -1.8151182 1.419737
3.0165577 -1.7657809 1.419093
3.0186021 -1.7042509 1.4182904
3.0206425 -1.642862 1.4174893
3.0222709 -1.5938632 1.4168501
3.023896 -1.5449605 1.4162117
3.0255179 -1.4961536 1.415575
3.0271368 -1.4474421 1.4149394
3.0287523 -1.3988258 1.414305
3.0303645 -1.3503044 1.4136721
3.0319738 -1.3018776 1.4130402
3.0335805 -1.2535453 1.4124093
3.0351832 -1.205307 1.4117799
3.036783 -1.1571625 1.4111519
3.0383799 -1.1091117 1.4105248
3.0398078 -1.0652075 1.4138974
3.0418613 -1.0015171 1.4209458
3.0410664 -1.0254264 1.4212633
3.0434477 -0.95377576 1.4203113
3.0454273 -0.89421451 1.4195199
3.0470073 -0.84667289 1.4188882
3.0485842 -0.79922312 1.4182577
3.0501583 -0.75186491 1.4176283
3.0517294 -0.70459801 1.4170005
3.0532973 -0.65742201 1.4163736
3.054862 -0.61033678 1.415748
3.0568142 -0.55161208 1.4149678
3.0587614 -0.49301887 1.4141892
3.0603158 -0.44624916 1.4135678
3.0618672 -0.399569 1.4129474
3.0634155 -0.35297811 1.4123284
3.0649614 -0.30647635 1.4117105
3.0665035 -0.26006332 1.4110938
2.9919379 -2.5036879 1.4409065
2.993202 -2.4656556 1.4404012
2.9948843 -2.41503 1.4397285
2.9965634 -2.3645053 1.4390571
2.9982393 -2.3140812 1.4383872
2.999912 -2.2637575 1.4377184
3.0015812 -2.2135334 1.4370511
3.0032468 -2.1634092 1.4363852
3.0049093 -2.1133845 1.4357203
3.0065684 -2.0634584 1.4350569
3.0082242 -2.0136313 1.4343947
3.0094645 -1.9763228 1.433899
3.0944431 -0.49733341 -1.3740686
3.0970602 -0.45191348 -1.3783981
3.1003594 -0.39466712 -1.383855
3.070627 -0.9106093 -1.3346735
3.073051 -0.86854774 -1.3386832
3.0761049 -0.81555104 -1.343735
3.0794339 -0.7567544 -1.3437153
3.0821705 -0.7082262 -1.3426827
3.0846865 -0.6645661 -1.3467988
3.0878606 -0.60947251 -1.351993
3.0911109 -0.55180699 -1.3505564
3.0933275 -0.51163542 -1.3451273
3.0966392 -0.45288622 -1.3436552
3.0999358 -0.39565164 -1.3489313
3.0474184 -1.313344 -1.2962837
3.0490983 -1.2841961 -1.2990621
3.051919 -1.2352436 -1.3037283
3.0553393 -1.1758962 -1.3093857
3.0580883 -1.1262088 -1.3032767
3.0598288 -1.0959972 -1.3061248
3.0615807 -1.0655894 -1.3089916
3.0639322 -1.024781 -1.3128389
3.0670116 -0.97046959 -1.3132337
3.0695841 -0.92384791 -1.3068695
3.0726483 -0.86943716 -1.305256
3.0757 -0.81645089 -1.3101405
3.0786481 -0.76320577 -1.3038114
3.0809987 -0.72032237 -1.2964622
3.0822501 -0.69858611 -1.2984205
3.0841374 -0.66580582 -1.3013737
3.0874312 -0.60769755 -1.3017204
3.0901866 -0.55780309 -1.2950835
3.0928161 -0.51085341 -1.2923565
3.0960774 -0.45418304 -1.2973435
3.0994184 -0.39485997 -1.2955929
3.0341995 -1.5408268 -1.2641876
3.0368776 -1.4943407 -1.2685702
3.0384965 -1.4662398 -1.2712195
3.0401258 -1.437963 -1.2738853
3.0429044 -1.3882934 -1.2706344
3.0458801 -1.3356669 -1.2702415
3.0487137 -1.285006 -1.2669472
3.0515327 -1.2360626 -1.2714587
3.0548201 -1.1770031 -1.266112
3.0575664 -1.1273282 -1.2597947
3.0593054 -1.0971243 -1.2625157
3.0610557 -1.0667245 -1.2652547
3.0634434 -1.0240507 -1.2625235
3.0660522 -0.97740966 -1.259545
3.0690911 -0.92310655 -1.2560791
3.0721114 -0.87062275 -1.2606975
3.0750251 -0.81795013 -1.2541665
3.0778511 -0.76765949 -1.2521198
3.0804532 -0.72154713 -1.2512807
3.0817034 -0.6998167 -1.2531474
3.0835886 -0.667045 -1.2559627
3.0866177 -0.61229956 -1.2492712
3.0896766 -0.55702591 -1.2425352
3.0922582 -0.51213437 -1.2462975
3.095516 -0.45547938 -1.2510461
3.0984757 -0.40103617 -1.2393609
3.1005125 -0.36432934 -1.2354046
3.1017041 -0.34146455 -1.2256086
3.0337017 -1.5418434 -1.2224504
3.0363772 -1.4953685 -1.2266375
3.0379951 -1.4672748 -1.2291685
3.0394967 -1.439265 -1.2211753
3.0419998 -1.3946688 -1.2191025
3.045414 -1.3345211 -1.2198751
3.0482016 -1.2860855 -1.2241374
3.0508883 -1.2374272 -1.2176918
3.0541723 -1.1783862 -1.2120355
3.0570447 -1.1284475 -1.2163255
3.0587819 -1.0982512 -1.2189194
3.0603995 -1.0681424 -1.210602
3.0625744 -1.0295198 -1.2094964
3.065572 -0.97619808 -1.2074031
3.0685575 -0.92427808 -1.2117546
3.0716257 -0.86939681 -1.2080146
3.0743504 -0.81944883 -1.1982119
3.0774269 -0.76593065 -1.2025855
3.0799077 -0.72277158 -1.2061126
3.0811567 -0.70104688 -1.207888
3.0830834 -0.66628015 -1.2039294
3.0858059 -0.61688566 -1.1968812
3.0891213 -0.55829424 -1.1966791
3.0917003 -0.51341498 -1.200253
3.0950816 -0.45366046 -1.2000545
3.0979588 -0.4002434 -1.1860604
3.099946 -0.36565024 -1.1887429
3.1012778 -0.34245992 -1.1905408
3.1030157 -0.31148958 -1.1890384
3.0333033 -1.5403239 -1.1764743
3.0357523 -1.496653 -1.1742387
3.0377505 -1.4611447 -1.1730498
3.0394104 -1.4311233 -1.1692742
3.0415969 -1.3931115 -1.1724603
3.0449476 -1.33338 -1.1694914
3.0475612 -1.2874343 -1.1706431
3.0502446 -1.2387915 -1.1639429
3.053654 -1.1794925 -1.1687889
3.0563934 -1.1298459 -1.1620073
3.0581284 -1.0996596 -1.1644427
3.0597434 -1.0695603 -1.1559682
3.0620859 -1.0287886 -1.1592146
3.0650413 -0.97735584 -1.1633102
3.0680635 -0.92353809 -1.1609581
3.0706546 -0.87646788 -1.1538872
3.0738108 -0.82064736 -1.1534641
3.076884 -0.76714337 -1.1576127
3.0793624 -0.72399569 -1.1609581
3.0804737 -0.70258397 -1.1513333
3.0821733 -0.67214572 -1.1491294
3.0853767 -0.61511439 -1.1466467
3.0885665 -0.55956239 -1.1508375
3.0911429 -0.51469511 -1.1542226
3.0940549 -0.46132258 -1.1438214
3.0973945 -0.40155447 -1.1395587
3.0993795 -0.36697069 -1.1420954
3.1007099 -0.3437869 -1.1437958
3.1027172 -0.308817 -1.1463609
3.1056185 -0.25524619 -1.1338159
3.0324187 -1.5465074 -1.1257871
3.0351276 -1.4979373 -1.1218573
3.0372815 -1.4604547 -1.1248419
3.0389068 -1.4321666 -1.1270944
3.0409641 -1.3944273 -1.1195379
3.0440369 -1.3398268 -1.117753
3.0469213 -1.2887831 -1.1171668
3.0497301 -1.2398825 -1.1209584
3.0530057 -1.1808746 -1.1147491
3.0557415 -1.1312439 -1.107708
3.0574744 -1.1010669 -1.1099845
3.0592186 -1.070694 -1.1122761
3.0615587 -1.0299326 -1.1153511
3.0645599 -0.9761498 -1.1111542
3.067184 -0.92911673 -1.1074852
3.0702341 -0.87476957 -1.1048477
3.0732715 -0.82184565 -1.1087298
3.0763941 -0.76589823 -1.1044141
3.0786815 -0.7255252 -1.1045352
3.0797904 -0.70412081 -1.094799
3.0816691 -0.67137969 -1.0971323
3.084825 -0.61636698 -1.1010524
3.0880115 -0.56083 -1.1050102
3.090446 -0.51629478 -1.0967053
3.0935526 -0.4600136 -1.0891184
3.0968304 -0.40286502 -1.0930712
3.0988133 -0.36829087 -1.0954626
3.1001425 -0.34511331 -1.0970657
3.1021476 -0.31015313 -1.0994838
3.105099 -0.25529906 -1.0848026
3.1086321 -0.19274426 -1.083971
3.1105452 -0.15719068 -1.0745014
3.0319617 -1.5453998 -1.0764625
3.0346603 -1.4972517 -1.0738186
3.036654 -1.4617498 -1.0722833
3.0382771 -1.4334705 -1.074387
3.0403318 -1.3957427 -1.0666336
3.043632 -1.3382549 -1.0708505
3.0464094 -1.2898612 -1.0744001
3.049087 -1.2412456 -1.0672457
3.0517879 -1.192197 -1.0600193
3.054647 -1.1423666 -1.0635701
3.0569518 -1.1021926 -1.0664328
3.0586939 -1.0718274 -1.0685967
3.0609002 -1.0313625 -1.0605407
3.0636039 -0.98307419 -1.0576425
3.0666914 -0.92837584 -1.0567231
3.0696983 -0.8759535 -1.0603491
3.0727735 -0.82109571 -1.0574427
3.0754106 -0.77311164 -1.049839
3.0780001 -0.72705418 -1.0481318
3.0792446 -0.70534974 -1.0495877
3.0811212 -0.67261726 -1.0517833
3.0842743 -0.61761928 -1.0554723
3.0873189 -0.56241387 -1.0477458
3.0897493 -0.51789379 -1.0392087
3.0929918 -0.46130812 -1.0428857
3.0962663 -0.40417519 -1.0465984
3.0982471 -0.36961049 -1.0488446
3.0995748 -0.34643936 -1.0503502
3.1014359 -0.31182271 -1.0409091
3.1046576 -0.25342399 -1.0328897
3.1080554 -0.19411263 -1.0366198
3.1108003 -0.14619404 -1.0396333
3.1127286 -0.11034822 -1.0299854
3.0313408 -1.5466688 -1.0243592
3.0338466 -1.5022165 -1.0232965
3.0360272 -1.4630444 -1.0197417
3.0376482 -1.4347736 -1.0216969
3.0398264 -1.3967946 -1.0243238
3.0431652 -1.3371146 -1.0204816
3.0457697 -1.291209 -1.0209595
3.0484431 -1.2426087 -1.0135509
3.0512705 -1.1932994 -1.0168583
3.0542347 -1.1407402 -1.0157372
3.0568771 -1.0934939 -1.012679
3.05862 -1.0630988 -1.0146861
3.0602419 -1.0327919 -1.0057489
3.0631869 -0.98140526 -1.0090882
3.0661585 -0.92954582 -1.0124581
3.0692124 -0.87472868 -1.0076876
3.0718827 -0.82678711 -1.0035167
3.074986 -0.77138466 -1.0003144
3.0774555 -0.72827691 -1.0030253
3.0786984 -0.70657825 -1.00439
3.0805733 -0.67385453 -1.006448
3.0837774 -0.6163463 -1.0015295
3.0866256 -0.56399733 -0.99050266
3.0891922 -0.51917261 -0.9932279
3.0924318 -0.46260223 -0.99666727
3.0957024 -0.40548497 -1.0001401
3.0976813 -0.37092978 -1.0022409
3.098866 -0.34809637 -0.99197727
3.1007242 -0.31349161 -0.98235548
3.1040847 -0.25477535 -0.98580259
3.1074791 -0.19548059 -0.98928368
3.1102214 -0.14757538 -0.99209613
3.1129863 -0.099262238 -0.99493247
3.1152012 -0.055434823 -0.96959716
3.0307198 -1.5479375 -0.97227299
3.0333793 -1.5015302 -0.97528857
3.0355258 -1.4640797 -0.97772223
3.0370195 -1.4360764 -0.96902692
3.0391948 -1.398109 -0.97145438
3.0422568 -1.3435557 -0.96887064
3.0451305 -1.2925562 -0.96753705
3.0479288 -1.2436984 -0.97060972
3.0507894 -1.1925855 -0.96735781
3.0533004 -1.1474483 -0.96313632
3.0562239 -1.0949033 -0.95822352
3.0579641 -1.0645181 -0.96007103
3.0597157 -1.0339348 -0.96193051
3.0626566 -0.98256171 -0.96505386
3.0654926 -0.93100786 -0.95714593
3.0671544 -0.89995033 -0.94792569
3.0686796 -0.87452769 -0.95606399
3.0713851 -0.82603651 -0.95226502
3.0744441 -0.77259576 -0.95540237
3.076911 -0.72949934 -0.95793241
3.0781527 -0.70780641 -0.95920604
3.0800683 -0.67309046 -0.95445168
3.0827749 -0.62376845 -0.94627392
3.0860715 -0.56526363 -0.9447242
3.0886352 -0.52045107 -0.94726133
3.0918715 -0.46389601 -0.95046335
3.0951855 -0.40469447 -0.94685417
3.0969741 -0.37257826 -0.94400781
3.0981572 -0.34975272 -0.93362558
3.1001549 -0.31482637 -0.93552995
3.1035123 -0.25612628 -0.93873048
3.1069031 -0.19684806 -0.94196272
3.109642 -0.14895633 -0.944574
3.1122591 -0.10100532 -0.93527949
3.1148987 -0.052647948 -0.92590463
3.0303211 -1.5464201 -0.92630774
3.0327554 -1.5028126 -0.92297816
3.0348988 -1.4653738 -0.9252153
3.0363905 -1.4373786 -0.91637415
3.0385635 -1.3994229 -0.91860253
3.0418513 -1.341985 -0.92197454
3.0446537 -1.2918515 -0.91851413
3.046036 -1.2649431 -0.90511072
3.0476439 -1.2393794 -0.92033416
3.0499418 -1.197871 -0.91536182
3.0528264 -1.1462681 -0.91182965
3.0557013 -1.0960305 -0.91467404
3.0574393 -1.065653 -0.91639388
3.0591888 -1.0350775 -0.91812491
3.061995 -0.98400664 -0.91003019
3.0648272 -0.93246937 -0.90185291
3.0666196 -0.90112758 -0.90356177
3.0684245 -0.8695783 -0.90528208
3.0708466 -0.82723302 -0.90759093
3.0739026 -0.77380639 -0.9105041
3.0762305 -0.73102677 -0.90158623
3.0774708 -0.70934093 -0.90274602
3.0791614 -0.67894691 -0.89984363
3.0823457 -0.6219995 -0.89605141
3.0855174 -0.56652951 -0.89896005
3.0872967 -0.53329372 -0.88924479
3.0883393 -0.517874 -0.90533042
3.0914371 -0.46207994 -0.89948612
3.0942469 -0.41085747 -0.89089769
3.0969291 -0.36265165 -0.88637865
3.099586 -0.31616056 -0.88871914
3.1029401 -0.25747681 -0.89167333
3.1063268 -0.19821519 -0.89465672
3.1091135 -0.14814037 -0.89005631
3.1115317 -0.1027478 -0.8756488
3.1143143 -0.054055631 -0.87799823
3.0294397 -1.5525943 -0.87582964
3.0321317 -1.5040946 -0.87068492
3.0342724 -1.4666669 -0.87272573
3.035888 -1.4384203 -0.87426591
3.038058 -1.4004737 -0.87633485
3.0411103 -1.3456568 -0.87137377
3.0435247 -1.3016241 -0.86397016
3.0455232 -1.2660273 -0.86228269
3.0472047 -1.236619 -0.86382478
3.0494606 -1.1971562 -0.86589384
3.0523069 -1.1473824 -0.86850375
3.0552154 -1.0953074 -0.86470777
3.0567839 -1.0670711 -0.86181617
3.0585313 -1.0365052 -0.86338693
3.0613337 -0.98545092 -0.85502547
3.0642953 -0.93363804 -0.85763383
3.0660858 -0.90230453 -0.85921127
3.0678885 -0.87076342 -0.86079907
3.0703082 -0.82842928 -0.86293036
3.0732255 -0.77531904 -0.85440075
3.0755508 -0.7325536 -0.8452599
3.0767891 -0.71087509 -0.84630603
3.0786572 -0.67818189 -0.84788352
3.081795 -0.62325013 -0.85053402
3.0849636 -0.5677951 -0.85320979
3.08688 -0.53424954 -0.85482836
3.0881648 -0.51176357 -0.85591334
3.0904143 -0.46972823 -0.84353185
3.0937309 -0.41006589 -0.83764988
3.0963628 -0.36397266 -0.83977753
3.0990171 -0.31749436 -0.84192294
3.1023674 -0.25882691 -0.84463102
3.105751 -0.19958186 -0.84736568
3.1081448 -0.15460342 -0.83284378
3.1109505 -0.10414118 -0.82796198
3.11373 -0.055462837 -0.83010727
4.2896242 -1.9903435 -0.8215639
3.0289826 -1.5514877 -0.8265298
3.0316327 -1.5051198 -0.8288641
3.0336461 -1.4679595 -0.82025582
3.0352595 -1.4397218 -0.82164794
3.0374274 -1.401787 -0.82351792
3.0400305 -1.3542745 -0.81526124
3.0427878 -1.3060143 -0.81758982
3.0450108 -1.2671113 -0.81946701
3.04669 -1.2377102 -0.82088548
3.0489795 -1.1964424 -0.81641448
3.051657 -1.1487744 -0.81436461
3.0543575 -1.1006968 -0.81228352
3.0561283 -1.0684887 -0.80725712
3.0578732 -1.0379328 -0.80866754
3.0933735 -1.0127729 -0.7855674
3.0608048 -0.98660582 -0.81103683
3.0893602 -0.98078376 -0.7854839
3.1734805 -0.95967901 -0.78433096
3.2614195 -0.9259212 -0.78307658
3.0637629 -0.93480653 -0.81342781
3.0839961 -0.93803132 -0.78537208
3.1680772 -0.91560715 -0.7842142
3.2573416 -0.89181495 -0.78298491
3.353647 -0.87825012 -0.78170949
3.4520819 -0.82738042 -0.78025049
3.065552 -0.90348107 -0.81487381
3.0716023 -0.87729084 -0.80300194
3.161303 -0.86035681 -0.78406775
3.2518907 -0.8462261 -0.78286242
3.3481741 -0.83120698 -0.78158122
3.4479582 -0.79085755 -0.78014934
3.5573709 -0.77295828 -0.77868986
3.6730115 -0.74076498 -0.77709174
3.070154 -0.82996666 -0.80725241
3.1558659 -0.81600589 -0.78395027
3.2464232 -0.80050009 -0.7827394
3.3413076 -0.77218986 -0.78142011
3.442445 -0.74203032 -0.78001398
3.5532348 -0.7351048 -0.77858317
3.0725484 -0.77683139 -0.79831731
3.1504121 -0.77152538 -0.78383243
3.2395644 -0.74314153 -0.78258526
3.3357978 -0.72482944 -0.78129095
3.0750067 -0.73377478 -0.80021489
3.0762441 -0.71210194 -0.80116993
3.1435719 -0.71573466 -0.78368455
3.2340617 -0.69711602 -0.78246152
3.0781097 -0.67941731 -0.80261016
3.0812449 -0.62450033 -0.80503052
3.0844541 -0.5670206 -0.80070627
3.0861852 -0.53584218 -0.79748523
3.0874684 -0.51336384 -0.79845226
3.0899119 -0.46842107 -0.78886193
3.0931675 -0.41137391 -0.79125667
3.0957971 -0.36529326 -0.79319102
3.0984485 -0.31882781 -0.79514152
3.101795 -0.26017672 -0.79760343
3.1050317 -0.20128947 -0.78827399
3.1076167 -0.1537863 -0.77836591
3.1103694 -0.1055342 -0.78029048
3.1131458 -0.056869566 -0.78223157
4.318975 -1.9471021 -0.79815173
4.3453264 -1.8882662 -0.77381796
4.0590682 -1.8895614 -0.77917182
4.1880817 -1.8665328 -0.77528328
4.3380961 -1.8314121 -0.77323639
3.9143939 -1.8665599 -0.77875054
4.0443473 -1.8470306 -0.7770229
4.1831241 -1.8124574 -0.77512062
4.3332243 -1.7750627 -0.77306318
3.9105883 -1.8288819 -0.7786417
4.0393133 -1.7948676 -0.77686924
4.1781483 -1.7581817 -0.77495742
4.3295593 -1.7326654 -0.77293307
3.7858002 -1.8119502 -0.78015196
3.9054997 -1.7785007 -0.77849615
4.0342607 -1.7425188 -0.77671492
4.1731544 -1.7037058 -0.77479362
4.325882 -1.6901324 -0.77280229
3.6665394 -1.7725567 -0.78149843
3.7793908 -1.7510204 -0.77997917
3.900393 -1.7279466 -0.77835006
4.029191 -1.6899834 -0.77656019
4.1693974 -1.6627225 -0.77467036
4.3209629 -1.6332395 -0.77262747
3.555892 -1.7470243 -0.78279388
3.6626766 -1.7371497 -0.78139991
3.6600955 -1.7134945 -0.78133398
3.7729568 -1.6898547 -0.77980566
3.8952694 -1.6772184 -0.77820349
4.0241027 -1.6372602 -0.77640492
4.1656284 -1.6216125 -0.77454674
4.3160253 -1.5761265 -0.77245194
3.4506233 -1.7119246 -0.78398114
3.5520191 -1.71268 -0.7826997
3.5481384 -1.6782646 -0.78260547
3.6562157 -1.6779356 -0.7812348
3.7677894 -1.6407318 -0.77966636
3.8901281 -1.6263154 -0.7780565
4.0189958 -1.5843484 -0.77624899
4.1605873 -1.5666292 -0.77438146
4.3110685 -1.5187925 -0.77227569
3.3514421 -1.6788543 -0.78509969
3.4467471 -1.6785643 -0.7838912
3.5442472 -1.6437597 -0.78251088
3.6510298 -1.6303967 -0.78110254
3.7626052 -1.5914454 -0.77952665
3.8849692 -1.5752363 -0.77790898
4.0151548 -1.544546 -0.77613181
4.1555285 -1.5114412 -0.77421546
4.3073387 -1.4756532 -0.77214313
3.2578282 -1.6476405 -0.78615385
3.3475678 -1.6464232 -0.78501332
3.4402666 -1.6227961 -0.7837407
3.539046 -1.5976336 -0.78238451
3.6458263 -1.5827043 -0.78096956
3.7574031 -1.5419943 -0.77938646
3.8797925 -1.5239809 -0.77776092
4.011302 -1.5046244 -0.77601421
4.1504512 -1.4560474 -0.77404892
4.303597 -1.4323742 -0.77201015
3.1693282 -1.6181321 -0.78714955
3.2539594 -1.6160877 -0.78607023
3.3410864 -1.5922112 -0.7848677
3.433758 -1.5668296 -0.78358871
3.5338273 -1.5513631 -0.78225756
3.6406062 -1.534858 -0.78083616
3.7521842 -1.4923778 -0.77924567
3.8745973 -1.4725474 -0.77761221
4.0061493 -1.4512365 -0.77585685
4.1466308 -1.4143727 -0.77392364
4.2998452 -1.3889832 -0.77187669
3.0855381 -1.5901939 -0.7880922
3.1641867 -1.5771532 -0.78704238
3.2474937 -1.5633497 -0.78593045
3.3345819 -1.5378137 -0.78472155
3.4285305 -1.5218973 -0.7834661
3.5285871 -1.5049462 -0.78212905
3.6340528 -1.4748231 -0.7806682
3.7469461 -1.4425948 -0.77910429
3.8693843 -1.4209354 -0.77746314
4.0009785 -1.3976561 -0.77569902
4.1427979 -1.3725679 -0.77379787
3.0280831 -1.5614853 -0.79488134
3.0804207 -1.5502696 -0.78798926
3.157742 -1.5257876 -0.78690815
3.2410064 -1.5104362 -0.78579038
3.3293607 -1.4941461 -0.78460419
3.4232876 -1.4768288 -0.78334302
3.52333 -1.458384 -0.78200001
3.6274683 -1.4145598 -0.78049833
3.7416854 -1.3926432 -0.7789613
3.8641512 -1.3691436 -0.77731323
3.9957888 -1.3438823 -0.77554059
4.1376724 -1.3166542 -0.77362972
3.0307274 -1.5151833 -0.79706705
3.074007 -1.5002294 -0.78786027
3.1525693 -1.4845622 -0.78680044
3.2357993 -1.4679644 -0.78567785
3.3241243 -1.45035 -0.78448635
3.4167099 -1.4202936 -0.78318876
3.5167339 -1.399968 -0.781838
3.6221817 -1.3661668 -0.78036201
3.7364056 -1.3425238 -0.77881753
3.8588939 -1.3171704 -0.77716148
3.990577 -1.2899135 -0.77538091
4.1325269 -1.2605302 -0.77346098
3.0675693 -1.4500091 -0.78773075
3.1460826 -1.4328631 -0.78666526
3.2292681 -1.4146972 -0.78553665
3.3175559 -1.3954167 -0.78433877
3.410109 -1.3635573 -0.78303397
3.510114 -1.3413377 -0.78167546
3.6168771 -1.3176162 -0.7802251
3.7311077 -1.2922356 -0.77867335
3.8536177 -1.2650158 -0.77700919
3.9853406 -1.2357488 -0.77521974
4.1273565 -1.2041945 -0.77329051
3.0611124 -1.3996301 -0.7876007
3.1395748 -1.3809963 -0.78652972
3.2227154 -1.3612516 -0.78539503
3.3109646 -1.3402938 -0.78419054
3.4048092 -1.318007 -0.78290969
3.5047984 -1.2942612 -0.78154492
3.6115556 -1.2689078 -0.78008771
3.7257924 -1.2417784 -0.77852857
3.8483231 -1.2126791 -0.77685624
3.9814012 -1.1950023 -0.77509838
4.1234632 -1.1618097 -0.77316165
3.0546315 -1.349069 -0.78747028
3.1330428 -1.3289367 -0.78639376
3.2174559 -1.3183525 -0.78528136
3.3056746 -1.2960432 -0.78407162
3.3994939 -1.2723174 -0.782785
3.4994659 -1.2470362 -0.78141403
3.6062167 -1.2200406 -0.77995008
3.7204587 -1.1911507 -0.77838343
3.8443403 -1.1733122 -0.77674121
3.9774504 -1.1541328 -0.77497661
4.1195583 -1.1192917 -0.77303249
3.0481303 -1.2983479 -0.78733945
3.1264896 -1.2767072 -0.78625721
3.2108588 -1.2645477 -0.78513885
3.2990377 -1.2405385 -0.78392231
3.3954971 -1.2379632 -0.78269124
3.392827 -1.2150136 -0.7826286
3.4941168 -1.199662 -0.78128266
3.6008601 -1.1710138 -0.77981192
3.7151072 -1.1403517 -0.7782377
3.8403461 -1.1338304 -0.77662593
3.9721665 -1.0994753 -0.77481401
4.1143346 -1.0624228 -0.77285963
3.0446262 -1.267924 -0.78736293
3.0463045 -1.2385285 -0.78868902
3.1212301 -1.2347872 -0.78614765
3.2042403 -1.2105627 -0.78499568
3.2923777 -1.1848419 -0.78377271
3.3888137 -1.1805189 -0.78253448
3.4887512 -1.152138 -0.78115094
3.5954862 -1.1218266 -0.77967334
3.7097373 -1.0893807 -0.77809155
3.8350048 -1.0810342 -0.77647161
3.9668629 -1.0446186 -0.77465057
4.1090922 -1.0053384 -0.77268618
3.0479913 -1.2089822 -0.79002202
3.1146338 -1.1822162 -0.78601027
3.1989272 -1.1672289 -0.78488088
3.2870319 -1.1401296 -0.78365242
3.3821042 -1.1228511 -0.78237706
3.4833682 -1.1044632 -0.78101873
3.5900948 -1.0724782 -0.7795341
3.7043495 -1.0382369 -0.77794492
3.8296454 -1.0280526 -0.77631694
3.96154 -0.98956186 -0.7744866
4.1051474 -0.9623903 -0.77255559
3.108016 -1.1294725 -0.7858724
3.1922636 -1.1128794 -0.78473681
3.2816696 -1.095284 -0.7835319
3.3753715 -1.0649766 -0.78221917
3.4779677 -1.0566373 -0.78088611
3.5846853 -1.0229678 -0.77939469
3.7002971 -0.99977034 -0.77783453
3.8242662 -0.97488451 -0.77616167
3.9561977 -0.93430418 -0.77432209
4.1011906 -0.91930616 -0.77242482
3.1027045 -1.0871395 -0.78576177
