# .PCD v0.7 - Point Cloud Data file format
VERSION 0.7
FIELDS x y z
SIZE 4 4 4
TYPE F F F
COUNT 1 1 1
WIDTH 1514
HEIGHT 1
VIEWPOINT 0 0 0 1 0 0 0
POINTS 1514
DATA ascii
3.0702293 0.20372754 0.2203511
3.0693243 0.23951715 0.22001773
3.0520411 0.92303795 0.21365094
3.0911193 0.90818793 0.20494568
3.1390946 0.9098019 0.21850973
3.1873426 0.91085356 0.20783567
3.2383008 0.91255885 0.2218641
3.2896051 0.91368634 0.2109071
3.3425295 0.91484946 0.19960439
3.398494 0.91670293 0.21417773
3.454937 0.91795355 0.20255601
3.5146747 0.91992146 0.21766722
3.5749998 0.92126912 0.2057085
3.6381483 0.92301244 0.20736474
3.703526 0.92481858 0.20908332
3.7704449 0.92632705 0.19633007
3.8414443 0.92862755 0.21270472
3.9133961 0.93026263 0.19954354
3.050822 0.97125548 0.21320182
3.049602 1.019506 0.21275234
3.0483811 1.0677896 0.21230263
3.0471594 1.1161063 0.21185261
3.0459371 1.1644561 0.21140218
3.0447135 1.2128396 0.21095157
3.0437956 1.2491474 0.21061337
3.1378803 -2.4861269 0.28045011
3.1367195 -2.440233 0.28003436
3.1355586 -2.3943083 0.27961832
3.134325 -2.3519368 0.29482204
3.133996 -2.3293185 0.27123576
3.1326516 -2.2793624 0.27857703
3.1314876 -2.23333 0.27816004
3.1303232 -2.1872668 0.27774262
3.1291571 -2.1411726 0.27732515
3.1279984 -2.0972893 0.28161323
3.1264057 -2.0371864 0.28810108
3.1249454 -1.9794443 0.28758287
3.1237764 -1.9332147 0.28716803
3.1226065 -1.8869538 0.28675288
3.1214354 -1.840662 0.28633744
3.1202643 -1.7943388 0.28592181
3.1189413 -1.7410541 0.28309506
3.1174827 -1.6853292 0.28729212
3.1234841 -1.6377518 0.28686625
3.2055914 -0.31179291 0.27108324
3.3773901 -0.31107438 0.24866849
3.417654 -0.30500686 0.27985531
3.6135361 -0.30385095 0.25637776
3.644098 -0.2994839 0.27857757
3.8676975 -0.29788971 0.25347584
3.082356 -0.29537177 0.27247053
3.0811584 -0.24800342 0.27204543
3.0796599 -0.18874586 0.2715137
3.07816 -0.12944132 0.27098149
3.0770185 -0.085920274 0.27455193
3.0767825 -0.070079207 0.25856596
3.075758 -0.034446299 0.27012897
3.0745554 0.01309973 0.26970232
3.0733523 0.060678244 0.26927531
3.0721483 0.10828918 0.26884812
3.0824299 0.16360873 0.26977378
3.0697372 0.20360821 0.26799285
3.0688324 0.23938543 0.26767182
3.0515528 0.92267019 0.26154011
3.0939662 0.90967113 0.26478803
3.1414328 0.91100699 0.26710695
3.189744 0.91207749 0.25715965
3.2407694 0.9138028 0.27196592
3.2921426 0.91495067 0.26178175
3.345139 0.9161343 0.25127584
3.4011803 0.9180097 0.26670355
3.4577019 0.91928238 0.25593174
3.5168114 0.92093557 0.25837463
3.5779347 0.92264503 0.26090509
3.6404195 0.92406338 0.24947554
3.7066493 0.92624527 0.26622903
3.7736654 0.9277783 0.25448394
3.8439417 0.92973751 0.25712287
3.9168346 0.93176979 0.2598654
3.0503342 0.97087091 0.26110756
3.0491142 1.0191045 0.26067472
3.047894 1.0673714 0.26024151
3.0466719 1.1156712 0.25980812
3.0454497 1.1640043 0.25937444
3.0442271 1.2123706 0.25894034
3.0433095 1.2486663 0.2586146
3.1372488 -2.4851427 0.3388133
3.1360886 -2.4392679 0.33841729
3.1349275 -2.3933623 0.33802092
3.1336167 -2.3405681 0.33522844
3.1324773 -2.3012774 0.34891063
3.1319666 -2.2746909 0.33310121
3.1308582 -2.2324505 0.33663172
3.1296935 -2.1864064 0.33623421
3.1285276 -2.1403313 0.33583653
3.1273618 -2.0942254 0.33543843
3.1259029 -2.0365479 0.33494043
3.1244431 -1.9788253 0.33444214
3.1232743 -1.9326108 0.3340432
3.1221046 -1.8863654 0.33364391
3.120934 -1.8400891 0.33324444
3.1197629 -1.7937812 0.33284467
3.1185904 -1.7474425 0.33244461
3.1171246 -1.6894737 0.33194411
3.1156571 -1.6314592 0.33144331
3.1145387 -1.5888429 0.33499098
3.2417672 -0.30605954 0.30084562
3.4727733 -0.29670084 0.32254869
3.6751783 -0.29504275 0.30115366
3.7067893 -0.29052567 0.32411563
3.9203727 -0.29077375 0.28919882
3.9563425 -0.28591454 0.31359309
3.0831504 -0.29114991 0.31565815
3.0941818 -0.30515832 0.32948083
3.2032869 -0.27493948 0.33249098
3.2663689 -0.30216038 0.32108563
3.3336892 -0.27878195 0.3338145
3.4715466 -0.27010012 0.3356958
3.6212778 -0.26069325 0.33773822
3.0806644 -0.24796796 0.31949937
3.1911223 -0.22771275 0.33414066
3.320626 -0.22963744 0.33552456
3.4610062 -0.23172432 0.33702517
3.0791664 -0.18873066 0.31898803
3.1790316 -0.18077707 0.33578044
3.3076344 -0.18080968 0.33722579
3.447005 -0.18084508 0.33879209
3.077667 -0.12944627 0.31847614
3.1670146 -0.13412946 0.33741015
3.2947261 -0.13229364 0.33891612
3.4365606 -0.14289778 0.34011036
3.0764666 -0.081981242 0.31806636
3.1550713 -0.087767422 0.33902991
3.2818992 -0.084086537 0.34059578
3.0753245 -0.038446724 0.32165003
3.0750878 -0.022595108 0.30567497
3.1432011 -0.041688383 0.34063971
3.2723308 -0.048122466 0.34184879
3.0740628 0.013045907 0.31724602
3.07286 0.060608029 0.31683534
3.0716565 0.10820264 0.31642443
3.0704515 0.15582949 0.31601328
3.0692458 0.20348901 0.31560189
3.3029246 0.21630341 0.33301234
3.5137472 0.25453395 0.32198495
3.068464 0.23928684 0.30339187
3.2440841 0.24871176 0.31802732
3.0511868 0.92239434 0.29743636
3.1131358 0.92028087 0.30931002
3.1431887 0.9119119 0.30358922
3.1915474 0.91299623 0.2941879
3.2374313 0.92487031 0.31041396
3.2940478 0.91589957 0.29997522
3.3583477 0.93183297 0.30528533
3.4031966 0.91899079 0.30613804
3.4597778 0.92028028 0.29600495
3.5148489 0.92922229 0.30430847
3.5801392 0.92367858 0.30234653
3.6553624 0.94084114 0.30828226
3.7089958 0.92731673 0.30913556
3.7760875 0.92886966 0.29814774
3.8412275 0.93860453 0.30730236
3.9194224 0.93290395 0.30515856
3.0499685 0.97058231 0.29701626
3.1015975 0.96347386 0.31096846
3.2229757 0.9686119 0.31253654
3.3507109 0.98575515 0.31467241
3.4959228 0.98013538 0.31606156
3.6462471 0.99924749 0.31853116
3.8182108 0.99374205 0.32022369
3.048749 1.0188036 0.29659575
3.0872607 1.0171437 0.31302911
3.2106874 1.0131924 0.31424397
3.3375351 1.0320117 0.31643933
3.4817061 1.0283604 0.31789821
3.6309066 1.0494397 0.32043672
3.801538 1.0462599 0.32221067
3.0508366 1.0690601 0.30745327
3.0914738 1.0568645 0.32383847
3.1477244 1.0656536 0.32529658
3.19697 1.0566103 0.3162331
3.2390292 1.0682352 0.33359081
3.286314 1.0694151 0.32512146
3.3277063 1.066519 0.31775731
3.3857546 1.072222 0.33377755
3.4542286 1.0689211 0.32209927
3.6026025 1.0779994 0.32472146
3.7841611 1.0829272 0.32449198
3.0461857 1.1152363 0.3077305
3.0449634 1.1635528 0.3073135
3.0437405 1.2119024 0.30689591
3.0428231 1.2481852 0.30658275
3.1367443 -2.4843559 0.38546729
3.1355844 -2.4384964 0.38508695
3.1344235 -2.392606 0.38470638
3.1332619 -2.3466847 0.3843255
3.1318088 -2.2892387 0.38384914
3.1304095 -2.2355237 0.38729823
3.1301892 -2.2204189 0.37159479
3.1291904 -2.1857188 0.38299072
3.1280248 -2.1396589 0.38260865
3.1268592 -2.0935683 0.38222653
3.1255424 -2.0405562 0.37944657
3.1240909 -1.9851007 0.38366723
3.1227722 -1.9320073 0.38088667
3.1216028 -1.8857772 0.3805033
3.1204326 -1.8395164 0.38011968
3.1192613 -1.7932242 0.37973583
3.1180894 -1.7469008 0.37935168
3.1166236 -1.6889513 0.37887108
3.1151569 -1.6309564 0.37839007
3.113982 -1.5845239 0.37800509
3.647356 -1.5415545 0.34885037
3.1128068 -1.5380602 0.3776198
3.1117997 -1.5030777 0.38907427
4.0066872 -1.2838724 0.37806016
4.0055418 -1.2385917 0.37772697
4.0043955 -1.1932908 0.3773936
4.0032482 -1.1479645 0.37706
4.0017185 -1.0874952 0.37661505
4.0005703 -1.0421177 0.37628108
3.9994216 -0.99671477 0.375947
3.9978893 -0.93614328 0.37550128
3.9967394 -0.89068913 0.37516671
3.9955885 -0.84520936 0.37483203
3.9944372 -0.79970902 0.37449729
3.9932854 -0.75418305 0.37416232
3.9917486 -0.69344759 0.37371528
3.9905953 -0.64787018 0.37337995
3.9894419 -0.60226715 0.37304431
3.9879026 -0.54142874 0.37259662
3.9867473 -0.49577418 0.37226069
3.9855917 -0.45009381 0.37192452
3.98405 -0.38915226 0.37147599
3.982893 -0.34342015 0.37113947
3.9821212 -0.31291842 0.370915
3.784471 -0.25041592 0.33996522
3.7927325 -0.27839482 0.33900338
3.9630439 -0.23919708 0.34240103
3.606111 -0.20739275 0.33957803
3.7721393 -0.20865095 0.34140092
3.9496148 -0.1954757 0.34389812
3.5910201 -0.15446728 0.3414101
3.7557728 -0.15330452 0.34330714
3.936265 -0.15203178 0.34538651
3.4296281 -0.11771166 0.3409853
3.5797646 -0.11500299 0.34277648
3.7395046 -0.098362446 0.34520292
3.9185436 -0.094478011 0.34736377
3.4192758 -0.080099404 0.34229183
3.5685735 -0.075766385 0.34413511
3.7273772 -0.057403922 0.34661615
3.9053316 -0.051585853 0.34883803
3.1074064 -0.014195621 0.35891688
3.2152889 -0.01146239 0.36395431
3.2659786 -0.024247825 0.34268069
3.3308635 -0.0085341334 0.36935085
3.4055488 -0.030225873 0.34402442
3.4549847 -0.0053890347 0.37514603
3.5537384 -0.023751199 0.34593624
3.5929792 -0.0010527968 0.36690545
3.7153225 -0.016691387 0.34802085
3.7376623 0.0026467443 0.37307441
3.8929331 -0.0037574172 0.36012095
3.0736303 0.0090264082 0.36874819
3.0733936 0.024888992 0.35278374
3.0723681 0.060537815 0.36436272
3.0713058 0.10415751 0.36004013
3.0703843 0.14384478 0.35178715
3.1159089 0.18239003 0.34279436
3.1702158 0.1501953 0.35758191
3.054415 1.0711393 0.35459286
3.1051633 1.0650508 0.36972839
3.148669 1.0661371 0.36210257
3.1933835 1.0672531 0.3542648
3.240016 1.0687325 0.3714397
3.2873197 1.0699179 0.36351049
3.3359952 1.0711377 0.35535121
3.3864546 1.0725665 0.36012566
3.4384282 1.0740385 0.36504483
3.4916165 1.0753775 0.35653639
3.5464437 1.0767579 0.34776586
3.6037552 1.0785482 0.36672312
3.6621127 1.0800231 0.3578347
3.7223556 1.0815461 0.34865916
3.7849901 1.0833111 0.3538729
3.8497231 1.0851355 0.35926324
3.9162242 1.086823 0.34964353
3.0456991 1.1148021 0.35561991
3.0444775 1.1631017 0.35521942
3.0432546 1.2114341 0.35481858
3.0423372 1.2477043 0.35451776
3.1362405 -2.4835699 0.43208987
3.1350801 -2.4377253 0.43172526
3.1339197 -2.3918502 0.43136048
3.1327581 -2.3459442 0.43099529
3.1313052 -2.288517 0.43053865
3.1298516 -2.231045 0.43008155
3.1287427 -2.1888101 0.43363887
3.1285219 -2.1736948 0.4179458
3.1275222 -2.1389868 0.42934942
3.1263568 -2.0929117 0.42898303
3.12519 -2.0468054 0.42861634
3.1237311 -1.9891276 0.42815763
3.1222708 -1.9314044 0.42769861
3.1211014 -1.8851898 0.42733103
3.1199312 -1.8389442 0.42696333
3.1187606 -1.7926676 0.42659521
3.1175892 -1.7463596 0.42622703
3.1161232 -1.6884295 0.42576629
3.1146567 -1.6304538 0.42530519
3.1134822 -1.5840369 0.42493606
3.1123071 -1.5375887 0.42456669
3.1111312 -1.4911093 0.42419702
3.1101239 -1.4561191 0.43565941
4.0062056 -1.2835333 0.42362469
4.0050602 -1.2382641 0.42330319
4.0039139 -1.1929747 0.42298138
4.0027671 -1.1476598 0.42265952
4.0012379 -1.0872059 0.42223001
4.0000896 -1.0418398 0.42190772
3.9989412 -0.99644828 0.42158526
3.9974086 -0.93589222 0.42115504
3.9962585 -0.89044952 0.42083222
3.9951084 -0.84498131 0.42050922
3.9939573 -0.79949254 0.42018598
3.9928057 -0.75397807 0.41986269
3.9912691 -0.69325799 0.41943133
3.9901161 -0.6476922 0.41910762
3.9889627 -0.60210073 0.41878372
3.9874239 -0.54127777 0.41835159
3.9862688 -0.49563485 0.4180274
3.9851129 -0.44996613 0.41770291
3.9835718 -0.38904002 0.41727012
3.9824145 -0.34331971 0.41694534
3.981643 -0.31282574 0.41672868
3.0945117 -0.017419457 0.40900755
3.2014661 -0.014809251 0.41573894
3.3160105 -0.012013733 0.422948
3.4429622 -0.0081113577 0.4168694
3.5756457 -0.0048424602 0.42468256
3.5842905 -0.0029524565 0.39586681
3.718883 -0.0013130903 0.43311679
3.7282481 0.00066167116 0.40317416
3.88416 0.0045759082 0.41108853
3.0730789 0.012938201 0.41223574
3.0719361 0.056499481 0.41584611
3.0716989 0.072372794 0.39989245
3.0709746 0.096135199 0.41157401
3.0566864 1.0699494 0.40929919
3.1063974 1.0656869 0.41815865
3.1499293 1.0667818 0.41119504
3.1946709 1.0679071 0.40403777
3.2413323 1.0693963 0.4219237
3.2886658 1.0705914 0.4147144
3.3373716 1.071821 0.407296
3.3875117 1.073087 0.39965916
3.4398704 1.074743 0.41855013
3.4930916 1.076092 0.41085142
3.5479522 1.0774825 0.40291566
3.6049161 1.0791008 0.40873748
3.6636982 1.0807712 0.41474676
3.7239778 1.082305 0.40648848
3.786237 1.083889 0.39795893
3.8510029 1.0857229 0.40408707
3.9179771 1.0876198 0.4104259
3.045213 1.114368 0.4034763
3.0439913 1.1626506 0.40309232
3.042635 1.2133121 0.40986878
3.0417306 1.2471039 0.4143883
3.1357362 -2.4827843 0.47868112
3.1345766 -2.4369547 0.47833228
3.1334162 -2.3910949 0.47798309
3.1322546 -2.3452041 0.47763374
3.1308024 -2.287796 0.47719666
3.129349 -2.2303429 0.47675931
3.1281853 -2.1843445 0.47640911
3.1270757 -2.142097 0.4799794
3.1268544 -2.126971 0.4642967
3.1258545 -2.0922554 0.47570804
3.1246886 -2.0461645 0.47535717
3.1232295 -1.9885056 0.47491819
3.1217694 -1.9308019 0.47447893
3.1206 -1.8846028 0.4741272
3.1194305 -1.8383723 0.47377527
3.1182601 -1.792111 0.47342309
3.1170888 -1.7458189 0.47307068
3.1156232 -1.6879078 0.47262979
3.114157 -1.6299517 0.47218859
3.112983 -1.5835502 0.47183532
3.1118081 -1.5371176 0.47148183
3.1106322 -1.4906538 0.47112814
3.1094558 -1.4441586 0.47077414
3.598788 -1.3967347 0.46380228
3.108335 -1.4014755 0.47436205
4.005724 -1.2831945 0.46916875
4.0045786 -1.2379367 0.46885878
4.0034332 -1.1926588 0.46854863
4.002286 -1.1473552 0.46823829
4.0007563 -1.0869166 0.46782434
3.999609 -1.0415621 0.46751368
3.9984605 -0.99618202 0.46720287
3.9969285 -0.93564123 0.46678817
3.9957786 -0.89021009 0.46647701
3.9946282 -0.84475332 0.4661656
3.9934776 -0.79927605 0.46585408
3.9923258 -0.75377321 0.46554244
3.9907901 -0.6930685 0.46512663
3.9896374 -0.64751428 0.46481454
3.9884834 -0.60193443 0.46450239
3.9869452 -0.54112691 0.46408585
3.9857903 -0.49549559 0.46377328
3.9846346 -0.44983849 0.46346059
3.9830933 -0.38892797 0.46304342
3.9819365 -0.34321928 0.46273029
3.9811649 -0.31273299 0.46252146
3.0817289 -0.02061528 0.45866421
3.187768 -0.018125772 0.46705937
3.3012974 -0.015460312 0.47604746
3.431042 -0.010810494 0.45825684
3.5627732 -0.0076566935 0.46761683
3.7095702 -0.0032765865 0.46290272
3.8689227 0.0014808774 0.45774519
3.0725873 0.012884438 0.45968187
3.0713854 0.060397804 0.4593201
3.070483 0.096052885 0.45904869
3.0564151 1.0745564 0.46676648
3.1076317 1.0663228 0.46660984
3.15119 1.0674272 0.46030894
3.1959593 1.0685616 0.45383286
3.2426496 1.0700603 0.47243035
3.2900121 1.071265 0.4659417
3.3387494 1.072505 0.45926473
3.3889208 1.0737813 0.45239121
3.4409528 1.0752721 0.45869493
3.4945695 1.076808 0.46519232
3.5494661 1.0782099 0.45809162
3.6060801 1.0796554 0.45076883
3.6648915 1.0813346 0.45744815
3.7256107 1.0830688 0.46434599
3.7879121 1.0846653 0.45676416
3.8522935 1.0863156 0.44892925
3.9193027 1.0882227 0.45603168
3.0448971 1.1140091 0.46320575
3.0433843 1.1620874 0.46288532
3.0421751 1.2079194 0.46732378
3.0411246 1.2465041 0.47421062
3.1352327 -2.4819992 0.52524114
3.1340733 -2.4361849 0.52490795
3.1329131 -2.3903401 0.52457452
3.1317523 -2.3444645 0.52424079
3.1302998 -2.2870753 0.52382338
3.1288464 -2.2296412 0.52340567
3.1276827 -2.1836581 0.52307117
3.1265182 -2.1376443 0.52273655
3.1254082 -2.0953836 0.52631968
3.1251869 -2.0802474 0.51064742
3.124187 -2.0455239 0.52206647
3.1227283 -1.9878845 0.52164733
3.1212687 -1.9301999 0.52122772
3.1200995 -1.8840158 0.52089185
3.1189299 -1.8378012 0.52055568
3.1177599 -1.7915552 0.52021933
3.1165886 -1.7452781 0.5198828
3.1151242 -1.6873868 0.51946163
3.1136577 -1.6294498 0.51904035
3.1124835 -1.5830638 0.51870292
3.1113091 -1.5366468 0.51836526
3.1101336 -1.4901984 0.51802742
3.1089568 -1.4437188 0.51768947
3.1077802 -1.397208 0.51735109
3.1109066 -1.3552421 0.52039522
3.2422624 -1.337948 0.53503704
3.3733804 -1.3342075 0.5313195
3.5156968 -1.3301473 0.52726614
3.6736701 -1.3260541 0.53640836
4.0134497 -1.2938815 0.51899886
4.0040975 -1.2376096 0.51438868
4.0029516 -1.192343 0.51409012
4.0018053 -1.1470509 0.51379144
4.0002766 -1.0866275 0.51339293
3.9991283 -1.0412844 0.51309383
3.9979806 -0.99591589 0.51279461
3.9964483 -0.93539035 0.5123955
3.9952993 -0.88997072 0.51209593
3.9941487 -0.84452552 0.51179618
3.9929979 -0.79905975 0.51149631
3.9918468 -0.75356841 0.51119626
3.9903109 -0.69287914 0.51079607
3.9891584 -0.64733648 0.51049566
3.9880052 -0.60176814 0.51019514
3.9864666 -0.54097617 0.50979424
3.985312 -0.49535638 0.50949335
3.9841566 -0.44971091 0.50919229
3.9826155 -0.38881585 0.50879073
3.9814587 -0.34311885 0.50848937
3.9806874 -0.31264037 0.50828826
3.0728743 -0.022782385 0.51919818
3.1708136 -0.022230864 0.53058094
3.1775713 -0.020594597 0.50526309
3.2903476 -0.018025517 0.51556516
3.4152746 -0.014380574 0.51299894
3.5457528 -0.011377811 0.52438748
3.6957023 -0.0062007308 0.5072723
3.8487992 -0.0026063919 0.51939267
3.0719736 0.012817204 0.51894224
3.0707715 0.060310125 0.51860082
3.0695801 0.10544944 0.52301908
3.224618 1.0853887 0.48734012
3.4106734 1.085844 0.48924577
3.4416742 1.0756242 0.48546669
3.6113923 1.0967627 0.49216357
3.6656876 1.0817106 0.48592535
3.8451455 1.0980008 0.49461052
3.9201868 1.088625 0.48644641
3.0630944 1.1377244 0.52025366
3.1041887 1.1389713 0.51493609
3.1463747 1.1402514 0.50947726
3.1976593 1.1271458 0.49672392
3.2333548 1.1423457 0.52352875
3.2790616 1.1437249 0.51796424
3.3408623 1.1448836 0.50605702
3.3849568 1.1255968 0.50085342
3.4236116 1.1477988 0.51374847
3.4747691 1.1493382 0.5077163
3.5269301 1.1506114 0.51533675
3.5811687 1.1426866 0.50458413
3.6365309 1.1535954 0.51702714
3.6941564 1.1553202 0.5106734
3.7536004 1.157099 0.50411904
3.8121696 1.1473405 0.50767982
3.8770194 1.1601422 0.52073032
3.0427783 1.1615243 0.52263033
3.0415561 1.2097983 0.52228737
3.0406396 1.2460244 0.52203
3.1347296 -2.4812145 0.57176983
3.1335704 -2.4354153 0.57145232
3.1324103 -2.3895857 0.57113457
3.1312494 -2.3437252 0.57081652
3.1297975 -2.2863553 0.57041872
3.1283441 -2.22894 0.57002062
3.1271811 -2.1829722 0.56970191
3.1260169 -2.1369736 0.56938291
3.1248517 -2.0909441 0.56906378
3.1237411 -2.0486705 0.57265985
3.1235197 -2.0335238 0.55699801
3.1222277 -1.9872632 0.56834483
3.1207683 -1.9295981 0.567945
3.1195996 -1.8834295 0.56762493
3.1182966 -1.8348341 0.57429755
3.117135 -1.7908608 0.57866859
3.1159642 -1.7446029 0.5783518
3.1144996 -1.6867356 0.57795542
3.113034 -1.6288229 0.57755876
3.1118596 -1.5824564 0.57724118
3.1106856 -1.5360587 0.57692349
3.1095104 -1.4896297 0.57660544
3.1083343 -1.4431696 0.57628721
3.1071577 -1.3966782 0.57596886
3.1169071 -1.3520329 0.57439494
3.2492249 -1.3388455 0.57095987
3.3834188 -1.3354434 0.58119625
3.5238566 -1.3311043 0.5662483
3.6825647 -1.3270454 0.57718658
3.8499179 -1.3219136 0.56065452
4.0208645 -1.2995791 0.55880904
4.0036163 -1.2372825 0.55989808
4.002471 -1.1920272 0.55961108
4.0013247 -1.1467466 0.55932397
3.9997959 -1.0863385 0.55894089
3.9986486 -1.0410069 0.55865335
3.9975002 -0.99564981 0.55836582
3.9959688 -0.93513966 0.55798215
3.9948196 -0.88973153 0.5576942
3.9936695 -0.84429777 0.55740613
3.9925187 -0.79884356 0.55711794
3.9913676 -0.75336373 0.55682951
3.9898322 -0.69268984 0.55644482
3.9886796 -0.64715874 0.5561561
3.9875267 -0.60160202 0.5558672
3.9858291 -0.54077518 0.5707041
3.9846742 -0.49517095 0.57041883
3.9835191 -0.44954094 0.57013333
3.9819784 -0.38866654 0.56975251
3.9808223 -0.34298497 0.56946671
3.9800508 -0.31251693 0.56927609
3.0722604 -0.022834361 0.57839608
3.160737 -0.024670601 0.56833291
3.275871 -0.021416783 0.56781083
3.2830925 -0.019725144 0.54174823
3.3996582 -0.01791662 0.56721848
3.533093 -0.014145494 0.56661338
3.672812 -0.011027277 0.58050978
3.6819303 -0.0091046691 0.55133593
3.8338444 -0.0056438446 0.5652132
3.0713599 0.01274997 0.5781554
3.0701582 0.060222745 0.57783425
3.0689561 0.10772771 0.57751286
3.0616062 1.1366458 0.5684247
3.102653 1.1378779 0.56374174
3.1447902 1.1391425 0.55893445
3.18806 1.1404412 0.55399776
3.2320876 1.1414905 0.56162107
3.2773166 1.1425683 0.56944764
3.3401794 1.1443501 0.56715
3.3973298 1.1461487 0.55676901
3.4477108 1.1476521 0.55140948
3.4737716 1.1487241 0.53497297
3.5253816 1.1496761 0.55681109
3.5790398 1.1509726 0.56527019
3.6348701 1.1526299 0.55975509
3.6924343 1.1543384 0.55406862
3.7518153 1.156101 0.54820275
3.8124816 1.1575816 0.5570721
3.8757384 1.1594539 0.55106539
3.0422933 1.1610746 0.57038784
3.0410719 1.2093315 0.57006139
3.0401552 1.2455451 0.56981647
3.1341007 -2.4802344 0.62988532
3.132942 -2.4344542 0.62958729
3.1317823 -2.3886435 0.62928903
3.1306219 -2.342802 0.62899059
3.1291704 -2.2854555 0.62861729
3.1277175 -2.2280643 0.62824363
3.126554 -2.1821153 0.62794447
3.1253905 -2.1361358 0.62764519
3.1242256 -2.0901256 0.62734568
3.1230602 -2.0440843 0.62704593
3.1217127 -1.9940677 0.63449538
3.1213796 -1.9713283 0.61102211
3.1201427 -1.9288464 0.62629575
3.1189744 -1.8826971 0.62599534
3.1178141 -1.8387699 0.6303798
3.1165106 -1.7901669 0.63707185
3.1153402 -1.7439284 0.63677478
3.1138756 -1.686085 0.63640314
3.1124101 -1.6281965 0.63603121
3.111237 -1.5818493 0.63573343
3.1100628 -1.5354711 0.6354354
3.1088879 -1.4890616 0.63513726
3.1077123 -1.442621 0.63483882
3.1065357 -1.3961489 0.6345402
3.1220076 -1.3525043 0.63263106
3.2585509 -1.3400476 0.61907303
3.3909826 -1.3363748 0.61877942
3.3960445 -1.3369979 0.64392912
3.53479 -1.332387 0.61847907
3.6914954 -1.328041 0.61813164
3.8629265 -1.3232871 0.61777359
4.004281 -1.2821791 0.60565698
4.0031357 -1.2369556 0.60538167
4.0019903 -1.1917118 0.60510623
4.000845 -1.1464427 0.60483074
3.9993162 -1.0860497 0.60446316
3.9981685 -1.0407295 0.60418731
3.9970207 -0.99538392 0.60391128
3.9954896 -0.93488908 0.60354304
3.9943407 -0.88949239 0.60326672
3.9931903 -0.84407014 0.60299027
3.9920399 -0.79862744 0.6027137
3.9908891 -0.75315917 0.6024369
3.9893537 -0.69250065 0.60206771
3.9882011 -0.64698112 0.60179067
3.9870486 -0.6014359 0.60151339
3.9853506 -0.54062462 0.61636066
3.9841964 -0.49503192 0.61608708
3.9830418 -0.44941348 0.61581326
3.9815011 -0.3885546 0.615448
3.980345 -0.34288466 0.61517382
3.9795737 -0.3124243 0.61499101
3.0718927 -0.022865415 0.61389053
3.1474004 -0.027899623 0.61829817
3.2651048 -0.023938775 0.60666591
3.3841906 -0.021419048 0.6209228
3.5205381 -0.016890526 0.6084916
3.6637409 -0.012940109 0.60953367
3.8190238 -0.0086541176 0.61062473
3.0709922 0.012709856 0.61365902
3.1370142 0.0061146617 0.63109928
3.3739917 0.0023978949 0.63463116
3.3896608 0.032489181 0.63301492
3.6770711 0.04702419 0.63613737
3.0697904 0.060170174 0.61335003
3.1640687 0.06238544 0.62804556
3.4134839 0.078237355 0.63055772
3.7052951 0.096784055 0.63349694
3.0685885 0.10766304 0.6130408
3.1846797 0.10525423 0.62571919
3.4376311 0.1246084 0.62806708
3.0601203 1.1355689 0.61653095
3.1011198 1.1367857 0.61248088
3.1432066 1.1380351 0.6083234
3.1864252 1.1393182 0.60405409
3.2308218 1.1406362 0.59966844
3.2990091 1.1421049 0.61872137
3.3706477 1.1442201 0.61219269
3.4202392 1.145684 0.60767323
3.4712801 1.1471906 0.60302168
3.5233195 1.1484308 0.61203206
3.5243504 1.1490533 0.58443224
3.5774379 1.1500237 0.60730714
3.6326582 1.1513443 0.61665022
3.6901422 1.1530316 0.6118511
3.7494378 1.1547718 0.60690081
3.8106325 1.1565681 0.60179192
3.8731797 1.1580794 0.61165863
3.8744583 1.1587665 0.58137488
3.0418093 1.1606252 0.61811244
3.0405877 1.2088654 0.6178025
3.0396714 1.2450662 0.61756992
3.1334727 -2.4792554 0.68795526
3.1323142 -2.4334941 0.68767667
3.1311548 -2.387702 0.68739802
3.1299944 -2.3418794 0.68711913
3.1286843 -2.2891803 0.68447268
3.1272399 -2.2340393 0.68878841
3.1259279 -2.1812596 0.68614149
3.1247644 -2.1352987 0.68586177
3.1235998 -2.0893075 0.6855818
3.1224346 -2.0432856 0.68530172
3.1209767 -1.9857128 0.68495131
3.1195736 -1.9318886 0.68850958
3.1193509 -1.9167156 0.67287374
3.1183498 -1.8819652 0.68431985
3.1171811 -1.835804 0.68403894
3.1160114 -1.7896121 0.68375778
3.1148412 -1.743389 0.68347645
3.1133771 -1.685565 0.68312454
3.111912 -1.6276958 0.68277228
3.110739 -1.5813642 0.68249035
3.109565 -1.5350013 0.68220812
3.1083903 -1.4886073 0.68192577
3.1072152 -1.4421823 0.68164319
3.1060386 -1.395726 0.68136042
3.8793025 -1.3250163 0.68967927
3.1051562 -1.3608639 0.68114829
3.1470723 -1.344906 0.67753696
3.2679269 -1.341256 0.66744733
3.4036653 -1.3379362 0.68179595
3.545788 -1.3336771 0.67101765
3.7004726 -1.3290415 0.6592868
3.8727348 -1.3243228 0.6608429
4.0036402 -1.2817283 0.6662522
4.0024953 -1.2365199 0.66599238
4.0013504 -1.1912915 0.66573238
4.000205 -1.1460373 0.66547227
3.9986761 -1.0856649 0.66512525
3.997529 -1.04036 0.66486478
3.9963815 -0.99502957 0.66460419
3.9948504 -0.93455511 0.66425663
3.9937012 -0.88917375 0.66399574
3.9925518 -0.84376681 0.66373473
3.9914017 -0.79833949 0.66347361
3.9902508 -0.75288659 0.66321236
3.9887159 -0.69224858 0.66286385
3.9875636 -0.64674443 0.66260225
3.9864104 -0.60121465 0.66234052
3.9848731 -0.54047406 0.66199142
3.9837189 -0.49489298 0.6617294
3.9825644 -0.44928613 0.66146725
3.981024 -0.3884427 0.66111749
3.9798682 -0.3427844 0.66085505
3.9790969 -0.31233186 0.66068006
3.6566052 -0.00025963783 0.63814175
3.9772334 -0.0060889125 0.64325589
3.058636 1.1344931 0.66457272
3.0995882 1.1356952 0.66115379
3.1416261 1.1369293 0.65764421
3.1847932 1.1381965 0.6540404
3.2438893 1.1396561 0.6618982
3.3051865 1.1412666 0.66555119
3.3687875 1.1430314 0.66499168
3.4183149 1.1444774 0.66123557
3.4692893 1.1459656 0.65736973
3.5217741 1.1474974 0.65338939
3.5758383 1.1490757 0.64928925
3.6310015 1.1503811 0.65926504
3.6884251 1.1520524 0.65512979
3.7470646 1.1534452 0.66550267
3.8081701 1.1552186 0.66133571
3.8712633 1.1570497 0.65703315
3.0413249 1.1601758 0.66580421
3.0401044 1.2083995 0.66551071
3.0391881 1.2445874 0.66529047
3.1329706 -2.4784725 0.73437482
3.1318123 -2.4327266 0.73411191
3.1306534 -2.3869495 0.73384875
3.1294932 -2.3411422 0.73358548
3.1283321 -2.2953041 0.73332202
3.1691816 -2.2803919 0.73043567
3.2186077 -2.2723811 0.72302306
3.2653027 -2.277787 0.73601639
3.315455 -2.2763996 0.73278856
3.3672173 -2.2749679 0.72945714
3.4206679 -2.2734897 0.72601706
3.4763017 -2.2720098 0.73537779
3.5333972 -2.2704315 0.73192126
3.5358968 -2.2458208 0.71842247
3.5928862 -2.2688484 0.74170339
3.6540134 -2.2671599 0.73823631
3.7173121 -2.2654111 0.7346462
3.7828987 -2.2635992 0.73092616
3.2239869 -2.2242084 0.71430194
3.5370576 -2.2075779 0.71806931
3.225069 -2.1777794 0.71386904
3.5382202 -2.1692765 0.71771556
3.2261536 -2.1312532 0.71343523
3.2269681 -2.0962975 0.71310937
3.2275124 -2.0729609 0.71289176
3.2280567 -2.0496001 0.71267396
3.1201854 -1.9735787 0.73147279
3.1190186 -1.9274948 0.73120791
3.1179063 -1.8851757 0.73484921
3.1176832 -1.8699927 0.71922374
3.1166818 -1.8352344 0.7306776
3.1155126 -1.7890576 0.73041224
3.1143425 -1.7428502 0.73014665
3.1128786 -1.6850454 0.72981441
3.1114137 -1.6271954 0.72948188
3.1102412 -1.5808793 0.72921562
3.1090677 -1.534532 0.72894925
3.1078935 -1.4881535 0.72868264
3.1067181 -1.4417439 0.72841591
3.1055424 -1.395303 0.72814894
3.8858907 -1.3257118 0.71860892
3.1046596 -1.3604529 0.72794867
3.155829 -1.3460851 0.72437185
3.277354 -1.3424714 0.71608484
3.4138744 -1.3391931 0.73252362
3.5568507 -1.3349748 0.72386688
3.7125034 -1.3303825 0.71444261
4.0031595 -1.2813904 0.71167308
4.0020151 -1.2361935 0.71142471
4.0008707 -1.1909763 0.71117628
3.9997253 -1.1457337 0.71092772
3.9981968 -1.0853764 0.71059608
3.9970496 -1.0400829 0.71034724
3.9959023 -0.99476397 0.71009827
3.9943714 -0.93430477 0.70976609
3.9932227 -0.88893491 0.70951682
3.9920735 -0.84353954 0.70926738
3.9909229 -0.79812366 0.70901787
3.9897723 -0.75268227 0.70876819
3.9882379 -0.69205958 0.70843512
3.9870861 -0.64656699 0.7081852
3.9859333 -0.60104877 0.70793509
3.9843955 -0.54032362 0.70760143
3.9832418 -0.49475408 0.70735109
3.9820876 -0.44915882 0.70710051
3.9805472 -0.38833091 0.70676637
3.9793911 -0.34268427 0.70651555
3.9786203 -0.31223935 0.7063483
3.0571537 1.133419 0.71254987
3.0980589 1.1346064 0.70976043
3.1400473 1.1358252 0.70689708
3.1831632 1.1370766 0.7039569
3.2497735 1.1387348 0.71219587
3.3188496 1.1404572 0.72062403
3.36693 1.1418445 0.71771276
3.4163942 1.1432724 0.71471781
3.4673009 1.1447415 0.71163535
3.519716 1.1462545 0.7084617
3.5737069 1.1478128 0.70519257
3.6293459 1.1494188 0.70182365
3.6867096 1.1510744 0.69835037
3.7452862 1.152451 0.70939416
3.8063259 1.1542077 0.7059316
3.869349 1.1560216 0.70235652
3.0408413 1.1597271 0.71346319
3.0396209 1.2079337 0.71318609
3.0387046 1.2441094 0.71297812
3.1324689 -2.4776905 0.78076333
3.1313107 -2.4319592 0.78051597
3.1301517 -2.3861973 0.78026843
3.1289923 -2.3404052 0.78002071
3.1278317 -2.2945824 0.77977282
3.1705947 -2.2805686 0.77742594
3.2177715 -2.2792659 0.77493036
3.2664156 -2.2779231 0.77235723
3.3165965 -2.2765379 0.76970279
3.3683882 -2.2751079 0.76696312
3.4218695 -2.2736313 0.76413411
3.477948 -2.2722018 0.78705251
3.535089 -2.2706263 0.78446639
3.5941901 -2.2689965 0.78179163
3.6553547 -2.2673099 0.77902341
3.7186923 -2.2655635 0.7761569
3.7843204 -2.2637541 0.77318668
3.1198249 -1.9768522 0.77417475
3.1186695 -1.9337752 0.78014863
3.117352 -1.8807952 0.77753448
3.1162391 -1.8384633 0.78118873
3.1160159 -1.8232698 0.76557362
3.1150143 -1.7885039 0.77703524
3.1138442 -1.7423115 0.77678537
3.1125226 -1.6891767 0.77416527
3.1110673 -1.6336112 0.77853
3.1097438 -1.5803947 0.77590942
3.1085703 -1.5340629 0.77565879
3.1073961 -1.4877 0.77540803
3.1062214 -1.4413058 0.77515709
3.1050458 -1.3948805 0.77490592
3.727644 -1.3320701 0.78385735
3.8925009 -1.3264098 0.74763215
3.8991318 -1.3271099 0.77674961
3.1041632 -1.360042 0.77471745
3.1646309 -1.3472703 0.77145278
3.2868328 -1.3436933 0.76498777
3.4241421 -1.3404573 0.78353983
3.5679793 -1.3362802 0.77702945
3.7215729 -1.3313934 0.75602275
4.0026798 -1.2810527 0.75706828
4.0015354 -1.2358671 0.75683153
4.000391 -1.1906614 0.7565946
3.9992452 -1.1454301 0.75635755
3.9977174 -1.0850881 0.75604129
3.9965706 -1.039806 0.755804
3.9954236 -0.99449855 0.7555666
3.9938931 -0.93405461 0.7552498
3.9927444 -0.88869619 0.75501209
3.9915948 -0.84331232 0.75477427
3.9904449 -0.79790795 0.75453633
3.9892948 -0.752478 0.75429827
3.9877603 -0.69187069 0.75398064
3.986608 -0.64638966 0.75374234
3.9854558 -0.60088301 0.7535038
3.9839182 -0.54017323 0.75318563
3.982765 -0.49461529 0.75294691
3.9816105 -0.44903162 0.75270802
3.9800704 -0.38821915 0.75238931
3.978915 -0.34258407 0.75215018
3.9781444 -0.3121469 0.75199068
3.0556734 1.1323462 0.7604627
3.0965312 1.1335185 0.75830108
3.1384706 1.1347222 0.75608218
3.1961412 1.1362867 0.75723124
3.2484918 1.1378777 0.75034815
3.3170552 1.1392894 0.77252984
3.3650751 1.1406598 0.77035618
3.4144752 1.1420693 0.76812005
3.4653158 1.1435199 0.76581872
3.5176616 1.1450136 0.76344919
3.5715795 1.1465523 0.7610085
3.6271417 1.1481373 0.75849342
3.6844246 1.1497719 0.75590044
3.7435098 1.151458 0.75322592
3.8044834 1.1531978 0.75046587
3.8674369 1.154994 0.74761617
3.0403583 1.1592784 0.76108932
3.0391376 1.2074683 0.76082861
3.0382218 1.2436316 0.76063305
3.1319675 -2.4769089 0.82712072
3.1308095 -2.4311929 0.82688892
3.1296508 -2.3854458 0.82665688
3.1284916 -2.3396688 0.82642478
3.1273313 -2.2938612 0.82619244
3.1720085 -2.2807453 0.82444191
3.2192199 -2.2794452 0.82266581
3.2679002 -2.2781045 0.82083446
3.3181188 -2.2767215 0.81894523
3.3699503 -2.2752945 0.81699538
3.4234729 -2.2738206 0.81498182
3.4791832 -2.2723458 0.82582802
3.5363576 -2.270772 0.82389539
3.5959299 -2.2691939 0.83527029
3.6571441 -2.2675104 0.83343488
3.7205336 -2.2657671 0.83153427
3.7862184 -2.2639611 0.82956487
3.1194787 -1.9838581 0.82462031
3.1183121 -1.9378099 0.82438684
3.1168532 -1.8802111 0.82409471
3.1156852 -1.834096 0.82386082
3.114572 -1.7917511 0.827528
3.1143484 -1.7765472 0.81192333
3.1133466 -1.7417734 0.82339263
3.1121762 -1.6955655 0.82315832
3.1107121 -1.6377606 0.82286513
3.1092472 -1.5799105 0.82257175
3.1080735 -1.5335941 0.82233691
3.1068995 -1.4872465 0.82210183
3.1057248 -1.440868 0.82186663
3.1045492 -1.3944583 0.82163131
3.7367885 -1.3330894 0.8257823
3.9091184 -1.3281642 0.82061517
3.103667 -1.3596315 0.82145464
3.1734796 -1.3484617 0.8187815
3.2963631 -1.3449217 0.81415826
3.4318788 -1.3414099 0.8219837
3.5791733 -1.3375936 0.83050817
4.0020409 -1.2806027 0.81756115
4.0008965 -1.2354323 0.81733972
3.9997516 -1.1902417 0.81711817
3.9986067 -1.1450257 0.8168965
3.9970787 -1.0847039 0.8166008
3.9959321 -1.0394371 0.81637883
3.9947853 -0.99414486 0.8161568
3.9934356 -0.93878561 0.81083566
3.9923086 -0.8984282 0.8207373
3.9909575 -0.84300953 0.81541586
3.9898078 -0.79762048 0.81519336
3.988658 -0.75220585 0.81497073
3.987123 -0.69161904 0.81467366
3.9859715 -0.64615333 0.8144508
3.9848194 -0.60066211 0.81422776
3.9832828 -0.53997284 0.81393027
3.9821296 -0.49443027 0.81370699
3.9809754 -0.44886208 0.8134836
3.9794357 -0.3880702 0.81318557
3.9782801 -0.34245062 0.81296188
3.9775097 -0.31202376 0.81281269
3.0541952 1.1312749 0.80831128
3.0950058 1.1324325 0.80677569
3.1368968 1.1336207 0.8051995
3.2020011 1.135468 0.80274987
3.2694921 1.1373827 0.80021042
3.3157115 1.1384151 0.81141204
3.3636858 1.1397722 0.80979025
3.4130385 1.1411681 0.8081218
3.4633338 1.1423001 0.81991982
3.51561 1.1437745 0.8183521
3.5694549 1.1452932 0.81673735
3.6249409 1.1468582 0.81507337
3.6821437 1.1484716 0.81335795
3.7411449 1.150136 0.81158853
3.8020298 1.1518528 0.80976266
3.8648903 1.1536262 0.80787754
3.0398753 1.1588302 0.80868274
3.0386548 1.2070034 0.80843842
3.0377395 1.243154 0.80825508
3.1314664 -2.4761276 0.87344712
3.1303089 -2.4304264 0.87323076
3.1291502 -2.3846951 0.87301433
3.127991 -2.3389328 0.87279773
3.127351 -2.2933867 0.87257159
3.1734228 -2.2809224 0.87148356
3.2206693 -2.2796245 0.87042773
3.2693858 -2.2782862 0.86933899
3.3196428 -2.2769058 0.86821586
3.3715131 -2.275481 0.86705673
3.4250772 -2.2740097 0.86585969
3.4804187 -2.2724895 0.86462295
3.5376272 -2.2709181 0.86334443
3.5972357 -2.2693422 0.87540007
3.6584871 -2.2676609 0.87426502
3.7219162 -2.2659197 0.87308961
3.787643 -2.2641165 0.87187165
3.1189797 -1.9832397 0.87111408
3.1178133 -1.9372067 0.87089616
3.1163552 -1.8796272 0.87062359
3.1151874 -1.8335276 0.87040544
3.1140187 -1.7873969 0.87018704
3.1129055 -1.7450391 0.87386709
3.1126809 -1.7298247 0.85827285
3.1116793 -1.6950432 0.8697499
3.1102149 -1.6372573 0.86947638
3.1087501 -1.5794266 0.86920261
3.1075773 -1.5331256 0.86898351
3.1064034 -1.4867936 0.86876416
3.1052291 -1.4404305 0.8685447
3.1040535 -1.3940363 0.86832511
3.5876117 -1.3385832 0.87081635
3.7459669 -1.3341123 0.86788118
3.9191453 -1.3292227 0.86467135
3.1031716 -1.3592212 0.86816031
3.182375 -1.3496596 0.86636007
3.3059461 -1.3461568 0.86359853
3.4396529 -1.3423671 0.86061049
4.0015612 -1.2802653 0.86290526
4.0004172 -1.2351063 0.86269534
3.9992728 -1.1899271 0.86248529
3.9981277 -1.1447225 0.86227512
3.9965999 -1.0844158 0.86199474
3.9954536 -1.0391605 0.86178434
3.9943073 -0.99387968 0.86157382
3.9931598 -0.9485786 0.86136323
3.9920113 -0.90325195 0.86115253
3.9904795 -0.84278256 0.86087137
3.9893303 -0.79740494 0.86066043
3.9881802 -0.75200188 0.86044931
3.9866457 -0.69143039 0.86016774
3.9854944 -0.64597625 0.85995644
3.9843428 -0.60049647 0.85974497
3.9828062 -0.53982258 0.85946292
3.981653 -0.4942916 0.85925126
3.9804988 -0.44873497 0.85903943
3.9789593 -0.38795862 0.8587569
3.9778044 -0.34235054 0.85854483
3.9770334 -0.31193149 0.85840344
3.0527186 1.1302047 0.85609579
3.0934825 1.1313479 0.85518461
3.1353245 1.1325212 0.85424936
3.200352 1.1343446 0.85279584
3.26776 1.1362345 0.85128909
3.3143697 1.1375418 0.85024726
3.3622983 1.1388857 0.84917593
3.4116027 1.1402678 0.84807384
3.4618495 1.1413863 0.86044443
3.5140731 1.1428463 0.85947657
3.5678637 1.1443505 0.85847962
3.6232924 1.1459 0.85745227
3.6804352 1.1474977 0.85639322
3.7393732 1.1491456 0.8553009
3.8001921 1.1508458 0.85417372
3.8629827 1.1526012 0.85301
3.0393925 1.1583822 0.85624343
3.0381725 1.2065387 0.8560155
3.037257 1.2426763 0.85584444
3.1308403 -2.475152 0.93130982
3.129683 -2.4294693 0.93111289
3.128525 -2.3837569 0.93091577
3.1273658 -2.3380136 0.93071854
3.1279027 -2.2930434 0.93052173
3.1748383 -2.2810991 0.91855091
3.2221196 -2.2798038 0.91821611
3.2708726 -2.2784681 0.91787088
3.321167 -2.2770901 0.91751474
3.3730772 -2.2756679 0.91714716
3.4266825 -2.274199 0.9167676
3.4820673 -2.2726817 0.9163754
3.5388982 -2.2710643 0.90280956
3.5397453 -2.2711618 0.92913038
3.5985417 -2.2694905 0.91555065
3.6598303 -2.2678113 0.91511667
3.7232995 -2.2660728 0.91466725
3.7885926 -2.26422 0.90008849
3.7895429 -2.2643237 0.92831457
3.1183569 -1.9824677 0.92918569
3.1171911 -1.9364538 0.92898726
3.1157327 -1.8788979 0.92873913
3.1145654 -1.8328176 0.92854047
3.1133969 -1.786706 0.92834169
3.1122274 -1.7405639 0.92814273
3.1110671 -1.6966484 0.93260795
3.1110137 -1.6831026 0.90462226
3.1099319 -1.6594862 0.95106721
3.1095521 -1.6337717 0.92477304
3.10813 -1.5788221 0.92744541
3.1069574 -1.5325406 0.92724586
3.1057842 -1.486228 0.92704618
3.1046095 -1.4398842 0.92684639
3.1034346 -1.3935091 0.92664641
3.593255 -1.3392452 0.89779544
3.5989156 -1.3399091 0.92485505
3.7551913 -1.3351402 0.91019905
3.9292269 -1.330287 0.90896732
3.1025531 -1.3587086 0.92649639
3.1913171 -1.3508636 0.91419041
3.3155816 -1.347399 0.91331077
3.4500663 -1.3436491 0.91235882
4.0010824 -1.2799282 0.90822381
3.9999382 -1.2347806 0.90802538
3.9987938 -1.1896126 0.90782684
3.9976492 -1.1444194 0.90762818
3.9961216 -1.084128 0.90736312
3.9949756 -1.038884 0.90716422
3.9938288 -0.99361467 0.90696526
3.9926815 -0.94832498 0.90676618
3.9915338 -0.90300983 0.90656698
3.9900022 -0.8425557 0.90630126
3.9888527 -0.79718959 0.90610182
3.9877031 -0.75179803 0.90590227
3.9861691 -0.69124186 0.90563607
3.985018 -0.64579916 0.90543634
3.9838662 -0.60033095 0.90523648
3.9823298 -0.53967249 0.90496981
3.9811764 -0.49415308 0.90476972
3.9800227 -0.44860801 0.90456951
3.9784837 -0.38784698 0.90430242
3.977329 -0.34225059 0.90410197
3.9765582 -0.31183928 0.90396833
3.0512443 1.1291363 0.90381634
3.0919619 1.1302645 0.90352786
3.1552105 1.1320174 0.90307981
3.2207422 1.1338334 0.90261555
3.2660306 1.1350887 0.9022947
3.312582 1.1363785 0.9019649
3.3604503 1.1377051 0.90162575
3.4096916 1.1390693 0.90127695
3.4603665 1.1404736 0.90091789
3.5125382 1.1419196 0.90054828
3.5662744 1.1434085 0.90016758
3.6216462 1.144943 0.89977533
3.6787291 1.1465249 0.89937091
3.7376044 1.1481566 0.8989538
3.798357 1.1498401 0.89852339
3.8610787 1.1515779 0.89807904
3.9258664 1.1533735 0.89762002
3.0389102 1.1579347 0.90377146
3.0376904 1.2060742 0.9035598
3.0367749 1.2421997 0.90340102
3.1302152 -2.4741771 0.9891274
3.1290579 -2.4285135 0.98894978
3.1279001 -2.3828197 0.98877203
3.1267412 -2.337095 0.98859417
3.1284549 -2.2927005 0.98846751
3.1766086 -2.2813203 0.97742271
3.2239335 -2.2800281 0.97799039
3.2723594 -2.2786498 0.96643019
3.3226919 -2.2772744 0.96684188
3.3746421 -2.2758546 0.9672668
3.4282889 -2.2743886 0.96770561
3.483717 -2.2728736 0.96815902
3.5410163 -2.2713077 0.96862769
3.6002841 -2.2696881 0.96911252
3.6616235 -2.2680123 0.96961427
3.7251461 -2.2662771 0.97013384
3.7909689 -2.2644792 0.97067225
3.8597093 -2.2626679 0.98561335
3.9305396 -2.2607346 0.98646289
4.0040817 -2.2587271 0.98734492
4.0804963 -2.2566414 0.98826134
3.112608 -1.7746258 0.97478825
3.1117308 -1.7400268 0.97465074
3.1105616 -1.6938689 0.97446734
3.109391 -1.64768 0.97428375
3.1085124 -1.6130192 0.97414601
3.1076336 -1.5783389 0.9740082
3.1064613 -1.5320728 0.97382438
3.1052883 -1.4857755 0.97364038
3.1041143 -1.4394474 0.97345626
3.1029394 -1.3930879 0.97327203
3.4605341 -1.3449376 0.96440428
3.6074405 -1.340909 0.96560663
3.7675545 -1.336518 0.9669171
3.9393516 -1.3313558 0.95345646
3.9461312 -1.3320715 0.98324555
3.1020579 -1.358299 0.9731338
3.2003059 -1.3520739 0.96227455
3.3252666 -1.3486472 0.96329725
4.0004435 -1.2794789 0.96861458
3.9992998 -1.2343464 0.96843141
3.9981556 -1.1891936 0.96824813
3.9970109 -1.1440157 0.96806479
3.9954844 -1.0837444 0.96782023
3.9943385 -1.0385157 0.96763664
3.993192 -0.99326158 0.967453
3.9920447 -0.94798708 0.9672693
3.9908969 -0.90268719 0.96708542
3.9893658 -0.84225345 0.96684015
3.9882164 -0.7969026 0.96665615
3.987067 -0.75152636 0.96647197
3.9855337 -0.69099057 0.96622628
3.9843826 -0.6455633 0.96604192
3.9832311 -0.60011041 0.96585751
3.9816949 -0.53947246 0.9656114
3.9805419 -0.49396843 0.96542674
3.9793885 -0.4484387 0.96524197
3.9778497 -0.38769826 0.96499544
3.9766951 -0.34211731 0.96481049
3.9759247 -0.31171632 0.96468711
3.0538583 1.0569296 0.9875105
3.044529 1.1185715 0.96926194
3.0904424 1.1291828 0.95180559
3.1536174 1.130913 0.95232219
3.2190704 1.1327052 0.95285743
3.2643034 1.133944 0.95322734
3.310797 1.1352172 0.95360756
3.3586047 1.1365261 0.95399851
3.4077833 1.1378727 0.95440066
3.4583921 1.1392584 0.95481455
3.5104947 1.1406851 0.95524061
3.5641582 1.1421547 0.95567942
3.6194539 1.1436689 0.95613158
3.6764572 1.1452298 0.95659775
3.7352486 1.1468399 0.95707852
3.7959135 1.1485007 0.95757461
3.8585427 1.1502156 0.95808673
3.9232333 1.1519871 0.95861572
3.0383074 1.1573751 0.96313381
3.0370884 1.2054946 0.9629426
3.0361731 1.2416039 0.96279907
3.1297154 -2.4733977 1.0353453
3.1285584 -2.4277492 1.0351832
3.1274006 -2.3820703 1.0350208
3.1262424 -2.3363612 1.0348585
3.128897 -2.2924266 1.0348206
3.17838 -2.2815421 1.0363321
3.2257485 -2.2802525 1.0378034
3.27422 -2.2788773 1.0271692
3.3242183 -2.2774589 1.0161973
3.3762078 -2.2760417 1.0174156
3.4298959 -2.2745781 1.0186738
3.4853673 -2.273066 1.0199738
3.5427127 -2.2715032 1.0213177
3.6020274 -2.269886 1.0227077
3.6634183 -2.2682137 1.0241464
3.7269936 -2.2664816 1.0256363
3.7928712 -2.2646868 1.0271802
3.8611798 -2.262826 1.0287809
3.9315503 -2.2608416 1.0157789
4.005125 -2.2588358 1.0172225
4.0815721 -2.2567518 1.0187225
3.9999647 -1.2791421 1.0138822
3.998821 -1.2340209 1.0137104
3.9976773 -1.1888796 1.0135386
3.9965329 -1.143713 1.0133668
3.9950063 -1.083457 1.0131375
3.993861 -1.0382396 1.0129654
3.9927144 -0.99299687 1.0127933
3.9915674 -0.94773382 1.012621
3.9904196 -0.90244538 1.0124487
3.9888887 -0.84202683 1.0122187
3.9877398 -0.79668748 1.0120462
3.9865906 -0.75132269 1.0118736
3.9850571 -0.69080228 1.0116433
3.9839065 -0.64538646 1.0114704
3.9827549 -0.59994507 1.0112976
3.9812191 -0.5393225 1.0110669
3.9800663 -0.49382997 1.0108938
3.9789128 -0.44831187 1.0107206
3.9773746 -0.38758686 1.0104895
3.9762199 -0.34201753 1.0103161
3.9754498 -0.31162417 1.0102004
3.4634228 1.0591013 1.0090426
3.5179353 1.0605865 1.0103201
3.5741575 1.0621181 1.0116376
3.6320658 1.0636268 1.0271049
3.6322744 1.0637705 0.99888921
3.69206 1.06533 1.0144005
3.753921 1.0670154 1.0158501
3.8179753 1.0688329 1.0025328
3.8840876 1.0706348 1.0038301
3.0535631 1.0566626 1.0232192
3.123718 1.0497875 1.0132517
3.1682408 1.05106 1.0021254
3.213963 1.0523057 1.0031968
3.2609956 1.053587 1.0042989
3.3093953 1.0549054 1.0054332
3.3592231 1.056263 1.0066009
3.410543 1.0576611 1.0078034
3.0389237 1.1087511 1.0226194
3.0377054 1.1568165 1.0224487
3.0364866 1.2049146 1.0222778
3.0355718 1.2410088 1.0221496
3.129216 -2.4726188 1.0815324
3.1280589 -2.4269855 1.0813856
3.1269014 -2.3813217 1.0812387
3.1257432 -2.3356273 1.0810919
3.1293399 -2.2921526 1.0811707
3.1797981 -2.2817194 1.0834897
3.2272012 -2.2804322 1.0856848
3.2760816 -2.2791047 1.0879483
3.3257453 -2.2776432 1.065581
3.3777745 -2.2762287 1.0675937
3.431504 -2.2747679 1.0696722
3.4870188 -2.2732584 1.0718198
3.5444098 -2.2716982 1.0740399
3.6037734 -2.2700846 1.0763364
3.6652143 -2.268415 1.0787132
3.728842 -2.2666862 1.0811746
3.7942991 -2.2648427 1.0695843
3.8626506 -2.262984 1.0719678
3.9330671 -2.2610023 1.059773
4.0066891 -2.2589991 1.0620598
4.0831881 -2.256918 1.0644358
3.9994867 -1.2788055 1.0591242
3.998343 -1.2336957 1.0589639
3.9971993 -1.1885657 1.0588037
3.9960551 -1.1434104 1.0586432
3.9945285 -1.0831696 1.0584292
3.9933829 -1.0379636 1.0582687
3.9922369 -0.99273229 1.058108
3.9910903 -0.94748068 1.0579472
3.989943 -0.90220368 1.0577863
3.9884121 -0.84180039 1.0575718
3.9872634 -0.79647249 1.0574107
3.9861145 -0.75111914 1.0572497
3.984581 -0.69061404 1.0570347
3.9834306 -0.64520967 1.0568734
3.9822793 -0.59977984 1.056712
3.9807434 -0.53917265 1.0564967
3.9795911 -0.49369162 1.0563351
3.9784381 -0.44818506 1.0561734
3.9768996 -0.38747549 1.0559578
3.9757452 -0.34191769 1.0557959
3.9749751 -0.31153208 1.055688
3.4630725 1.0588286 1.0628865
3.5175643 1.0603089 1.0649943
3.5737636 1.0618358 1.0671684
3.6318564 1.0634828 1.0553122
3.6917286 1.0651107 1.0574
3.7535696 1.066792 1.0595565
3.8176031 1.0686052 1.0469744
3.883693 1.0704033 1.0490271
3.0531707 1.0563068 1.070806
3.1234317 1.0494821 1.0740776
3.1679969 1.0508118 1.0514719
3.2137039 1.0520539 1.0532401
3.2607195 1.0533309 1.0550587
3.3091023 1.0546455 1.0569303
3.3589125 1.0559986 1.0588572
3.410213 1.0573926 1.0608417
3.0384424 1.1083212 1.070017
3.0372245 1.1563699 1.0698625
3.0360057 1.2044513 1.0697079
3.0350912 1.2405329 1.0695919
3.1287165 -2.4718404 1.1276885
3.1275601 -2.4262223 1.1275572
3.1264026 -2.3805733 1.1274257
3.1252449 -2.3348939 1.1272942
3.1297836 -2.2918794 1.1275179
3.181217 -2.2818966 1.1306731
3.2286549 -2.280612 1.1335928
3.2775717 -2.2792871 1.1366036
3.3272729 -2.277828 1.114993
3.3793416 -2.2764158 1.117801
3.4331131 -2.2749577 1.1207007
3.4886713 -2.2734509 1.1236969
3.5461078 -2.2718935 1.1267943
3.6055205 -2.2702832 1.1299984
3.667012 -2.2686169 1.1333145
3.7302289 -2.2668395 1.1228507
3.7957275 -2.2649987 1.1120117
3.8641229 -2.2631426 1.1151788
3.9350903 -2.2612164 1.1184651
4.0087776 -2.259217 1.1218773
4.0853438 -2.257139 1.125423
3.9988489 -1.278357 1.119413
3.9977057 -1.2332623 1.1192681
3.9965625 -1.1881474 1.119123
3.9954185 -1.1430073 1.1189778
3.9938922 -1.0827867 1.1187842
3.9927468 -1.0375959 1.1186389
3.9916008 -0.99237978 1.1184934
3.9904547 -0.94714338 1.118348
3.9893072 -0.90188158 1.1182024
3.987777 -0.84149861 1.1180084
3.9866283 -0.79618603 1.1178626
3.9854794 -0.75084794 1.1177168
3.9839466 -0.69036323 1.1175224
3.982796 -0.64497423 1.1173763
3.9816453 -0.59955966 1.1172304
3.9801095 -0.53897297 1.1170355
3.9789579 -0.49350727 1.1168894
3.9778047 -0.44801611 1.1167431
3.9762666 -0.38732702 1.1165479
3.9751122 -0.34178466 1.1164014
3.9743426 -0.31140941 1.1163038
3.409883 1.0571241 1.1138501
3.4627228 1.0585556 1.1166997
3.5171931 1.0600314 1.1196371
3.5734684 1.0616241 1.1087961
3.6315441 1.0632675 1.0976062
3.691397 1.0648913 1.1003778
3.7532187 1.0665686 1.1032405
3.8171067 1.0683022 1.1061989
3.8831673 1.0700941 1.1092579
3.0527778 1.0559514 1.118363
3.1232023 1.049238 1.122709
3.1676924 1.0505021 1.1131176
3.2134442 1.0518017 1.1032567
3.2604439 1.0530753 1.1057913
3.3088093 1.0543857 1.1083995
3.3586009 1.0557349 1.1110847
3.0379612 1.1078918 1.117382
3.0367436 1.1559236 1.1172438
3.0355251 1.2039883 1.1171055
3.034611 1.2400575 1.1170015
3.1285067 -2.4824598 1.1738428
3.1273503 -2.4368615 1.1737268
3.1259046 -2.3798256 1.1735818
3.1247463 -2.3341613 1.1734657
3.1302273 -2.2916062 1.1738622
3.1826365 -2.2820742 1.1778824
3.2301099 -2.2807918 1.1815275
3.2790627 -2.2794693 1.1852863
3.3291841 -2.2780588 1.1767993
3.3809102 -2.276603 1.1680375
3.4347231 -2.2751477 1.1717596
3.490325 -2.2736437 1.1756053
3.5478086 -2.2720897 1.1795813
3.607269 -2.2704821 1.183694
3.66836 -2.2687683 1.1742872
3.731617 -2.2669933 1.1645492
3.7976329 -2.2652066 1.1686125
3.8660862 -2.2633536 1.1728256
3.9371152 -2.261431 1.1771972
4.010344 -2.2593801 1.1667665
4.0869617 -2.2573051 1.1711903
3.9983709 -1.2780209 1.1646043
3.9972281 -1.2329375 1.1644707
3.9960849 -1.1878339 1.164337
3.994941 -1.1427052 1.1642033
3.9934151 -1.0824997 1.1640249
3.9922698 -1.0373203 1.1638911
3.9911242 -0.99211556 1.1637571
3.9899776 -0.94689053 1.1636231
3.9888308 -0.90164012 1.163489
3.9873009 -0.84127247 1.1633102
3.9861524 -0.79597127 1.1631759
3.9850037 -0.75064462 1.1630416
3.9834709 -0.69017524 1.1628625
3.9823208 -0.64479768 1.1627281
3.9811702 -0.59939462 1.1625936
3.9796348 -0.53882325 1.1624141
3.9784822 -0.49336916 1.1622794
3.97733 -0.44788948 1.1621447
3.9757919 -0.38721585 1.1619649
3.9746382 -0.34168494 1.1618299
3.9738681 -0.31131738 1.1617399
3.4095533 1.0568559 1.1668289
3.4623728 1.0582831 1.1704823
3.5169146 1.0598235 1.1605994
3.5731735 1.0614126 1.1504035
3.6311269 1.0629804 1.1539704
3.6909554 1.064599 1.1576526
3.7527502 1.0662713 1.1614559
3.8166111 1.0679989 1.1653863
3.8827734 1.0698626 1.154407
3.0523858 1.0555959 1.1658903
3.1229734 1.0489938 1.1713156
3.1673877 1.0501921 1.1747258
3.2131848 1.0515504 1.153247
3.2601683 1.0528197 1.1564966
