# .PCD v0.7 - Point Cloud Data file format
VERSION 0.7
FIELDS x y z
SIZE 4 4 4
TYPE F F F
COUNT 1 1 1
WIDTH 1493
HEIGHT 1
VIEWPOINT 0 0 0 1 0 0 0
POINTS 1493
DATA ascii
3.5369542 -1.2839326 -3.1777525
3.5998206 -1.2787004 -3.1759763
3.6729128 -1.3008006 -3.1795397
2.9862678 -1.1120501 -3.1397312
2.9848461 -1.1270308 -3.1566446
3.525903 -1.2442695 -3.16996
2.9892149 -1.0771879 -3.1506109
2.9932189 -1.031194 -3.1488094
2.9972143 -0.98530382 -3.1470122
3.0012002 -0.93951654 -3.1452188
3.0061703 -0.8824324 -3.1429834
3.011127 -0.82549739 -3.1407537
3.0150824 -0.78006858 -3.1389747
3.0190279 -0.73474133 -3.1371992
3.0229657 -0.68951511 -3.1354284
3.0278747 -0.6331296 -3.13322
3.0327706 -0.57689071 -3.1310174
3.0366771 -0.5320164 -3.1292601
3.0405295 -0.48677039 -3.1395547
3.0463624 -0.41977727 -3.1369021
3.0440369 -0.44515848 -3.1539812
3.0496066 -0.38131881 -3.1498342
3.0540667 -0.33028555 -3.1453953
3.0579288 -0.28593242 -3.1436317
3.0608189 -0.25272894 -3.1423113
2.7656977 -3.6552839 -3.1218817
2.7679551 -3.629353 -3.1209438
2.7713351 -3.590518 -3.1195388
2.7758327 -3.5388417 -3.1176691
2.7803202 -3.4872875 -3.1158042
2.7847965 -3.4358563 -3.1139436
2.7892621 -3.3845475 -3.1120877
2.7937174 -3.3333604 -3.1102357
2.8476577 -3.3232846 -3.1092739
2.9059958 -3.3282151 -3.1106873
2.9664259 -3.333322 -3.1121516
3.0276015 -3.338218 -3.126749
3.0910361 -3.3432951 -3.1418815
3.15839 -3.3489766 -3.1440196
3.2283447 -3.3548775 -3.1462402
3.301055 -3.361011 -3.1485486
3.3766856 -3.3673911 -3.1509495
3.4554169 -3.3740323 -3.1534486
2.9815588 -1.1711978 -3.0808399
2.9992356 -1.1843954 -3.1078944
3.141531 -1.2091901 -3.1119165
3.2653303 -1.2197119 -3.1188285
3.3989096 -1.2310648 -3.1262867
3.7405 -1.295661 -3.1777267
3.8149025 -1.3046072 -3.1786475
3.8238614 -1.3333387 -3.1842816
2.9854498 -1.1244794 -3.1035242
3.5434752 -1.2433513 -3.1343584
3.6607692 -1.2595835 -3.1714492
3.7004409 -1.2566918 -3.1431224
3.8060067 -1.2760751 -3.173053
3.8695443 -1.2710879 -3.1675832
2.9894578 -1.0784324 -3.1017761
2.9934576 -1.0324891 -3.1000319
2.997448 -0.98664892 -3.0982914
3.0014293 -0.94091171 -3.096555
3.0063934 -0.88388979 -3.0943899
3.0113442 -0.82701689 -3.0922308
3.0152948 -0.78163701 -3.0905077
3.0192363 -0.73635882 -3.088789
3.0237679 -0.68450236 -3.084404
3.0284538 -0.63027084 -3.0871773
3.0329623 -0.57867801 -3.0828023
3.0368645 -0.53385186 -3.0811005
3.0410972 -0.48555779 -3.0752556
3.0397398 -0.49982715 -3.0918424
3.045568 -0.43287563 -3.0892897
3.0503683 -0.37674117 -3.0991433
3.0542343 -0.33233678 -3.0974307
3.0580912 -0.28803039 -3.0957222
3.0609791 -0.25486171 -3.0944431
2.7673504 -3.6405683 -3.0696988
2.7718527 -3.5888317 -3.0678885
2.7763445 -3.5372186 -3.066083
2.7808256 -3.485728 -3.0642815
2.7852962 -3.43436 -3.0624843
2.7897558 -3.3831139 -3.0606914
2.7948675 -3.332375 -3.0592377
2.8531134 -3.324785 -3.0596473
2.9115767 -3.3297441 -3.0601871
2.9721372 -3.3348813 -3.0607464
3.0319855 -3.3394103 -3.0875044
3.0970235 -3.3449173 -3.0885925
3.1645267 -3.3506327 -3.0897217
3.2346382 -3.3565688 -3.0908942
3.3075123 -3.3627391 -3.0921135
3.3816571 -3.3687153 -3.1077816
3.4605241 -3.3753867 -3.1093967
2.9819736 -1.169861 -3.0392895
3.0320802 -1.1998124 -3.0584302
3.1474094 -1.2096112 -3.0631347
3.271508 -1.2201555 -3.0681963
3.405416 -1.2315331 -3.073658
2.9855342 -1.1281493 -3.0475221
3.5503452 -1.2438471 -3.0795693
3.7058945 -1.2570863 -3.1002817
3.8753331 -1.2715077 -3.1228378
2.9897008 -1.0796741 -3.0530515
2.9936957 -1.0337811 -3.0513639
2.9976814 -0.98799115 -3.0496802
3.0026503 -0.93090349 -3.0475807
3.0076065 -0.87396479 -3.0454874
3.0115609 -0.8285327 -3.0438166
3.0155067 -0.78320211 -3.0421498
3.0194433 -0.73797256 -3.0404863
3.0243518 -0.68158293 -3.038413
3.0292473 -0.62533951 -3.036345
3.0331538 -0.58046162 -3.0346947
3.0373914 -0.53210711 -3.0289097
3.036031 -0.54641092 -3.0454621
3.0415313 -0.48441029 -3.0287638
3.0461674 -0.4307524 -3.0315881
3.0505822 -0.37923956 -3.0392742
3.0544424 -0.3348937 -3.0376301
3.0582535 -0.29012358 -3.0479188
3.0611374 -0.25698984 -3.0466805
2.767873 -3.6388218 -3.0181084
2.7723694 -3.5871494 -3.016362
2.7768552 -3.5355997 -3.0146194
2.7813303 -3.4841723 -3.0128813
2.785795 -3.4328673 -3.0111473
2.7902491 -3.3816838 -3.0094175
2.7977827 -3.3324203 -3.0092096
2.8585744 -3.326287 -3.0099726
2.9171631 -3.331275 -3.0096366
2.9764245 -3.3360519 -3.0221598
3.0378366 -3.341002 -3.0351338
3.1030171 -3.3465409 -3.0352478
3.1706698 -3.3522902 -3.0353656
3.2409382 -3.3582616 -3.0354884
3.3123596 -3.3640361 -3.0497482
3.3866332 -3.3700409 -3.0645733
3.4656365 -3.3767424 -3.0653026
2.9820621 -1.1734765 -2.983387
3.0390956 -1.2003139 -2.9995253
3.153295 -1.2100329 -3.0142956
3.2776928 -1.2205995 -3.0175023
3.411931 -1.232002 -3.0209625
2.9862306 -1.1249739 -2.9889841
3.5555034 -1.2442193 -3.0384324
3.7113543 -1.2574813 -3.0573914
3.8811283 -1.2719282 -3.0780492
2.9897797 -1.0833914 -2.9972377
2.9939332 -1.0350704 -3.0028057
2.9979141 -0.98933035 -3.0011783
3.002877 -0.93230492 -2.9991493
3.0078273 -0.87542802 -2.9971256
3.0117772 -0.83004522 -2.9955108
3.0157185 -0.78476351 -2.9938998
3.0196505 -0.73958308 -2.9922922
3.0245531 -0.68325394 -2.990288
3.0294425 -0.62707078 -2.9882889
3.0336854 -0.57865632 -2.9825644
3.0323219 -0.59299457 -2.9990823
3.0372376 -0.53751028 -2.9851024
3.0420916 -0.48174143 -2.9831181
3.0469325 -0.42611659 -2.9811387
3.0507958 -0.38173151 -2.9795599
3.0546503 -0.33744431 -2.977984
3.0594161 -0.28170323 -2.9879227
2.7683945 -3.6370797 -2.9666412
2.7728848 -3.5854709 -2.964958
2.7773647 -3.5339847 -2.9632788
2.7818341 -3.4826207 -2.9616036
2.7862926 -3.4313779 -2.9599323
2.7919736 -3.3671398 -2.9450798
2.7903299 -3.3846295 -2.9626603
2.7940702 -3.3419919 -2.9570172
2.807328 -3.3229446 -2.9614213
2.8640411 -3.3277905 -2.9602494
2.9227548 -3.3328075 -2.9590364
2.9807148 -3.3372233 -2.983541
3.0436931 -3.3425949 -2.9827094
3.1090167 -3.3481665 -2.981847
3.1768196 -3.3539498 -2.980952
3.2456675 -3.3595324 -2.9938962
3.3172116 -3.365334 -3.007344
3.3932743 -3.37181 -3.0069079
3.4724596 -3.3785517 -3.006454
2.9823127 -1.1746104 -2.9348238
3.0461202 -1.2008163 -2.9405417
3.1591866 -1.2104551 -2.9653988
3.2838855 -1.2210442 -2.9667461
3.4184544 -1.2324713 -2.9682002
2.9863138 -1.1286368 -2.93327
3.5606675 -1.2445918 -2.9972501
3.7186425 -1.2580086 -3.0001388
2.990469 -1.0802884 -2.938905
2.9942288 -1.0366776 -2.9422669
2.9981463 -0.99066663 -2.9527853
3.0031033 -0.93370295 -2.9508262
3.0080478 -0.8768881 -2.9488721
3.0119932 -0.83155429 -2.9473133
3.0159295 -0.78632182 -2.9457576
3.0198567 -0.74118984 -2.9442053
3.0247533 -0.68492121 -2.9422703
3.0299792 -0.62520528 -2.9362192
3.0286133 -0.63957798 -2.9527028
3.0335352 -0.58401632 -2.9387999
3.0374236 -0.53933334 -2.9372633
3.0422716 -0.48362386 -2.9353473
3.0471072 -0.42805803 -2.9334364
3.0509658 -0.38371992 -2.9319115
3.054816 -0.33947933 -2.9303901
3.0596163 -0.28432071 -2.928493
2.7689142 -3.6353416 -2.9152966
2.7733989 -3.5837963 -2.9136765
2.7778728 -3.5323734 -2.9120603
2.7823365 -3.4810722 -2.9104478
2.7880247 -3.4167457 -2.8956831
2.7863772 -3.4342747 -2.9132245
2.7912316 -3.3788338 -2.9072342
2.7945566 -3.3406153 -2.906033
2.8126795 -3.3244214 -2.9124985
2.8695126 -3.3292952 -2.9104776
2.9283516 -3.334341 -2.9083858
2.9864404 -3.3387864 -2.9320054
3.0495558 -3.3441896 -2.9302311
3.1150227 -3.3497937 -2.9283905
3.1814361 -3.3551955 -2.9401057
3.2488227 -3.3603804 -2.9661484
3.2519796 -3.3612289 -2.9383852
3.3236868 -3.3670669 -2.9507527
3.3999228 -3.3735814 -2.9491775
3.4775817 -3.37991 -2.9622755
2.9825633 -1.1757417 -2.8863697
3.0517473 -1.2012186 -2.8932922
3.1650856 -1.2108778 -2.9164443
3.2900858 -1.2214893 -2.9159279
3.4233518 -1.2328238 -2.928586
2.9865592 -1.1298184 -2.884872
3.56756 -1.2450892 -2.9422796
3.7241151 -1.2584045 -2.95715
2.9905462 -1.0839982 -2.883378
2.9945242 -1.0382806 -2.8818867
2.999193 -0.98387879 -2.8891604
3.0037136 -0.93048275 -2.9048698
3.0082676 -0.87834477 -2.9007268
3.0122085 -0.83306009 -2.8992233
3.0161397 -0.78787625 -2.8977227
3.0210421 -0.731543 -2.8958523
3.026273 -0.67175376 -2.8898742
3.0249047 -0.68616104 -2.9063234
3.0298321 -0.63052189 -2.8924978
3.033725 -0.58578789 -2.8910124
3.0381999 -0.53456199 -2.8869264
3.0428295 -0.48096251 -2.8899167
3.0472815 -0.4299953 -2.8858392
3.0511355 -0.3857038 -2.8843687
3.0555649 -0.3349961 -2.8803115
3.0601511 -0.28190303 -2.8832951
2.7694333 -3.6336079 -2.8640745
2.7739117 -3.5821257 -2.8625169
2.7783804 -3.530766 -2.8609633
2.7840753 -3.4663513 -2.8462865
2.7824249 -3.4839196 -2.8637886
2.7872841 -3.4284103 -2.8578668
2.7917206 -3.377414 -2.8563242
2.7950418 -3.339242 -2.8551693
2.8180354 -3.3258994 -2.8635292
2.8749895 -3.3308015 -2.8606577
2.9339547 -3.3358765 -2.8576851
2.9921722 -3.3403513 -2.8804183
3.0554247 -3.3457856 -2.8776991
3.1210356 -3.3514228 -2.8748784
3.1860566 -3.3564422 -2.8992229
3.2567186 -3.3625021 -2.8967104
3.3301697 -3.3688014 -2.8940988
3.4049141 -3.3749108 -2.905839
3.4827087 -3.3812695 -2.9180541
2.9828134 -1.1768706 -2.8380246
3.0573809 -1.2016214 -2.845989
3.1709912 -1.2113008 -2.8674316
3.2962937 -1.221935 -2.8650472
3.4282546 -1.2331768 -2.8889301
2.9868042 -1.1309977 -2.8365829
3.5744622 -1.2455871 -2.8872361
3.7295935 -1.2588007 -2.9141114
2.9907868 -1.0852275 -2.8351443
2.99476 -1.0395598 -2.8337088
2.9997137 -0.98262382 -2.8319197
3.0045986 -0.92548537 -2.8421397
3.0085421 -0.88016099 -2.8407021
3.0124233 -0.83456254 -2.8512406
3.0163505 -0.78942746 -2.8497951
3.0225675 -0.71830225 -2.8435292
3.0199254 -0.74800712 -2.852457
3.02613 -0.67702746 -2.8461957
3.0300267 -0.63224196 -2.8447618
3.033915 -0.58755529 -2.8433309
3.0387621 -0.53184092 -2.8415465
3.0435972 -0.47627032 -2.8397672
3.0474558 -0.43192804 -2.8383474
3.0513053 -0.38768339 -2.8369305
3.0561051 -0.33251941 -2.8351641
3.0608923 -0.27749681 -2.8334022
2.7699511 -3.6318784 -2.8129742
2.7744238 -3.5804591 -2.8114791
2.7801259 -3.5159566 -2.7968903
2.7784724 -3.5335641 -2.8143535
2.7833371 -3.4779863 -2.8084996
2.7877786 -3.4269319 -2.8070152
2.7922091 -3.3759975 -2.8055344
2.7955256 -3.3378716 -2.8044257
2.8233972 -3.3273792 -2.814513
2.8804722 -3.3323092 -2.8107893
2.9395633 -3.3374135 -2.8069339
2.9979093 -3.3419178 -2.828779
3.0612996 -3.3473837 -2.8251131
3.1255488 -3.3526456 -2.8347092
3.1922228 -3.3581061 -2.8446641
3.2630427 -3.3642015 -2.8410935
3.3350358 -3.3701036 -2.8515689
3.40991 -3.3762417 -2.8624594
3.4895511 -3.3830838 -2.8590355
2.9830627 -1.1779969 -2.7897882
3.0630212 -1.2020246 -2.7986321
3.176904 -1.2117245 -2.8183618
3.3025091 -1.2223815 -2.8141041
3.434798 -1.2336478 -2.8359995
2.9870489 -1.1321741 -2.7884021
3.5813732 -1.2460858 -2.8321195
3.736907 -1.25933 -2.8566606
2.9910262 -1.086454 -2.787019
2.9949949 -1.0408361 -2.785639
2.999943 -0.98396188 -2.7839186
3.0048778 -0.92723578 -2.7822025
3.0088153 -0.88197237 -2.7808332
3.0126913 -0.83643568 -2.7914181
3.0170085 -0.78812426 -2.7740128
3.0162163 -0.7945984 -2.8060694
3.0214505 -0.73476279 -2.8002405
3.0263286 -0.67869562 -2.7985115
3.03022 -0.63395762 -2.7971315
3.0341039 -0.58931875 -2.7957549
3.0389462 -0.53366387 -2.7940385
3.0437756 -0.47815204 -2.7923265
3.0476291 -0.43385649 -2.7909603
3.0514746 -0.38965881 -2.789597
3.0562685 -0.33455265 -2.7878976
3.0610504 -0.27958763 -2.7862024
2.7704675 -3.6301525 -2.7619953
2.7761767 -3.5655618 -2.7474942
2.7745202 -3.5832086 -2.7649183
2.7793903 -3.5275624 -2.7591329
2.7838359 -3.476449 -2.7577066
2.7882712 -3.4254565 -2.7562838
2.7926965 -3.3745842 -2.7548647
2.7960086 -3.3365049 -2.7538023
2.828764 -3.3288603 -2.7654498
2.8859596 -3.3338184 -2.7608719
2.9437733 -3.3385673 -2.7688391
3.0036526 -3.3434858 -2.7770877
3.0671806 -3.3489833 -2.7724729
3.1300659 -3.3538694 -2.7945049
3.1983953 -3.3597717 -2.7900467
3.2693729 -3.3659029 -2.7854159
3.3399065 -3.3714068 -2.8089995
3.4165769 -3.3780174 -2.8045654
3.494688 -3.3844461 -2.8147292
2.9833112 -1.1791205 -2.7416601
3.0686679 -1.2024282 -2.7512209
3.1828234 -1.2121487 -2.7692332
3.3087316 -1.2228281 -2.7630987
3.4413505 -1.2341193 -2.7830012
2.9872928 -1.133348 -2.7403293
3.5865619 -1.2464602 -2.7907362
3.7442305 -1.2598597 -2.7991304
2.9912658 -1.0876777 -2.7390015
2.9958348 -1.0353522 -2.735085
3.000555 -0.98069173 -2.7382863
3.0051005 -0.9286322 -2.7343774
3.0090332 -0.88341784 -2.7330627
3.0133023 -0.83467203 -2.7276688
3.0119243 -0.84919983 -2.7439976
3.0181079 -0.77867901 -2.7351227
3.0226803 -0.72555268 -2.740375
3.0265758 -0.68077558 -2.7390599
3.0304136 -0.63566995 -2.7496071
3.0342929 -0.59107864 -2.7482843
3.0391288 -0.53548265 -2.746635
3.0439529 -0.48002958 -2.7449901
3.0478027 -0.43578088 -2.7436776
3.0522265 -0.38511896 -2.7398152
3.0568061 -0.33208251 -2.7429614
3.0612082 -0.28167403 -2.7391064
2.7722273 -3.6151667 -2.6980987
2.7705677 -3.6328526 -2.7154837
2.7754433 -3.5771382 -2.7097664
2.7798939 -3.5259666 -2.7083983
2.7843332 -3.4749157 -2.7070336
2.788763 -3.423985 -2.7056723
2.7931824 -3.3731744 -2.7043142
2.7964902 -3.3351409 -2.7032976
2.834136 -3.3303428 -2.7163396
2.8914528 -3.3353291 -2.710906
2.9479864 -3.3397219 -2.7307129
3.0094013 -3.3450551 -2.7253439
3.0730672 -3.3505845 -2.7197783
3.1360939 -3.3555026 -2.7408521
3.2045751 -3.3614392 -2.7353714
3.2741256 -3.3671799 -2.7436199
3.3464072 -3.3731461 -2.7521887
3.4215825 -3.3793511 -2.7611043
3.49983 -3.3858099 -2.77038
2.9835591 -1.1802417 -2.69364
3.0743208 -1.2028325 -2.7037559
3.1887505 -1.2125733 -2.7200472
3.3149617 -1.2232755 -2.7120304
3.447911 -1.2345915 -2.7299352
2.9875364 -1.1345191 -2.6923642
3.5917566 -1.246835 -2.7493076
3.7497294 -1.2602577 -2.7559328
2.9915044 -1.0888987 -2.6910915
2.9964514 -1.0320214 -2.6895046
3.0013859 -0.97529167 -2.6879215
3.0053234 -0.93002564 -2.6866589
3.0095966 -0.88121957 -2.681325
3.0082159 -0.89578176 -2.6976194
3.0131712 -0.83979481 -2.6841412
3.0180581 -0.78360844 -2.6825736
3.0229325 -0.72756737 -2.6810098
3.0268223 -0.68284994 -2.6797621
3.0306547 -0.63780475 -2.6903546
3.035495 -0.58216 -2.6887858
3.0401115 -0.52869141 -2.6920018
3.0441303 -0.48190308 -2.6977584
3.0479748 -0.43770111 -2.6964991
3.0527689 -0.38258994 -2.6949291
3.0575509 -0.32761979 -2.6933632
3.0613656 -0.28375602 -2.6921136
2.7714965 -3.6267135 -2.6603999
2.7759516 -3.5754836 -2.6590905
2.7803957 -3.524374 -2.657784
2.7848301 -3.4733853 -2.6564806
2.789254 -3.4225168 -2.6551805
2.7936668 -3.371768 -2.6538832
2.7969711 -3.3337805 -2.6529124
2.8395123 -3.3318267 -2.667182
2.8969512 -3.3368413 -2.6608913
2.9536088 -3.3412623 -2.6798356
3.0151558 -3.3466263 -2.6735477
3.0774865 -3.3517861 -2.6802235
3.1421289 -3.3571374 -2.6871433
3.2107608 -3.3631084 -2.6806374
3.2788827 -3.3684583 -2.701786
3.3529148 -3.3748875 -2.6953142
3.4265924 -3.3806858 -2.717602
3.5066922 -3.3876295 -2.7111912
2.9838068 -1.1813605 -2.6457272
3.0799801 -1.2032371 -2.6562366
3.194684 -1.2129984 -2.6708028
3.3211994 -1.2237236 -2.6608994
3.4544802 -1.2350643 -2.6768017
2.9877791 -1.1356881 -2.6445065
3.5986907 -1.2473353 -2.6940079
3.755235 -1.2606558 -2.7126853
2.9917424 -1.090117 -2.6432884
2.9966838 -1.0333014 -2.6417699
3.0016124 -0.97663307 -2.640255
3.0058904 -0.92776686 -2.6349812
3.0045073 -0.94236338 -2.6512413
3.0094686 -0.88629913 -2.6378403
3.0133839 -0.84128219 -2.636637
3.0182652 -0.78515619 -2.6351366
3.0231338 -0.72917485 -2.6336403
3.0270185 -0.68450534 -2.6324463
3.0308952 -0.63993382 -2.6312549
3.0357282 -0.58436298 -2.6297696
3.0407143 -0.52644575 -2.6352935
3.0443511 -0.48423874 -2.6388702
3.0481904 -0.44009495 -2.6376772
3.0527279 -0.38767958 -2.6391954
3.0577116 -0.32965136 -2.6464207
3.0615227 -0.28583324 -2.6452239
2.7720094 -3.625 -2.6097827
2.7764583 -3.5738325 -2.6085346
2.7808969 -3.5227857 -2.6072891
2.7853251 -3.471859 -2.6060467
2.7897432 -3.4210525 -2.6048074
2.7941511 -3.3703647 -2.6035709
2.7974505 -3.3324234 -2.6026454
2.8448946 -3.3333123 -2.6179774
2.9024549 -3.3383551 -2.6108279
2.9592369 -3.3428049 -2.6289082
3.0209165 -3.3481994 -2.6216996
3.0819092 -3.3529892 -2.640635
3.14817 -3.3587742 -2.6333783
3.2154045 -3.3643613 -2.6395507
3.2852306 -3.3701639 -2.645957
3.3578002 -3.3761947 -2.6526189
3.4332783 -3.3824668 -2.659544
3.511843 -3.3889952 -2.6667562
2.9840539 -1.1824768 -2.5979218
3.0856459 -1.2036421 -2.6086631
3.2006249 -1.213424 -2.6215
3.3274448 -1.2241721 -2.6097057
3.4610569 -1.2355376 -2.6236
2.9880216 -1.1368539 -2.5967555
3.6056337 -1.2478362 -2.6386344
3.7625837 -1.2611873 -2.6549554
2.9919803 -1.0913327 -2.595592
2.9969156 -1.0345786 -2.5941412
3.0021846 -0.97431374 -2.5886378
3.0007985 -0.98894507 -2.6048636
3.0057664 -0.93280309 -2.5915399
3.0096855 -0.88773483 -2.5903878
3.0145721 -0.83154494 -2.5889516
3.0194459 -0.7754997 -2.5875187
3.0233347 -0.73077887 -2.5863757
3.0272152 -0.68615687 -2.5852351
3.0316763 -0.63505316 -2.5815735
3.0362909 -0.58159828 -2.584918
3.0407295 -0.53075087 -2.5812626
3.0445719 -0.48656857 -2.5801334
3.0493624 -0.43148148 -2.5787251
3.0543065 -0.3740418 -2.5842862
3.0589454 -0.32224917 -2.564239
3.0577066 -0.33417082 -2.5926232
3.0619245 -0.28644335 -2.5820315
3.0606894 -0.2983222 -2.6104097
2.7725208 -3.623291 -2.5592854
2.7769642 -3.5721858 -2.5580978
2.7813969 -3.5212011 -2.5569134
2.7858195 -3.4703364 -2.5557318
2.7902317 -3.419591 -2.554553
2.7946336 -3.3689647 -2.5533767
2.7981527 -3.3312006 -2.5525706
2.8502822 -3.3347988 -2.5687256
2.907964 -3.33987 -2.5607154
2.9648707 -3.3443487 -2.5779297
3.0266829 -3.3497736 -2.5697989
3.0878112 -3.3545942 -2.5878048
3.1542165 -3.3604126 -2.5795565
3.220052 -3.3656154 -2.5984268
3.2915857 -3.3718715 -2.5900669
3.3626895 -3.3775027 -2.6098843
3.4399707 -3.3842492 -2.6014197
3.5169983 -3.3903623 -2.6222785
2.9847753 -1.1835248 -2.5503709
3.0913186 -1.2040476 -2.5610352
3.2065723 -1.2138503 -2.572139
3.332134 -1.2245088 -2.5712709
3.4676423 -1.2360117 -2.5703306
2.9882631 -1.1380172 -2.5491114
3.6125865 -1.2483379 -2.5831876
3.7681015 -1.2615867 -2.611608
3.7717838 -1.261853 -2.5826826
2.9932041 -1.0811985 -2.5477252
2.9984791 -1.0208607 -2.542295
2.9970899 -1.0355263 -2.558486
3.0020635 -0.97930706 -2.5452394
3.0059874 -0.93418729 -2.5441387
3.0099018 -0.88916743 -2.5430405
3.0147827 -0.83303767 -2.5416713
3.0196507 -0.77705234 -2.5403054
3.023535 -0.73237956 -2.5392156
3.027411 -0.68780482 -2.5381281
3.0322433 -0.63222933 -2.5367723
3.0370636 -0.57679629 -2.5354199
3.04091 -0.53256357 -2.5343409
3.0447476 -0.4884274 -2.5332642
3.0495324 -0.43339825 -2.5319216
3.055299 -0.36804378 -2.5186465
3.0539739 -0.38199818 -2.5345612
3.0581138 -0.33471024 -2.5295138
3.061914 -0.29100645 -2.5284479
2.7730315 -3.6215858 -2.5089071
2.7774684 -3.5705426 -2.5077803
2.7818956 -3.5196199 -2.5066564
2.7863123 -3.4688172 -2.5055351
2.7903116 -3.422472 -2.5086815
2.7933254 -3.3885021 -2.4995933
2.799334 -3.3435159 -2.5033858
2.855675 -3.336287 -2.5194263
2.9134784 -3.3413868 -2.5105538
2.9705098 -3.3458939 -2.5269008
3.0324547 -3.3513496 -2.5178454
3.0937192 -3.3562014 -2.5349202
3.16027 -3.3620524 -2.5256784
3.2262542 -3.3672891 -2.5435467
3.296355 -3.3731532 -2.548111
3.3692136 -3.3792481 -2.5528512
3.4449947 -3.3855872 -2.5577855
3.5238791 -3.3921862 -2.5629177
2.9886346 -1.1865612 -2.4968052
3.0984185 -1.2045553 -2.501421
3.212527 -1.2142768 -2.5227194
3.3368278 -1.2248459 -2.5327969
3.4725866 -1.2363677 -2.5303357
2.9885044 -1.139178 -2.5015731
3.6178064 -1.2487146 -2.5415561
3.7754686 -1.2621195 -2.5537376
2.9947731 -1.0674071 -2.4959519
2.9921057 -1.0974348 -2.5045571
2.9983613 -1.0258107 -2.4989395
3.0022888 -0.98063958 -2.49789
3.0062077 -0.93556839 -2.4968429
3.0101178 -0.89059693 -2.4957981
3.0149927 -0.83452719 -2.4944954
3.019855 -0.77860177 -2.493196
3.0237348 -0.73397654 -2.4921594
3.0276065 -0.68944907 -2.4911249
3.0324337 -0.63393283 -2.489835
3.0372479 -0.57855821 -2.4885485
3.0410898 -0.53437197 -2.4875219
3.0449233 -0.49028254 -2.4864976
3.0516534 -0.41383803 -2.4730544
3.0493124 -0.43960547 -2.4876537
3.0544698 -0.38047969 -2.4839468
3.0582738 -0.33672607 -2.4829302
3.0620699 -0.29306781 -2.4819157
2.7735403 -3.619884 -2.4586477
2.777972 -3.5689039 -2.4575813
2.7819839 -3.5224061 -2.4607782
2.7850091 -3.4882989 -2.4517264
2.7890062 -3.4419754 -2.454927
2.7934012 -3.391412 -2.4538693
2.8022151 -3.3435578 -2.4541464
2.8610723 -3.3377767 -2.4700797
2.9189987 -3.342905 -2.4603434
2.9761543 -3.3474407 -2.475821
3.038233 -3.3529272 -2.4658394
3.099633 -3.3578098 -2.4819808
3.1648133 -3.3632832 -2.4852343
3.2324619 -3.3689637 -2.4886072
3.3011291 -3.3744359 -2.5061169
3.3757455 -3.3809953 -2.495755
3.4500239 -3.3869269 -2.5141101
3.5290449 -3.3935561 -2.5183542
3.8250699 -1.9123751 -2.5003643
2.9905021 -1.1831779 -2.4400022
3.1055276 -1.2050635 -2.4417269
3.2184889 -1.214704 -2.4732411
3.3430927 -1.2252958 -2.4814458
2.9892142 -1.1372263 -2.4264381
2.9883962 -1.1440241 -2.4581716
3.4758852 -1.2366053 -2.5036497
3.4791865 -1.2368428 -2.4769468
3.6230321 -1.2490916 -2.4998784
3.7810009 -1.2625198 -2.5102797
2.9937327 -1.083945 -2.4410701
2.9984288 -1.0295403 -2.4446077
3.0025132 -0.98196918 -2.4506454
3.0064275 -0.93694645 -2.4496517
3.0109284 -0.88537002 -2.4461594
3.0155811 -0.83146465 -2.4496775
3.0200591 -0.78014773 -2.4461908
3.0239346 -0.73556983 -2.4452069
3.027801 -0.69108987 -2.4442251
3.0326228 -0.63563216 -2.443001
3.0374317 -0.58031631 -2.4417801
3.0412691 -0.53617668 -2.4408059
3.0480075 -0.45963204 -2.4274626
3.0450983 -0.49213338 -2.4398336
3.0508261 -0.42624879 -2.4383795
3.0479219 -0.45869017 -2.4507494
3.0546343 -0.38244534 -2.4374127
3.058434 -0.33873749 -2.4364481
3.0622253 -0.29512465 -2.4354854
2.7736366 -3.622575 -2.4127629
2.7766733 -3.5883298 -2.4037471
2.780683 -3.5418539 -2.4069982
2.7850935 -3.4911146 -2.4059958
2.7894938 -3.4404938 -2.4049957
2.7938838 -3.3899913 -2.4039979
2.8050978 -3.3436029 -2.4049428
2.8664751 -3.339268 -2.4206858
2.9245241 -3.3444245 -2.4100838
2.9818044 -3.348989 -2.4246902
3.0425696 -3.354111 -2.4268017
3.1055527 -3.3594196 -2.4289868
3.1693606 -3.3645148 -2.4447546
3.2386768 -3.3706403 -2.433609
3.3075001 -3.3761477 -2.4500742
3.3806486 -3.3823071 -2.452893
3.4567354 -3.3887143 -2.455821
3.5342157 -3.3949265 -2.4737477
3.8239553 -1.9277638 -2.4697022
2.9861465 -1.1761062 -2.3838825
3.0029333 -1.1962695 -2.3892438
3.111223 -1.2054706 -2.393908
3.2244582 -1.2151316 -2.4237041
3.3493655 -1.2257463 -2.4300313
2.9897075 -1.1353308 -2.380693
3.4841425 -1.2371995 -2.4368582
3.630007 -1.249595 -2.4442463
3.7883852 -1.263054 -2.4522686
2.9944065 -1.0808823 -2.3843062
2.9990952 -1.0265592 -2.3879118
3.0027931 -0.9836269 -2.3917425
3.0067015 -0.93866462 -2.3908153
3.0115745 -0.88260627 -2.3896589
3.0164354 -0.82669193 -2.3885057
3.0202627 -0.78169018 -2.3992894
3.0241339 -0.73715985 -2.3983579
3.0289602 -0.68163908 -2.3971968
3.0337739 -0.62626028 -2.3960385
3.0376153 -0.58207047 -2.3951144
3.0414481 -0.5379771 -2.3941922
3.0466177 -0.47869921 -2.3906243
3.0442739 -0.50450909 -2.4051328
3.0509939 -0.4281646 -2.3918955
3.0547976 -0.38440681 -2.3909802
3.0585933 -0.34074461 -2.3900671
3.0623806 -0.29717696 -2.3891559
2.7734485 -3.6292229 -2.3587205
2.7767661 -3.5910504 -2.3580103
2.7811813 -3.5402536 -2.3570652
2.7855859 -3.4895754 -2.3561223
2.7899802 -3.4390159 -2.3551817
2.7943645 -3.3885744 -2.354243
2.8079827 -3.3436499 -2.3557742
2.8718832 -3.3407602 -2.3712442
2.9300537 -3.3459451 -2.3597746
2.9874599 -3.3505385 -2.3735085
3.0469096 -3.3552957 -2.3877311
3.1114779 -3.3610311 -2.3759379
3.1769469 -3.36657 -2.3772225
3.1739111 -3.3657475 -2.4042466
3.2433417 -3.3718991 -2.3923235
3.3138781 -3.377861 -2.39397
3.3855567 -3.3836203 -2.4099913
3.4617736 -3.3900561 -2.4120626
3.5411158 -3.3967564 -2.4142151
3.8177774 -2.0039787 -2.4091587
3.8203104 -1.9735484 -2.4241166
3.8242586 -1.928115 -2.4233756
2.9863892 -1.1772212 -2.3366733
3.0083804 -1.1966583 -2.3430023
3.1169245 -1.2058783 -2.3460343
3.2304339 -1.2155598 -2.3741086
3.3556457 -1.2261972 -2.3785534
2.9903281 -1.1319036 -2.335804
3.490757 -1.2376757 -2.3833494
3.6352441 -1.2499729 -2.4024761
3.6387389 -1.2502251 -2.3746045
3.7939303 -1.2634552 -2.40871
2.9952407 -1.0753822 -2.3347199
2.999161 -1.0302813 -2.3338547
3.0030723 -0.98528022 -2.3329916
3.0069749 -0.94037813 -2.3321302
3.0118413 -0.884395 -2.3310564
3.0166945 -0.82855499 -2.3299851
3.0205164 -0.7836135 -2.3408129
3.0243819 -0.73914218 -2.3399472
3.0292013 -0.6836949 -2.3388674
3.0340083 -0.62838912 -2.3377905
3.0388927 -0.57411611 -2.3134837
3.0376348 -0.58628583 -2.3416209
3.0416715 -0.54021943 -2.3360686
3.040626 -0.55032778 -2.3595161
3.0464005 -0.48485529 -2.3465953
3.0511618 -0.43007636 -2.3455129
3.0549614 -0.38636434 -2.3446493
3.0596986 -0.33186269 -2.3435724
3.0634801 -0.28835642 -2.3427129
2.7845962 -3.6218774 -2.3235364
2.8978465 -3.6289058 -2.3241863
3.0160615 -3.6487703 -2.3246241
3.1430385 -3.6701076 -2.3250942
2.7963176 -3.5757871 -2.3245106
2.9070594 -3.5931473 -2.3249431
3.0257237 -3.6117496 -2.3254066
3.1531973 -3.6317348 -2.3259058
3.2904966 -3.6532626 -2.3264439
2.8080702 -3.5295732 -2.3254876
2.9193716 -3.5453594 -2.3259544
3.0386465 -3.5622764 -2.3264546
3.1633811 -3.5932894 -2.3267198
3.3012264 -3.6133561 -2.3272891
2.8198543 -3.4832358 -2.3264673
2.9317179 -3.4974394 -2.3269687
3.0516071 -3.5126615 -2.3275061
3.1735957 -3.5547526 -2.3275375
3.3119912 -3.5733519 -2.3281379
2.8287125 -3.4484055 -2.3272038
2.8346281 -3.4251435 -2.3276954
2.9440987 -3.4493861 -2.3279855
3.0646048 -3.462904 -2.3285604
3.1872492 -3.503242 -2.3286302
3.3227823 -3.533267 -2.3289895
3.3299916 -3.5064888 -2.3295584
2.8435178 -3.3901882 -2.3284342
2.9565136 -3.4011996 -2.3290052
3.0743763 -3.4254966 -2.3293529
3.2009435 -3.4515781 -2.3297262
3.3408272 -3.4662385 -2.3304133
2.8641827 -3.348525 -2.3316536
2.9787753 -3.3583388 -2.3324308
3.0731983 -3.3774931 -2.3363094
3.1159258 -3.3622406 -2.3361173
3.1799841 -3.3673925 -2.350184
3.2146792 -3.3997598 -2.3308256
3.3553123 -3.4124329 -2.3315563
3.2480106 -3.3731585 -2.3510013
3.318666 -3.3791475 -2.3518538
3.3921061 -3.3853722 -2.352736
3.4668167 -3.3913994 -2.3682632
3.5462964 -3.3981299 -2.3695223
3.8129158 -2.0650475 -2.3483553
3.8167682 -2.019433 -2.3631001
3.8207183 -1.973965 -2.3624105
3.8246615 -1.9285823 -2.3617225
2.9866314 -1.1783335 -2.2895691
3.013833 -1.1970472 -2.2967095
3.122633 -1.2062863 -2.2981057
3.2364173 -1.2159885 -2.3244538
3.3619339 -1.2266488 -2.3270118
2.9905655 -1.1330652 -2.2887528
3.4973805 -1.2381524 -2.329772
3.6422355 -1.2504776 -2.3467143
3.7994814 -1.2638568 -2.3651006
2.9954724 -1.0766045 -2.2877347
2.999388 -1.0315523 -2.2869225
3.0032952 -0.98659945 -2.2861118
3.0071936 -0.94174564 -2.2853031
3.0120537 -0.88582206 -2.2842948
3.0169015 -0.83004189 -2.2832892
3.0207696 -0.7855317 -2.2824864
3.0246294 -0.74111938 -2.2816858
3.0294421 -0.68574536 -2.2806873
3.0352471 -0.61990917 -2.2678928
3.0339067 -0.63404727 -2.2836242
3.0380723 -0.58643913 -2.2788966
3.0425155 -0.5349946 -2.2818351
3.0468435 -0.48431373 -2.2915273
3.0513709 -0.43245983 -2.2876823
3.0551651 -0.38880467 -2.2868824
3.059896 -0.33437383 -2.2858853
3.0636721 -0.29092371 -2.2850895
3.4388001 -3.6765158 -2.3270254
3.4501376 -3.635036 -2.3279049
3.4615071 -3.5934467 -2.3287871
3.4729097 -3.5517731 -2.3296733
3.4805291 -3.5239317 -2.3302653
3.4881616 -3.4960461 -2.3308587
3.499634 -3.4541273 -2.3317504
3.5111318 -3.4121184 -2.332644
3.5497527 -3.3990462 -2.339704
3.8118048 -2.0803931 -2.3177361
3.8170772 -2.0197065 -2.3168678
3.8210235 -1.9742769 -2.3162179
3.8249629 -1.9289321 -2.3155692
2.9868734 -1.1794436 -2.2425692
3.0192926 -1.1974367 -2.2503653
3.1283474 -1.206695 -2.2501223
3.2424073 -1.2164178 -2.2747402
3.3682296 -1.2271008 -2.2754068
2.9908032 -1.1342242 -2.241806
3.5040126 -1.2386299 -2.2761261
3.6474855 -1.2508563 -2.3048415
3.8068914 -1.2643929 -2.3068874
2.9957037 -1.0778244 -2.2408538
2.9996147 -1.0328207 -2.2400939
3.0035174 -0.98791587 -2.239336
3.0083826 -0.93192899 -2.2383907
3.0132353 -0.87608546 -2.237448
3.0171082 -0.83152533 -2.2366958
3.0209718 -0.78706235 -2.2359452
3.0257895 -0.7316258 -2.2350092
3.0316012 -0.66570222 -2.222302
3.0302587 -0.67987347 -2.2380002
3.0344284 -0.63220704 -2.2333307
3.0382547 -0.58817971 -2.2325873
3.0430245 -0.53328526 -2.2316606
3.0477829 -0.47853041 -2.2307363
3.05158 -0.43483686 -2.2299986
3.0553684 -0.39123893 -2.2292624
3.0600924 -0.33687866 -2.2283447
3.0638633 -0.29348481 -2.227612
3.8056231 -2.1566498 -2.2571507
3.8081594 -2.1261771 -2.272151
3.8121173 -2.080615 -2.2715383
3.8173847 -2.0199797 -2.2707224
3.8213282 -1.9745882 -2.2701116
3.8252635 -1.9292812 -2.2695022
2.9871142 -1.1805511 -2.1956735
3.0247579 -1.1978266 -2.20397
3.1340687 -1.207104 -2.2020836
3.2469046 -1.2167399 -2.2374182
3.2499053 -1.2169549 -2.212517
3.3745332 -1.2275536 -2.2237382
2.9910398 -1.1353804 -2.1949627
3.5089912 -1.2389883 -2.2358487
3.6544936 -1.2513621 -2.2489493
3.8143115 -1.2649298 -2.2485929
2.9959347 -1.0790412 -2.1940761
2.9998412 -1.0340858 -2.1933687
3.0037391 -0.98922932 -2.1926627
3.0085988 -0.93330222 -2.191783
3.0134459 -0.87751848 -2.1909051
3.017314 -0.83300537 -2.1902046
3.0211732 -0.78858978 -2.1895056
3.0279555 -0.71149492 -2.1767116
3.0255914 -0.73755527 -2.1910186
3.0307846 -0.677975 -2.1877649
3.0346148 -0.63389778 -2.1870713
3.0384362 -0.58991671 -2.1863792
3.043201 -0.53507984 -2.1855164
3.0479538 -0.48038185 -2.1846554
3.0517464 -0.43673432 -2.1839685
3.0564747 -0.38231254 -2.1831121
3.061192 -0.32802844 -2.1822579
3.0640159 -0.29552829 -2.1817465
3.8007615 -2.2177176 -2.196348
3.8046205 -2.1720178 -2.2111783
3.8085811 -2.1264217 -2.2106166
3.8125343 -2.0809109 -2.2100563
3.817795 -2.0203433 -2.2093103
3.8216321 -1.9748988 -2.2240746
3.8255641 -1.9296299 -2.2235043
2.9883358 -1.1703672 -2.1487169
3.0315981 -1.1983147 -2.1459007
3.1397967 -1.2075135 -2.15399
3.2544093 -1.2172778 -2.1751356
3.3808446 -1.2280068 -2.1720057
2.992255 -1.125262 -2.1480587
3.5139761 -1.2393472 -2.195528
3.66151 -1.2518685 -2.1929822
3.8198831 -1.2653328 -2.2048216
2.9961653 -1.0802556 -2.1474018
3.0000672 -1.0353484 -2.1467466
3.0039604 -0.99054009 -2.1460927
3.0088143 -0.93467277 -2.1452775
3.0136561 -0.87894821 -2.1444643
3.0175195 -0.83448237 -2.1438155
3.0213742 -0.79011381 -2.143168
3.0265746 -0.73045152 -2.1399837
3.0242109 -0.75650853 -2.1542454
3.0309749 -0.67961556 -2.1415553
3.0348003 -0.63558495 -2.140913
3.0386176 -0.59164989 -2.1402717
3.0433767 -0.53687036 -2.1394725
3.0481241 -0.48222923 -2.138675
3.0519125 -0.43862724 -2.1380386
3.0566359 -0.38426197 -2.1372452
3.061347 -0.33003402 -2.1364539
3.064168 -0.29756761 -2.1359801
3.799654 -2.2330201 -2.1657722
3.80494 -2.1721625 -2.1650746
3.8088968 -2.1266048 -2.1645525
3.8128459 -2.0811322 -2.164031
3.8181021 -2.0206153 -2.1633375
3.8219359 -1.975209 -2.1781237
3.8258643 -1.9299779 -2.1775923
2.9886346 -1.1717603 -2.090394
3.0384471 -1.1988033 -2.0877562
3.1455309 -1.2079234 -2.1058412
3.260421 -1.2177083 -2.1252441
3.3871639 -1.2284606 -2.1202092
2.9925482 -1.1267154 -2.0898008
3.5206294 -1.239826 -2.1417098
3.6685369 -1.2523756 -2.1369405
3.8254614 -1.2657366 -2.1609988
2.9964526 -1.0817697 -2.0892091
3.0003486 -1.0369225 -2.0886185
3.0041811 -0.99184769 -2.0996249
3.0090299 -0.93603998 -2.0988741
3.0138655 -0.88037473 -2.0981255
3.0177245 -0.83595622 -2.097528
3.0219123 -0.78807062 -2.0930321
3.0205631 -0.80232602 -2.1086302
3.0263762 -0.73637348 -2.0961883
3.0311649 -0.68125266 -2.0954468
3.0349855 -0.63726819 -2.0948553
3.0397499 -0.58242679 -2.0941174
3.0445023 -0.5277245 -2.0933816
3.0482943 -0.48407304 -2.0927944
3.0520782 -0.44051611 -2.0922084
3.0567963 -0.38620722 -2.0914779
3.0615027 -0.3320353 -2.0907493
3.0643201 -0.29960239 -2.090313
3.7934694 -2.309319 -2.1051445
3.7960088 -2.2788036 -2.1201878
3.7999775 -2.2331135 -2.1197028
3.8052585 -2.172307 -2.1190577
3.8092117 -2.1267877 -2.1185744
3.8131576 -2.0813532 -2.1180923
3.8184087 -2.0208869 -2.1174507
3.8223403 -1.9756218 -2.1169703
3.8262639 -1.930441 -2.1164908
2.9889328 -1.1731498 -2.0322213
3.0439334 -1.1991947 -2.0411801
3.1512723 -1.2083338 -2.0576367
3.2664402 -1.2181396 -2.0752935
3.3934906 -1.228915 -2.0683486
2.9928401 -1.1281655 -2.0316927
3.5272911 -1.2403054 -2.0878222
3.6738126 -1.2527561 -2.094862
3.832907 -1.2662754 -2.1025009
2.9967389 -1.0832798 -2.0311656
3.0006292 -1.0384928 -2.0306396
3.0054257 -0.98232329 -2.0415549
3.0102651 -0.92661011 -2.0408847
3.0151951 -0.87176758 -2.0171463
3.0139134 -0.88423049 -2.0449905
3.018193 -0.83572376 -2.0351765
3.0169151 -0.84814304 -2.0630152
3.0227847 -0.78248489 -2.039151
3.0275772 -0.72731668 -2.0384874
3.0314012 -0.683294 -2.0379577
3.0352168 -0.6393671 -2.0374293
3.0399742 -0.58459735 -2.0367703
3.0447197 -0.52996612 -2.0361133
3.0485065 -0.48637176 -2.0355887
3.0530024 -0.43484938 -2.0321157
3.0575228 -0.38230407 -2.0375977
3.0616961 -0.33453095 -2.033762
3.0645096 -0.3021394 -2.0333724
3.7923639 -2.3245955 -2.0745947
3.7963359 -2.2788582 -2.0741482
3.8003001 -2.2332065 -2.0737026
3.8055766 -2.1724515 -2.0731094
3.8095262 -2.1269703 -2.0726655
3.8134685 -2.081574 -2.0722222
3.8187146 -2.0211582 -2.0716324
3.8226426 -1.9759309 -2.0711908
3.8265631 -1.9307878 -2.0707502
2.9891708 -1.1742584 -1.9858027
3.0494261 -1.1995866 -1.9945526
3.1570199 -1.2087448 -2.009377
3.2724659 -1.2185714 -2.0252833
3.3998253 -1.2293699 -2.0164239
2.9930732 -1.1293223 -1.9853258
3.5339615 -1.2407856 -2.0338655
3.6790941 -1.2531374 -2.0527368
3.8384981 -1.2666799 -2.0585766
2.996968 -1.0844849 -1.98485
3.0008535 -1.0397457 -1.9843752
3.0056987 -0.98396438 -1.9837834
3.0115492 -0.91755927 -1.9715568
3.0101919 -0.93191391 -1.9870718
3.0143874 -0.88392735 -1.9827219
3.0182354 -0.83962625 -1.9822519
3.0230329 -0.78439051 -1.9816657
3.0278182 -0.72929484 -1.981081
3.031637 -0.68532997 -1.9806147
3.0354469 -0.64146078 -1.980149
3.0401976 -0.58676231 -1.9795687
3.0449369 -0.53220212 -1.9789897
3.048718 -0.48866427 -1.9785278
3.0534327 -0.43437898 -1.9779518
3.058136 -0.38023007 -1.9773771
3.0618889 -0.3370198 -1.9769186
3.0646985 -0.3046701 -1.9765754
3.7878716 -2.380559 -2.0239878
3.7926936 -2.3246114 -2.0286026
3.7966619 -2.2789128 -2.0281951
3.8006227 -2.2332995 -2.0277884
3.8058939 -2.1725955 -2.0272474
3.8098402 -2.1271524 -2.0268421
3.8137786 -2.081794 -2.0264378
3.8190207 -2.0214291 -2.0258996
3.8229449 -1.9762393 -2.025497
3.8268614 -1.9311339 -2.0250947
2.9894075 -1.1753646 -1.9394863
3.0549245 -1.1999788 -1.9478731
3.1627741 -1.2091562 -1.9610617
3.2784994 -1.2190037 -1.9752133
3.406168 -1.2298254 -1.9644349
2.9933059 -1.1304767 -1.9390607
3.5406404 -1.2412665 -1.9798391
3.6861444 -1.2536461 -1.9965072
3.8440957 -1.2670848 -2.014601
2.9971962 -1.0856872 -1.9386362
3.0010772 -1.040996 -1.9382125
3.0079031 -0.96335059 -1.9259675
3.0055189 -0.98965859 -1.9400277
3.0107434 -0.92969406 -1.9371574
3.014595 -0.88534307 -1.9367371
3.0184391 -0.84108865 -1.9363176
3.0232308 -0.78591114 -1.9357946
3.0280104 -0.73087335 -1.9352728
3.0318248 -0.68695474 -1.9348564
3.0365808 -0.632195 -1.9343374
3.0413241 -0.5775739 -1.9338197
3.0451097 -0.53398693 -1.9334065
3.0488868 -0.49049389 -1.9329941
3.0535963 -0.43626475 -1.9324801
3.0582945 -0.38217175 -1.9319674
3.062043 -0.33900583 -1.9315581
3.0648494 -0.30668962 -1.9312518
3.7813158 -2.4619863 -1.9531407
3.7838588 -2.4314282 -1.9682262
3.7878375 -2.3856096 -1.9678695
3.7931321 -2.3246326 -1.9673946
3.7970953 -2.278985 -1.9670391
3.8010516 -2.2334232 -1.9666843
3.8063164 -2.172787 -1.9662123
3.8102577 -2.1273949 -1.9658587
3.8141918 -2.082087 -1.965506
3.8194273 -2.0217891 -1.9650364
3.8233466 -1.9766499 -1.964685
3.8272588 -1.9315944 -1.9643341
2.9896445 -1.1764684 -1.8932717
3.0604296 -1.2003715 -1.9011418
3.168535 -1.209568 -1.9126908
3.2845397 -1.2194365 -1.9250836
3.4109299 -1.2301673 -1.9254029
2.9935379 -1.1316285 -1.8928972
3.547328 -1.2417479 -1.9257433
3.6932039 -1.2541555 -1.940202
3.8515682 -1.2676256 -1.9558985
2.9974234 -1.086887 -1.8925236
3.0013003 -1.0422432 -1.8921509
3.006531 -0.98219651 -1.8893503
3.0041478 -1.0085009 -1.9033651
3.0109556 -0.9310596 -1.8912225
3.0148027 -0.88675576 -1.8908526
3.0192266 -0.83600342 -1.8881409
3.0238008 -0.78294915 -1.8922738
3.0282028 -0.73244864 -1.8895642
3.0320127 -0.6885758 -1.8891978
3.036763 -0.63387346 -1.888741
3.0415015 -0.57930899 -1.8882855
3.0452821 -0.53576744 -1.8879218
3.0496283 -0.48590708 -1.8852373
3.054127 -0.43372452 -1.889338
3.0584521 -0.38410926 -1.8866556
3.06317 -0.33071673 -1.8749051
3.061872 -0.34441149 -1.8900923
3.0649998 -0.30870473 -1.8860259
3.7802138 -2.4772196 -1.9226339
3.7841959 -2.4313538 -1.9223155
3.7881708 -2.3855741 -1.9219978
3.7934604 -2.3246484 -1.9215747
3.79742 -2.2790396 -1.9212581
3.8013728 -2.2335157 -1.9209421
3.8066328 -2.1729305 -1.9205215
3.8105705 -2.1275764 -1.9202065
3.8145008 -2.0823064 -1.9198923
3.8197317 -2.022059 -1.9194741
3.8236475 -1.9769571 -1.919161
3.8275561 -1.9319391 -1.9188485
2.9898806 -1.1775697 -1.8471587
3.0659406 -1.2007648 -1.8543584
3.1743026 -1.2099805 -1.8642641
3.2905874 -1.2198697 -1.874894
3.4156966 -1.2305096 -1.8863306
2.9937699 -1.132778 -1.8468351
3.5523486 -1.2421093 -1.8851278
3.6985044 -1.2545382 -1.897926
3.8571782 -1.2680315 -1.9118202
2.9976509 -1.0880841 -1.8465122
3.002887 -1.0279675 -1.8437814
3.0005 -1.054317 -1.8577514
3.0073154 -0.97677583 -1.8457083
3.0111668 -0.93242228 -1.8453879
3.0150096 -0.888165 -1.8450682
3.0198011 -0.83298385 -1.8446696
3.0245812 -0.77794236 -1.8442721
3.0283947 -0.73402041 -1.8439548
3.0322001 -0.69019347 -1.8436382
3.0369449 -0.63554811 -1.8432436
3.0416782 -0.5810405 -1.8428497
3.0454547 -0.53754413 -1.8425356
3.050164 -0.48330998 -1.8421439
3.0548611 -0.42921245 -1.8417531
3.0595846 -0.37574744 -1.830075
3.0582848 -0.38947427 -1.84523
3.0632834 -0.33221531 -1.8410525
3.7740238 -2.5535855 -1.8619393
3.7765689 -2.5230019 -1.8770504
3.7805536 -2.4771066 -1.8767705
3.7845323 -2.4312797 -1.8764908
3.7885034 -2.3855386 -1.8762119
3.793788 -2.3246641 -1.8758407
3.7977443 -2.2790937 -1.8755627
3.801693 -2.2336082 -1.8752851
3.8069487 -2.1730738 -1.874916
3.8108828 -2.1277575 -1.8746396
3.8148096 -2.0825255 -1.8743637
3.8200355 -2.0223281 -1.8739965
3.8239479 -1.9772639 -1.8737216
3.8278532 -1.9322833 -1.8734473
2.9901748 -1.1789428 -1.7896647
3.0714571 -1.2011584 -1.8075229
3.1800768 -1.2103932 -1.8157816
3.2966421 -1.2203035 -1.8246444
3.4220588 -1.2309664 -1.8341801
2.9951432 -1.1236186 -1.7664071
2.9938416 -1.1363294 -1.794004
3.5573752 -1.2424711 -1.8444687
3.7038112 -1.254921 -1.8556026
3.8627958 -1.2684379 -1.8676907
2.9981501 -1.0874655 -1.7845461
2.9968522 -1.1001327 -1.8121378
3.0027657 -1.0339258 -1.788821
3.0075848 -0.97841609 -1.7884979
3.011431 -0.93412125 -1.7882403
3.0152678 -0.88992238 -1.7879831
3.0200524 -0.83481395 -1.7876624
3.0248256 -0.77984458 -1.7873427
3.0286336 -0.73598009 -1.7870874
3.0328531 -0.68764669 -1.7835667
3.0373971 -0.63480771 -1.7893332
3.041898 -0.58319938 -1.7861984
3.0456698 -0.53975928 -1.7859457
3.0503724 -0.48559546 -1.7856306
3.0554287 -0.42859805 -1.7702643
3.0546968 -0.43453693 -1.8003681
3.0588059 -0.38845325 -1.7850653
3.063473 -0.33469498 -1.7847525
3.7691627 -2.6146514 -1.8011388
3.7730393 -2.5687294 -1.8161905
3.7770264 -2.5227997 -1.815962
3.7810061 -2.4769559 -1.8157338
3.7849796 -2.431181 -1.815506
3.7889459 -2.3854911 -1.8152785
3.7942238 -2.3246851 -1.8149757
3.7981756 -2.2791657 -1.8147492
3.8021197 -2.2337313 -1.8145231
3.807368 -2.1732643 -1.8142221
3.8112979 -2.1279986 -1.8139968
3.8152199 -2.0828168 -1.8137718
3.8204396 -2.0226865 -1.8134725
3.8243475 -1.9776721 -1.8132485
3.8296447 -1.9178939 -1.7978657
3.8277822 -1.9376904 -1.8180779
2.9914978 -1.1694088 -1.720819
2.9901257 -1.1839471 -1.7361507
3.0783625 -1.201651 -1.7489026
3.1844113 -1.2107031 -1.7793849
3.1873038 -1.2109098 -1.7551017
3.3027046 -1.2207379 -1.7743348
3.4284291 -1.231424 -1.7819651
2.9943469 -1.1356404 -1.7321205
3.5640841 -1.242954 -1.7901983
3.7108943 -1.2554322 -1.7991084
3.8702939 -1.2689805 -1.8087825
2.9982164 -1.0910654 -1.7319236
3.0030413 -1.0354884 -1.7316781
3.0078535 -0.98005229 -1.7314332
3.0116932 -0.93581581 -1.7312378
3.0155256 -0.89167535 -1.7310429
3.0203032 -0.83663917 -1.7307998
3.0250692 -0.78174192 -1.7305572
3.0288718 -0.73793465 -1.7303637
3.0336139 -0.68331373 -1.7301224
3.0383434 -0.62883031 -1.7298818
3.0421178 -0.58535302 -1.7296897
3.0458841 -0.54196906 -1.7294981
3.0518441 -0.47361994 -1.7254429
3.0493157 -0.50213027 -1.7330755
3.0552642 -0.43391669 -1.7290208
3.0590022 -0.39085782 -1.7288306
3.0636623 -0.33716857 -1.7285935
3.7680638 -2.6298413 -1.7706751
3.7733843 -2.5685389 -1.7704214
3.7773681 -2.5226483 -1.7702315
3.7813439 -2.4768434 -1.7700421
3.7853138 -2.4311068 -1.7698528
3.7892768 -2.3854556 -1.7696639
3.7945504 -2.3247008 -1.7694125
3.7984982 -2.2792196 -1.7692244
3.8024385 -2.2338233 -1.7690365
3.807683 -2.1734071 -1.7687864
3.8116088 -2.1281791 -1.7685994
3.815527 -2.083035 -1.7684126
3.8207421 -2.0229545 -1.7681639
3.8246462 -1.9779778 -1.7679778
3.8285429 -1.933084 -1.7677921
2.9907031 -1.1814054 -1.6865574
3.0852768 -1.2021444 -1.6902058
3.1930931 -1.2113237 -1.7064885
3.3087735 -1.2211728 -1.7239649
3.4348071 -1.231882 -1.7296853
2.9945765 -1.1367807 -1.6864102
3.570802 -1.2434375 -1.7358577
3.7179871 -1.255944 -1.7425381
3.8759241 -1.2693878 -1.7645497
2.9984415 -1.0922533 -1.6862633
3.0032606 -1.0367353 -1.6860801
3.0080676 -0.98135787 -1.6858974
3.0119035 -0.93716824 -1.6857516
3.0163143 -0.88654345 -1.6833168
3.0208745 -0.83363068 -1.6876777
3.0252633 -0.78325593 -1.6852437
3.0290623 -0.73949468 -1.6850994
3.0337985 -0.68493074 -1.6849194
3.038523 -0.63050377 -1.6847398
3.0422931 -0.5870713 -1.6845965
3.04826 -0.51864159 -1.6806216
3.045728 -0.54719234 -1.6882141
3.0516829 -0.47889817 -1.6842396
3.0554245 -0.43579125 -1.6840974
3.0597253 -0.38643336 -1.6816947
3.0641785 -0.33475864 -1.6860039
3.7618699 -2.7062495 -1.7099385
3.7644188 -2.6756232 -1.7250921
3.7684138 -2.6295993 -1.7249403
3.7737298 -2.5683491 -1.7247381
3.7777097 -2.5224972 -1.7245868
3.781682 -2.4767308 -1.7244358
3.7856481 -2.4310329 -1.724285
3.7896073 -2.3854203 -1.7241346
3.7948763 -2.3247166 -1.7239343
3.7988205 -2.2792735 -1.7237843
3.8027575 -2.2339151 -1.7236347
3.8079967 -2.1735494 -1.7234355
3.811919 -2.1283591 -1.7232864
3.815834 -2.0832527 -1.7231376
3.8224456 -2.0083246 -1.7078305
3.8205771 -2.0281882 -1.7279757
3.8249447 -1.9782827 -1.7227912
3.8288381 -1.9334261 -1.7226431
2.9909365 -1.1824961 -1.640897
3.0908153 -1.2025394 -1.6431873
3.2003388 -1.2118418 -1.6456519
3.3148503 -1.2216082 -1.6735349
3.4411931 -1.2323406 -1.6773405
2.9948058 -1.1379189 -1.6407996
3.5775285 -1.2439218 -1.6814471
3.7233126 -1.2563283 -1.700063
3.8815613 -1.2697957 -1.7202654
2.99963 -1.0823388 -1.6406783
3.0044417 -1.0268996 -1.6405572
3.0082815 -0.98266071 -1.6404605
3.0121129 -0.93851751 -1.6403642
3.01689 -0.88347763 -1.640244
3.0216551 -0.82857686 -1.6401241
3.0254579 -0.78476673 -1.6400285
3.0292518 -0.74105114 -1.6399329
3.0339828 -0.68654388 -1.6398139
3.0387022 -0.63217366 -1.6396952
3.0434518 -0.57838202 -1.6283429
3.04214 -0.59225428 -1.643353
3.0471632 -0.53468788 -1.6394823
3.0518475 -0.48072457 -1.6393645
3.0555847 -0.43766201 -1.6392703
3.060245 -0.38396776 -1.6391531
3.0648935 -0.33040738 -1.6390362
3.7570088 -2.7673144 -1.6491387
3.7608924 -2.7213073 -1.6642758
3.7648895 -2.6752491 -1.6641753
3.7688797 -2.6292775 -1.6640749
3.7741892 -2.5680962 -1.6639413
3.7781641 -2.522296 -1.6638412
3.7821317 -2.4765813 -1.6637414
3.786093 -2.4309347 -1.6636417
3.7900472 -2.3853731 -1.6635422
3.7953095 -2.3247375 -1.6634097
3.7992492 -2.2793453 -1.6633105
3.8031816 -2.2340374 -1.6632116
3.8084145 -2.173739 -1.66308
3.8123319 -2.1285989 -1.6629814
3.8176463 -2.0686114 -1.6478075
3.8157744 -2.0885196 -1.6679081
3.8214462 -2.0235786 -1.662752
3.8253424 -1.9786887 -1.6626539
3.8292313 -1.9338818 -1.6625562
2.992985 -1.1833346 -1.5953465
3.0963602 -1.202935 -1.5961163
3.2061431 -1.2122568 -1.596917
3.3209343 -1.222044 -1.6230443
3.4459877 -1.2326849 -1.6380413
2.9950345 -1.1390547 -1.5952885
3.449187 -1.2329146 -1.61182
3.5842636 -1.2444066 -1.6269661
3.7286441 -1.2567132 -1.6575401
3.8890858 -1.2703402 -1.6611505
2.9998534 -1.0835334 -1.5952291
3.0046597 -1.0281529 -1.5951698
3.0084949 -0.98396057 -1.5951225
3.0123219 -0.93986392 -1.5950752
3.0170934 -0.88488209 -1.5950164
3.0218534 -0.83003867 -1.5949576
3.025651 -0.78627425 -1.5949107
3.0300181 -0.73614484 -1.5926077
3.0345356 -0.68372309 -1.5970502
3.0398667 -0.6234113 -1.5835141
3.0385523 -0.63731563 -1.5984919
3.0428565 -0.58859038 -1.5879778
3.0473747 -0.53689563 -1.5834535
3.0520525 -0.48300195 -1.5834107
3.0557847 -0.43999445 -1.5833766
3.0604384 -0.38636887 -1.5833341
3.0650809 -0.33287692 -1.5832918
3.7559137 -2.7824612 -1.6187183
3.7612484 -2.7209878 -1.6186354
3.7652419 -2.6749692 -1.6185732
3.7692285 -2.6290364 -1.6185113
3.774533 -2.5679069 -1.6184288
3.7785044 -2.5221455 -1.6183672
3.7824681 -2.4764693 -1.6183054
3.7864263 -2.4308612 -1.6182441
3.7903769 -2.3853381 -1.6181827
3.7956345 -2.3247533 -1.6181009
3.7995703 -2.2793989 -1.6180397
3.8034987 -2.234129 -1.6179786
3.808727 -2.1738808 -1.6178974
3.8126411 -2.1287785 -1.6178366
3.8165481 -2.0837595 -1.6177758
3.8217478 -2.0238452 -1.617695
3.82564 -1.9789926 -1.6176345
3.8295255 -1.9342227 -1.6175742
2.9951136 -1.1821296 -1.5430412
3.1019115 -1.2033312 -1.5489929
3.2119539 -1.2126722 -1.5481257
3.3270252 -1.2224804 -1.5724933
2.9953201 -1.1404705 -1.5385442
3.4539893 -1.2332596 -1.5724554
3.5893202 -1.2447705 -1.5860612
3.7357607 -1.2572267 -1.6007794
3.8947358 -1.2707491 -1.6167624
3.0001318 -1.0850229 -1.5385618
3.0049312 -1.0297157 -1.5385793
3.0087607 -0.98558146 -1.5385933
3.0125821 -0.94154263 -1.5386071
3.0173476 -0.8866328 -1.5386246
3.0221 -0.83186126 -1.5386419
3.025893 -0.78815413 -1.5386558
3.0306222 -0.73365712 -1.538673
3.0357146 -0.67621613 -1.5237491
3.0349646 -0.6823771 -1.5536313
3.0391042 -0.63591731 -1.5387039
3.043201 -0.58931911 -1.5312676
3.0479515 -0.53469884 -1.5298011
3.0522566 -0.48527336 -1.527597
3.0565498 -0.43598413 -1.5254011
3.0609946 -0.38438964 -1.5298821
3.0652668 -0.33534038 -1.527686
3.749717 -2.8589115 -1.5579398
3.752269 -2.8282428 -1.5731359
3.7562742 -2.7820904 -1.573112
3.7616041 -2.7206693 -1.5730805
3.7655938 -2.6746895 -1.5730567
3.7695761 -2.6287956 -1.5730331
3.7748761 -2.567718 -1.5730016
3.7788439 -2.5219951 -1.572978
3.782804 -2.4763575 -1.5729545
3.7867582 -2.4307878 -1.5729311
3.7907052 -2.3853028 -1.5729077
3.7959585 -2.3247688 -1.5728765
3.7998908 -2.2794526 -1.5728531
3.8038158 -2.2342205 -1.5728297
3.8104475 -2.1590409 -1.5577735
3.8085701 -2.1790161 -1.5778072
3.8129499 -2.1289575 -1.5727756
3.816853 -2.083976 -1.5727524
3.8220479 -2.0241115 -1.5727215
3.825937 -1.979296 -1.5726984
3.8298187 -1.9345629 -1.5726753
3.0005622 -1.1871204 -1.4884188
3.1074681 -1.2037275 -1.5018166
3.2177715 -1.213088 -1.4992781
3.3331237 -1.2229174 -1.5218816
2.995605 -1.1418827 -1.481944
3.4603994 -1.2337196 -1.519915
3.5943825 -1.2451352 -1.5451124
3.742887 -1.2577409 -1.5439422
3.9003925 -1.2711582 -1.5723224
3.0004089 -1.0865083 -1.482038
3.0052018 -1.0312743 -1.482132
3.0090263 -0.98719805 -1.4822069
3.0134239 -0.9367004 -1.4800451
3.0179703 -0.88392848 -1.4846303
3.0223463 -0.8336792 -1.482468
3.026134 -0.79002887 -1.4825423
3.0321293 -0.72123665 -1.4789289
3.0295832 -0.74996871 -1.4863406
3.0355666 -0.68131298 -1.4827272
3.0393262 -0.63798952 -1.4828008
3.0440133 -0.58397043 -1.4828928
3.0486887 -0.53008616 -1.4829843
3.0524194 -0.48708606 -1.4830575
3.0570719 -0.43346965 -1.4831486
3.0617123 -0.37998641 -1.4832397
3.0654156 -0.33730614 -1.4833121
3.7923472 -2.3701301 -1.5277048
3.7962818 -2.3247843 -1.5277193
3.800211 -2.279506 -1.5277336
3.8041322 -2.2343116 -1.527748
3.8093512 -2.1741638 -1.5277669
3.8132582 -2.1291366 -1.5277812
3.8171582 -2.0841923 -1.5277956
3.8223484 -2.0243773 -1.5278145
3.8262336 -1.9795988 -1.5278287
3.8301115 -1.9349027 -1.5278429
2.9929461 -1.176271 -1.4366851
3.0124495 -1.1955551 -1.4356718
3.1130316 -1.2041245 -1.4545877
3.2235963 -1.2135046 -1.4503738
3.3392293 -1.2233548 -1.4712093
2.9964194 -1.1364251 -1.434543
3.4668171 -1.2341807 -1.4673091
3.6011395 -1.2456213 -1.490455
