# .PCD v0.7 - Point Cloud Data file format
VERSION 0.7
FIELDS x y z
SIZE 4 4 4
TYPE F F F
COUNT 1 1 1
WIDTH 1524
HEIGHT 1
VIEWPOINT 0 0 0 1 0 0 0
POINTS 1524
DATA ascii
3.0158062 1.0588639 0.36062372
3.0135703 1.1136963 0.36122546
3.0118859 1.1550047 0.36167881
3.0101936 1.1964979 0.36213416
3.0079279 1.2520716 0.36274403
3.0056493 1.3079462 0.36335719
3.0033584 1.3641229 0.36397368
3.0016329 1.4064469 0.36443818
2.9998994 1.4489632 0.36490476
2.9975767 1.5059085 0.36552966
2.9952424 1.5631664 0.36615804
2.9934831 1.6063061 0.36663145
2.9917159 1.6496434 0.36710703
2.9893484 1.7076917 0.36774406
2.9869683 1.7660613 0.3683846
2.9851747 1.81004 0.36886722
2.9833727 1.854223 0.36935207
2.9809594 1.9134068 0.37000152
2.9791408 1.9580004 0.37049094
4.0549126 -2.2446215 0.4327471
4.0388584 -2.2008266 0.43210402
4.0228581 -2.1571777 0.43146315
4.0069237 -2.1137094 0.43082485
3.9910426 -2.0703859 0.43018869
3.9752269 -2.0272415 0.42955521
3.9542265 -1.9699531 0.42871401
3.4205015 -2.0210805 0.40650561
3.9385483 -1.9271655 0.42808625
3.4079652 -1.984498 0.40600476
3.9229383 -1.8845551 0.42746142
3.3913088 -1.9358926 0.40533933
3.902211 -1.8279741 0.42663178
3.1338685 -1.9204869 0.41452503
3.3747227 -1.8874915 0.40467665
3.8764405 -1.7576287 0.42560023
3.8867283 -1.7857115 0.42601201
3.1322281 -1.8804581 0.41516259
3.358206 -1.8392932 0.40401679
3.8661776 -1.7296145 0.42518941
3.1301684 -1.8301921 0.41596311
3.3417583 -1.7912967 0.40335968
3.8508341 -1.6877302 0.4245753
3.1280961 -1.7796175 0.41676858
3.3253794 -1.7435007 0.40270534
3.8304586 -1.6321111 0.42375967
3.1260128 -1.7287707 0.41757843
3.3090687 -1.6959035 0.40205368
3.8152394 -1.5905662 0.42315048
3.1247694 -1.6878016 0.40726227
3.2887735 -1.6366793 0.40124285
3.2968779 -1.6603295 0.40156662
3.8000813 -1.5491889 0.42254373
3.1226645 -1.6364031 0.40804905
3.2766504 -1.601302 0.40075853
3.7799525 -1.4942422 0.42173803
3.1205482 -1.5847255 0.40884009
3.2605417 -1.5542948 0.40011495
3.7549248 -1.4259236 0.42073622
3.7649167 -1.4531982 0.42113617
3.1192727 -1.5535744 0.40931696
3.1179917 -1.522302 0.40979567
3.2444999 -1.5074822 0.39947405
3.7449572 -1.3987148 0.42033723
3.1162779 -1.480443 0.41043642
3.228524 -1.4608624 0.39883578
3.7300539 -1.3580326 0.41974071
3.1141236 -1.4278324 0.41124177
3.2126141 -1.4144344 0.39820015
3.7102623 -1.3040066 0.4189485
3.1119573 -1.374933 0.41205153
3.1967692 -1.3681972 0.39756712
3.6905653 -1.2502397 0.41816008
3.1102145 -1.3323803 0.41270289
3.1809897 -1.3221496 0.39693671
3.6758518 -1.2100751 0.4175711
3.8053083 -1.1708826 0.45706373
3.809644 -1.1709961 0.42950937
4.0184498 -1.1620985 0.44729283
3.1080241 -1.2788957 0.41352159
3.1613536 -1.2648486 0.39615223
3.1691952 -1.2877316 0.39646548
3.4490342 -1.1860929 0.42401966
3.618118 -1.1788743 0.439702
3.6660738 -1.1833842 0.4171797
3.1277242 -1.2278665 0.40501437
3.1540542 -1.1985635 0.40815502
3.2938759 -1.1925884 0.42165324
3.7013741 0.90304965 0.43896577
3.3519261 0.88837403 0.43822592
3.4170258 0.89107579 0.42991853
3.4842002 0.8939181 0.43563929
3.5538447 0.89686483 0.44157037
3.6263623 0.89987665 0.43286166
3.0589421 0.87597257 0.41216415
3.1137199 0.87829155 0.41703686
3.1703122 0.88068682 0.42207089
3.2288113 0.88316292 0.4272745
3.289314 0.88572389 0.43265638
3.0204628 0.89574391 0.40910539
3.0182569 0.94970471 0.40983117
3.0160396 1.0039535 0.41056085
3.0138102 1.0584919 0.41129443
3.0115693 1.1133227 0.41203192
3.0098808 1.1546297 0.41258755
3.0081847 1.1961217 0.41314563
3.0059133 1.2516935 0.41389307
3.0036294 1.3075662 0.4146446
3.001333 1.3637416 0.41540018
2.9996033 1.4060638 0.41596946
2.9978652 1.4485784 0.41654128
2.9955378 1.5055223 0.4173072
2.9931974 1.5627782 0.41807732
2.9914341 1.605916 0.41865751
2.9896626 1.6492522 0.41924044
2.9872899 1.7072988 0.42002121
2.9849038 1.7656662 0.42080623
2.9831064 1.809644 0.42139772
2.9813852 1.8389716 0.43494418
2.9812715 1.8587761 0.41767457
2.9788809 1.913007 0.42278799
2.9770579 1.9575992 0.42338774
3.1321614 -1.9207685 0.4578186
3.1305175 -1.8807406 0.45855525
3.1284528 -1.830476 0.45948026
3.1263759 -1.7799029 0.46041095
3.1242871 -1.7290577 0.46134669
3.1230395 -1.6880896 0.45113191
3.1209295 -1.6366926 0.45204595
3.1188083 -1.5850165 0.45296493
3.1175296 -1.5538663 0.4535189
3.116246 -1.522595 0.45407504
3.1145279 -1.4807371 0.45481941
3.1123683 -1.4281281 0.455755
3.1101968 -1.37523 0.45669571
3.1084502 -1.3326787 0.45745245
3.8009806 -1.1707693 0.48457077
4.0112982 -1.1619309 0.49091205
3.1064754 -1.2818594 0.45554745
3.4435878 -1.1859215 0.4613114
3.6121879 -1.1787032 0.47886723
3.1128533 -1.219929 0.45144728
3.1494009 -1.1983942 0.44217432
3.2871826 -1.1923612 0.46905878
3.7005868 0.90318996 0.4844152
3.4164927 0.89116079 0.45806751
3.4836681 0.89400524 0.46429753
3.5533147 0.89695424 0.47075674
3.6255705 0.90001363 0.47745797
3.0581403 0.87608474 0.45032653
3.1129174 0.87840587 0.4558222
3.1695092 0.88080376 0.4614999
3.2353745 0.88718718 0.46817759
3.3163559 0.90035468 0.476491
3.4012251 0.91415459 0.48520347
3.4902701 0.92863315 0.49434462
3.5838056 0.94384211 0.50394672
3.6821806 0.95983797 0.51404572
3.0184636 0.89989263 0.45525712
3.0749342 0.91378528 0.47842035
3.1487498 0.92696828 0.48659673
3.22595 0.94075602 0.49514803
3.0162716 0.94933647 0.4602311
3.0140488 1.0035834 0.46109512
3.0118144 1.0581203 0.46196371
3.0095677 1.1129491 0.46283695
3.0078754 1.1542547 0.46349481
3.0061753 1.1957457 0.46415564
3.0038984 1.2513156 0.46504065
3.0016091 1.3071861 0.46593049
2.9993076 1.3633599 0.46682516
2.9975736 1.4056809 0.46749923
2.9958315 1.4481938 0.46817631
2.9934986 1.5051363 0.46908322
2.9911528 1.5623899 0.46999508
2.9893851 1.6055267 0.47068211
2.9876096 1.6488612 0.47137231
2.9852312 1.7069058 0.47229674
2.9828396 1.7652712 0.47322634
2.9810376 1.8092475 0.47392669
2.9798317 1.8386736 0.47439533
2.9786229 1.8681812 0.47486535
2.9768023 1.9126072 0.47557285
2.9749751 1.9571981 0.47628304
3.1304543 -1.9210498 0.50111109
3.1288061 -1.8810229 0.50194681
3.1267369 -1.8307598 0.50299627
3.1246545 -1.7801883 0.50405216
3.1225612 -1.7293442 0.50511372
3.1208773 -1.6884496 0.50596762
3.1187608 -1.6370544 0.50704062
3.1166332 -1.5853801 0.50811952
3.1153512 -1.5542313 0.50876999
3.1140637 -1.5229609 0.50942284
3.1123402 -1.4811047 0.51029676
3.1101744 -1.4284973 0.5113951
3.1079962 -1.3756014 0.51249951
3.1062446 -1.3330516 0.51338798
3.7945035 -1.1705999 0.52573687
4.0017939 -1.1617084 0.54889542
3.1041057 -1.2764723 0.5097543
3.4363444 -1.1856941 0.51090521
3.6043029 -1.1784757 0.53094578
3.1148901 -1.2164974 0.50624204
3.2805083 -1.1921347 0.5163241
3.3067729 0.95519036 0.50410056
3.391479 0.97031838 0.51348329
3.4803555 0.98619133 0.52332795
3.5737183 1.0028653 0.53366953
3.671916 1.0204029 0.54454666
3.0142276 0.96258575 0.49827072
3.0658019 0.96506256 0.50423455
3.1394668 0.97940487 0.51299584
3.2165115 0.99440533 0.52215916
3.2971749 1.0101109 0.53175282
3.3817172 1.0265715 0.54180783
3.4704254 1.043843 0.55235833
3.5636151 1.0619872 0.56344181
3.0120382 1.0077767 0.50750309
3.0566566 1.0164137 0.5300861
3.1301706 1.0319192 0.53943408
3.2070599 1.0481367 0.5492112
3.0098186 1.0577486 0.51263154
3.0075667 1.1125758 0.51364046
3.0058706 1.1538804 0.51440066
3.0041664 1.1953695 0.51516414
3.001884 1.2509377 0.51618677
2.9995897 1.3068066 0.51721495
2.9972823 1.3629782 0.51824868
2.9955442 1.4052978 0.51902753
2.9937983 1.4478095 0.51980984
2.9914594 1.5047498 0.52085769
2.9891081 1.5620017 0.52191132
2.9873364 1.6051373 0.52270514
2.9855564 1.6484704 0.52350265
2.9831727 1.7065129 0.52457076
2.9807751 1.7648764 0.52564484
2.9789693 1.8088512 0.52645409
2.9777606 1.8382761 0.5269956
2.9765484 1.8677828 0.5275386
2.9747238 1.9122074 0.52835613
2.9728923 1.9567966 0.52917671
3.12832 -1.9214015 0.55522507
3.1270297 -1.8841991 0.54991406
3.1250205 -1.831044 0.54651111
3.1229334 -1.7804737 0.5476923
3.1208353 -1.7296312 0.54887974
3.1191473 -1.6887376 0.54983479
3.1170263 -1.6373439 0.55103517
3.1148937 -1.5856709 0.55224198
3.1136081 -1.554523 0.55296946
3.1123176 -1.5232537 0.55369979
3.1105902 -1.4813983 0.55467731
3.1084192 -1.428793 0.55590594
3.106236 -1.3758984 0.5571413
3.1044798 -1.3333498 0.55813503
3.7858975 -1.1703749 0.58046895
3.9946938 -1.1615423 0.59225249
3.102273 -1.27987 0.55938411
3.4309258 -1.1855237 0.54800457
3.5964468 -1.1782494 0.58285546
3.1108439 -1.2166553 0.56251925
3.2738538 -1.191909 0.56345004
3.4273207 -1.1854105 0.57268649
3.6616347 1.0810716 0.57509971
3.2875631 1.0651164 0.55944794
3.3719404 1.0829132 0.57017732
3.4604795 1.101588 0.5814358
3.5534952 1.1212072 0.59326363
3.6513357 1.141844 0.60570496
3.0077596 1.0711396 0.55090845
3.0474977 1.0678391 0.55597502
3.1208606 1.0845113 0.56591135
3.1975939 1.1019495 0.57630426
3.2779369 1.1202075 0.58718604
3.3621492 1.1393452 0.59859186
3.4505179 1.1594274 0.6105606
3.0055437 1.1168144 0.56030762
3.0383255 1.1193388 0.58190137
3.111536 1.1371808 0.59242779
3.0038652 1.1535053 0.56530505
3.0021572 1.1949935 0.56617129
2.9998698 1.2505598 0.56733149
2.9975698 1.3064268 0.56849796
2.9952571 1.3625965 0.56967074
2.993515 1.4049149 0.57055432
2.9917645 1.4474254 0.57144195
2.9894204 1.5043635 0.57263076
2.9870634 1.5616136 0.57382607
2.9852879 1.6047478 0.57472676
2.9835036 1.6480792 0.57563144
2.9811144 1.7061203 0.57684332
2.9787111 1.7644818 0.57806188
2.9769008 1.8084552 0.57898003
2.9756889 1.8378789 0.57959431
2.9744742 1.8673847 0.58021039
2.9726455 1.9118073 0.5811379
2.9708095 1.9563954 0.58206886
3.1261864 -1.9217532 0.60933769
3.1247461 -1.8791709 0.60234892
3.1228759 -1.8313988 0.60090333
3.1207826 -1.7808304 0.60224098
3.1186779 -1.7299899 0.60358572
3.1169853 -1.6890976 0.60466731
3.1148584 -1.6377058 0.60602671
3.1129792 -1.588079 0.60292399
3.111865 -1.5548149 0.59716791
3.1105716 -1.5235465 0.59797561
3.1088407 -1.4816923 0.59905678
3.1066642 -1.4290884 0.60041559
3.104476 -1.3761954 0.60178196
3.1027157 -1.3336482 0.60288101
3.7794647 -1.1702069 0.62140137
3.8855627 -1.152716 0.63642931
3.9859266 -1.1471477 0.63563371
4.0834293 -1.1119329 0.66467702
3.1005034 -1.2801701 0.60426247
3.5613508 -1.1751423 0.61753821
3.6413491 -1.157584 0.62961894
3.7252972 -1.1391586 0.64229608
3.8134949 -1.1198007 0.65561497
3.0982788 -1.2263958 0.60565156
3.2688777 -1.1917403 0.59870797
3.3561041 -1.1782911 0.61239618
3.4251754 -1.1735809 0.6104809
3.5004144 -1.1446763 0.63538629
3.5777018 -1.1266733 0.64769906
3.107655 -1.1790516 0.61442578
3.1737418 -1.1810887 0.60782737
3.1855409 -1.1381035 0.63453364
3.2363551 -1.1656569 0.618325
3.3016996 -1.1495517 0.62928057
3.3699586 -1.1327283 0.64072484
3.5433578 1.1805255 0.62313497
3.6410189 1.2027199 0.63636231
3.1881137 1.1558433 0.60343832
3.2682955 1.1753838 0.61496699
3.3523421 1.1958666 0.62705147
3.02914 1.1709137 0.60786533
3.1021981 1.1899285 0.61898351
3.1786189 1.2098188 0.63061345
3.4405406 1.2173612 0.63973284
3.5332055 1.239944 0.65305638
3.6306856 1.2637005 0.66707236
3.0006506 1.1947114 0.60442573
3.0199416 1.2225628 0.63386691
3.0928469 1.2427547 0.64557862
3.2586393 1.2306459 0.64279115
3.3425202 1.2524779 0.65555632
2.9978554 1.2501819 0.61847472
2.9955499 1.3060472 0.61977947
2.9932318 1.3622153 0.62109131
2.9914856 1.4045317 0.62207967
2.9897313 1.4470408 0.6230725
2.9873817 1.5039773 0.62440228
2.985019 1.5612254 0.6257394
2.9832392 1.6043582 0.62674677
2.9814508 1.6476882 0.6277588
2.9790561 1.7057273 0.62911439
2.9766474 1.764087 0.63047737
2.9748321 1.8080587 0.63150436
2.9736183 1.8374817 0.63219154
2.9724002 1.8669865 0.63288057
2.9705672 1.9114079 0.63391811
2.9692476 1.956095 0.621737
3.1244802 -1.922035 0.65262663
3.1228187 -1.8820121 0.65380919
3.1207323 -1.831754 0.65529412
3.118633 -1.7811875 0.65678817
3.1165223 -1.7303486 0.65829027
3.1148248 -1.689458 0.65949845
3.1126912 -1.6380677 0.66101688
3.1107206 -1.5842819 0.65598285
3.1096883 -1.55518 0.6524145
3.108391 -1.5239127 0.653319
3.1066542 -1.4820604 0.65452963
3.1044722 -1.429458 0.65605134
3.1022773 -1.3765669 0.65758133
3.1009531 -1.3339463 0.64762604
3.0987351 -1.2804701 0.64913982
3.9062734 -1.0994372 0.66962564
4.0039992 -1.0779879 0.68438339
4.107079 -1.0553635 0.69994968
3.0965054 -1.2266974 0.65066206
3.6587441 -1.1077958 0.66060996
3.7438207 -1.0879786 0.67416352
3.8332407 -1.0671494 0.68840909
3.9273455 -1.0452293 0.70340103
3.0947113 -1.1834404 0.65188658
3.2488556 -1.121637 0.64568067
3.4413319 -1.1151373 0.65269113
3.516037 -1.0967252 0.66521615
3.5943134 -1.077433 0.67833978
3.6764224 -1.057196 0.69210613
3.7626536 -1.0359432 0.70656353
3.0925484 -1.1334472 0.65556753
3.1361341 -1.1113132 0.65029341
3.1975069 -1.0945116 0.66161692
3.2615371 -1.0769824 0.67343068
3.3149533 -1.1044468 0.65731752
3.3284023 -1.0586768 0.68576765
3.3840208 -1.0864841 0.66947728
3.4562635 -1.0676956 0.68219602
3.5319045 -1.0480232 0.69551313
3.0901976 -1.0854387 0.66600299
3.1475894 -1.0681427 0.67710865
3.4305475 1.2753892 0.66895258
3.5230365 1.2994616 0.6830278
3.6203353 1.3247857 0.69783497
3.0107291 1.2742865 0.65990609
3.0834813 1.2956586 0.67221308
3.1691101 1.2638762 0.65782976
3.2489686 1.2859941 0.67065847
3.3326826 1.3091793 0.68410647
3.4205382 1.3335116 0.6982199
3.5128503 1.3590786 0.71304923
2.9965246 1.3125367 0.66748744
3.1595867 1.3180156 0.68508738
3.2392819 1.3414276 0.69856894
2.9912064 1.3618336 0.67251045
2.9894564 1.4041488 0.67360348
2.9876978 1.4466565 0.67470157
2.9853425 1.5035913 0.67617232
2.9829745 1.5608375 0.67765117
2.9811904 1.6039686 0.6787653
2.9793978 1.6472971 0.67988455
2.9769974 1.7053344 0.68138385
2.9745831 1.7636924 0.68289131
2.9732814 1.8077617 0.67089665
2.9720645 1.8371837 0.67163843
2.970845 1.8666875 0.6723823
2.9690082 1.911108 0.67350233
2.9676855 1.9557936 0.66140413
3.1227744 -1.9223168 0.69591451
3.1211085 -1.8822949 0.69719613
3.1190171 -1.8320383 0.69880545
3.1169128 -1.7814733 0.70042473
3.1147974 -1.7306358 0.70205271
3.113096 -1.6897464 0.70336205
3.1109574 -1.6383574 0.70500767
3.1088071 -1.5866902 0.70666218
3.1075106 -1.5555451 0.70765954
3.10621 -1.5242788 0.70866084
3.1044681 -1.4824278 0.71000099
3.1022797 -1.4298275 0.71168548
3.1000783 -1.3769385 0.71337909
3.0987484 -1.3343196 0.7035557
3.0965245 -1.2808452 0.70523494
3.0942883 -1.2270744 0.70692354
4.0265131 -1.0221295 0.71919954
3.092489 -1.1838191 0.70828193
3.8533249 -1.0135958 0.7217654
3.9487882 -0.99006754 0.73777062
4.0494342 -0.96526194 0.75464475
3.0906737 -1.1293726 0.69867682
3.3982944 -1.0395428 0.69866306
3.611191 -1.0274029 0.70947206
3.6943915 -1.0057646 0.72412002
3.7818038 -0.98303086 0.73950952
3.8737562 -0.95911634 0.75569832
3.0884008 -1.0746982 0.70035994
3.2096424 -1.0503001 0.68908501
3.2744021 -1.031679 0.70158386
3.3420508 -1.0122275 0.71464014
3.4127851 -0.9918887 0.72829199
3.4791231 -0.99506128 0.72736853
3.548023 -0.99855244 0.7262885
3.6283414 -0.97656387 0.74110758
3.7126582 -0.95348084 0.7566644
3.0904315 -1.0346935 0.70611656
3.1101646 -0.99915266 0.71909297
3.1592047 -1.0243673 0.70429969
3.2219515 -1.0054557 0.7169463
3.287456 -0.98571312 0.73014879
3.1709843 -0.97997403 0.73187441
3.6099675 1.3859761 0.72865045
3.3228283 1.3659704 0.71270198
3.4105117 1.3917286 0.72753483
3.5026467 1.4187946 0.74312073
3.5995815 1.4472709 0.75951856
2.992265 1.3779602 0.71209812
3.0741019 1.3486414 0.69888717
3.1500485 1.3722374 0.71238637
3.2295809 1.3969474 0.72652292
3.3129594 1.4228523 0.74134314
3.4004695 1.4500411 0.75689769
2.9879346 1.4038618 0.71224546
3.0647085 1.4017029 0.72560084
3.140496 1.4265413 0.73972678
2.9856644 1.4462721 0.72632915
2.9833038 1.5032048 0.7279408
2.9809303 1.5604494 0.72956133
2.9791417 1.603579 0.73078233
2.977345 1.6469061 0.73200881
2.9753118 1.700125 0.7291559
2.9730351 1.763396 0.72220081
2.97173 1.8074646 0.71028799
2.9705117 1.8368859 0.71108449
2.9692893 1.8663893 0.71188307
2.9674497 1.9108083 0.71308547
2.9656031 1.9553924 0.71429235
3.1206415 -1.9226689 0.75002283
3.1189711 -1.8826485 0.75142831
3.1168737 -1.8323936 0.75319314
3.1147633 -1.7818302 0.75496882
3.1128993 -1.7330055 0.7523039
3.111367 -1.6900344 0.74722463
3.1092236 -1.6386473 0.74899751
3.1070683 -1.5869812 0.75077987
3.1057692 -1.555837 0.75185436
3.104465 -1.5245719 0.75293297
3.1027193 -1.4827222 0.75437677
3.1005256 -1.4301233 0.75619137
3.0983191 -1.3772354 0.75801599
3.0965447 -1.3346925 0.75948375
3.0943143 -1.28122 0.7613284
3.0920713 -1.2274512 0.76318336
3.0902665 -1.1841974 0.76467562
3.0884445 -1.129753 0.75523895
3.970612 -0.9339267 0.77275038
4.0727735 -0.9073571 0.79073656
3.0861657 -1.0750806 0.75709134
3.8012798 -0.92921925 0.77301538
3.8945441 -0.90368664 0.79022306
3.9928248 -0.87678039 0.80835623
3.084332 -1.0310979 0.75858152
3.3559034 -0.96508336 0.74394453
3.4274976 -0.94350529 0.75837439
3.50246 -0.92091209 0.77348322
3.5643973 -0.9482944 0.75755346
3.6457713 -0.92489612 0.77325881
3.7312303 -0.90032339 0.78975254
3.8210895 -0.87448525 0.80709565
3.0825717 -0.98018599 0.75118375
3.1214383 -0.95520306 0.74638605
3.1829314 -0.93494987 0.75984097
3.2344387 -0.95996487 0.74520946
3.3007019 -0.93906975 0.75913477
3.3699651 -0.9172287 0.77369052
3.4424372 -0.89437592 0.7889207
3.5810347 -0.89723027 0.78931993
3.0801742 -0.93136752 0.76196039
3.1328704 -0.91063744 0.77406168
3.2471066 -0.91381323 0.77388287
3.3141448 -0.89173388 0.78855109
3.4924264 1.4786112 0.77324259
3.2198648 1.4525537 0.7545203
3.3030748 1.4798248 0.77002978
3.3904111 1.5084486 0.78630841
3.5891778 1.5086708 0.79043972
3.0553014 1.4548433 0.75235426
3.1309288 1.4809279 0.76710886
3.2101331 1.5082464 0.78256136
3.2931733 1.5368879 0.7987622
3.4821889 1.5385277 0.80341494
2.9817746 1.5029151 0.76676637
3.0458798 1.5080626 0.77914739
3.1213474 1.5353975 0.7945326
2.9788857 1.5600612 0.78147006
2.977093 1.6031895 0.78279781
2.9758058 1.6466131 0.77110118
2.973537 1.7095618 0.76428097
2.971487 1.7631001 0.76150942
2.9696617 1.8070681 0.76280856
2.9684403 1.8364887 0.76367772
2.9672155 1.8659909 0.76454943
2.9653711 1.9104083 0.76586181
2.9635203 1.9549916 0.76717901
3.1185086 -1.9230208 0.80412972
3.1168337 -1.8830018 0.80565894
3.1147301 -1.8327488 0.80757934
3.1126137 -1.7821872 0.80951148
3.1106594 -1.7292707 0.80496418
3.1092062 -1.6903946 0.80205137
3.1070566 -1.6390095 0.80398309
3.1048954 -1.5873451 0.80592549
3.1035922 -1.5562022 0.80709624
3.1027203 -1.5248648 0.79720414
3.1009705 -1.4830161 0.79875147
3.0987716 -1.4304187 0.80069625
3.09656 -1.3775327 0.80265182
3.0947816 -1.334991 0.80422479
3.0925457 -1.2815199 0.80620193
3.0902975 -1.2277527 0.80819005
3.0884893 -1.1845002 0.8097893
3.086216 -1.1301334 0.81179953
3.0839305 -1.0754629 0.81382096
3.0820911 -1.0314819 0.81544721
3.9156928 -0.84728175 0.82535434
4.0154204 -0.81860143 0.84460223
3.0802293 -0.97611952 0.80608416
3.5183454 -0.87043953 0.80487293
3.5979404 -0.84534043 0.82159996
3.6634877 -0.87237918 0.80593848
3.7501152 -0.84627008 0.82339835
3.8412335 -0.81880522 0.84176344
3.9372027 -0.78987592 0.8611064
3.0779061 -0.92052263 0.80810553
3.1950488 -0.88928121 0.78820795
3.2599602 -0.86698639 0.80297589
3.3842399 -0.8686474 0.80388826
3.4576082 -0.84448302 0.81994158
3.5344832 -0.81916392 0.83676213
3.6814981 -0.8189919 0.83915979
3.76931 -0.79129839 0.85761374
3.0779679 -0.88143617 0.80990028
3.1444638 -0.86544293 0.80212796
3.2073417 -0.84295416 0.81698388
3.2730036 -0.81946969 0.83249754
3.3277884 -0.84368998 0.81840736
3.3987341 -0.81932259 0.83454823
3.095289 -0.84226948 0.81565964
3.1562216 -0.81960624 0.83059299
3.5787566 1.5701768 0.82141411
3.2003868 1.5640261 0.81064606
3.380336 1.5669513 0.81576723
3.4719343 1.5985446 0.83363771
3.5683167 1.631788 0.85244155
3.0364447 1.5613611 0.80598032
3.1117513 1.5899501 0.82199818
3.1906254 1.6198928 0.83877456
3.2832572 1.5940423 0.82754052
3.3702443 1.6255498 0.84527421
3.4616625 1.6586623 0.86391127
2.9755573 1.6028974 0.82180858
3.0269957 1.6147392 0.83285344
3.1021409 1.6445856 0.84950554
3.2733247 1.651288 0.85636479
2.9742663 1.6463196 0.81019247
2.9718511 1.7043519 0.81205082
2.9694233 1.7627051 0.81391948
2.9675937 1.8066721 0.81532747
2.9663694 1.8360915 0.81626958
2.9651415 1.865593 0.81721431
2.9632931 1.9100089 0.81863654
2.9614382 1.9545903 0.82006419
3.1168029 -1.9233024 0.84741402
3.1151235 -1.8832846 0.8490423
3.1130157 -1.833033 0.85108709
3.1108942 -1.7824727 0.85314441
3.1087611 -1.7316403 0.85521275
3.1070454 -1.6907551 0.85687637
3.1048896 -1.6393715 0.8589673
3.1027219 -1.5877091 0.86106932
3.1014152 -1.5565672 0.86233658
3.1005399 -1.5252309 0.85254139
3.0987849 -1.4833839 0.85421824
3.0965791 -1.4307885 0.85632581
3.0948012 -1.3778299 0.84728646
3.0930181 -1.3352894 0.84896487
3.0907776 -1.2818197 0.85107428
3.0885241 -1.2280542 0.85319549
3.0867116 -1.1848029 0.85490185
3.0844328 -1.1304379 0.85704666
3.0821419 -1.0757689 0.85920346
3.0802987 -1.0317892 0.86093849
3.0779817 -0.97650552 0.8631196
4.0384283 -0.7593621 0.88150883
3.0756516 -0.92091066 0.86531293
3.6151216 -0.7926048 0.85440612
3.8617187 -0.76215428 0.87703383
3.9590976 -0.73144257 0.89749837
3.0739548 -0.87389499 0.86028033
3.4730172 -0.79380888 0.8514483
3.5508766 -0.76706588 0.86916208
3.6325693 -0.73900288 0.88774812
3.699795 -0.76471281 0.87293315
3.7888272 -0.73538494 0.89241403
3.8825641 -0.70450729 0.91292429
3.0723467 -0.8311615 0.85735375
3.1065373 -0.79691398 0.84381986
3.2198129 -0.79595423 0.8461777
3.2862396 -0.77124739 0.86245751
3.3416378 -0.79492199 0.84871364
3.3556974 -0.74541348 0.87948012
3.4134512 -0.7692374 0.86568075
3.4886639 -0.74233484 0.8834511
3.5675228 -0.71412599 0.90208304
3.7183974 -0.70951951 0.90727502
3.0700009 -0.78607714 0.87063241
3.1179445 -0.75091833 0.87237751
3.1681476 -0.77311337 0.85946548
3.2324662 -0.74826682 0.8757987
3.4283884 -0.71837395 0.89729518
3.3601363 1.6842442 0.87482953
3.4513736 1.7188804 0.89423561
2.9721234 1.6604943 0.84977317
3.0175319 1.6681964 0.85976648
3.0925155 1.6993043 0.87705475
3.1808481 1.6758466 0.86694694
3.2633762 1.7086248 0.88523495
3.3500116 1.7430346 0.90443307
2.9697623 1.7088411 0.86012995
3.0080543 1.721734 0.8867197
3.1710558 1.7318876 0.89516318
2.9673593 1.7623103 0.86632812
2.9655254 1.8062758 0.86784482
2.9642985 1.8356946 0.86885989
2.9630675 1.8651943 0.86987758
2.961215 1.9096093 0.87140977
2.9593554 1.9541891 0.87294775
3.11467 -1.9236543 0.90151769
3.1129863 -1.8836379 0.90326989
3.1108718 -1.8333883 0.90547013
3.1091743 -1.7827582 0.8967762
3.1070361 -1.7319274 0.89897031
3.1053169 -1.6910434 0.90073514
3.1031559 -1.6396611 0.90295321
3.1009834 -1.5880002 0.90518326
3.0996737 -1.5568593 0.90652758
3.0983586 -1.5255971 0.90787709
3.0965989 -1.4837514 0.90968335
3.0943868 -1.4311581 0.91195375
3.0926027 -1.3782014 0.9030782
3.0908146 -1.3356624 0.90488821
3.088567 -1.2821947 0.90716314
3.0867507 -1.2283556 0.89819974
3.0849338 -1.1851057 0.90001321
3.0826499 -1.1307421 0.90229261
3.0803535 -1.076075 0.90458471
3.0785062 -1.0320964 0.90642875
3.0761838 -0.97681439 0.9087466
3.0738485 -0.92122114 0.91107738
3.0719693 -0.87649548 0.91295284
3.9813881 -0.67195386 0.93454766
3.0700817 -0.8315528 0.91483712
3.6503067 -0.68451321 0.92164236
3.8086815 -0.67850536 0.92781568
3.9037788 -0.64583784 0.94945145
3.0677674 -0.77178276 0.91239375
3.299675 -0.72230375 0.89286572
3.3699615 -0.69514781 0.91071475
3.5045497 -0.69004244 0.91596085
3.58444 -0.66032374 0.93554032
3.7373157 -0.65338898 0.94219995
3.0660851 -0.72045773 0.91265655
3.1295135 -0.70426911 0.9013409
3.1802461 -0.72595018 0.88875431
3.1925161 -0.67810225 0.9184674
3.2453046 -0.69987667 0.90585577
3.3132987 -0.67262328 0.92372888
3.4435534 -0.66671467 0.92940307
3.063426 -0.68405795 0.93261266
3.0802054 -0.6831969 0.91357416
3.0828755 1.7541065 0.90464616
3.2534125 1.7660537 0.91415149
3.3398705 1.8019216 0.93408531
3.441067 1.7791998 0.92461085
2.9652002 1.7766418 0.9061653
2.9985631 1.7753513 0.91371322
3.1612482 1.7880163 0.92342365
3.2434323 1.8235743 0.94311416
3.4307437 1.8396208 0.95503718
2.9639745 1.8059785 0.90723199
2.9890566 1.8290484 0.9407469
3.0732205 1.8089929 0.93227971
3.1514256 1.8442326 0.95172834
2.9622276 1.8352971 0.92144853
2.960994 1.8647964 0.92253923
2.9591367 1.9092097 0.92418146
2.9572732 1.953788 0.92582977
3.1125371 -1.9240065 0.95561987
3.1108487 -1.8839915 0.95749581
3.1087279 -1.8337432 0.95985162
3.1070244 -1.7831151 0.95131433
3.1048803 -1.7322862 0.95366573
3.1031556 -1.6914033 0.95555717
3.1014221 -1.6399508 0.9469381
3.0992444 -1.5882912 0.949296
3.0979319 -1.5571511 0.95071739
3.0966139 -1.52589 0.95214427
3.0948501 -1.4840455 0.95405424
3.092633 -1.4314535 0.95645469
3.0904038 -1.3785727 0.95886832
3.0886104 -1.3360354 0.96080995
3.0863569 -1.2825696 0.96325028
3.0845337 -1.2287326 0.95445359
3.0827115 -1.1854842 0.95640075
3.0808072 -1.1341928 0.95224088
3.0785654 -1.0763808 0.94996488
3.0767136 -1.0324036 0.95191765
3.0743859 -0.97712326 0.95437235
3.0720453 -0.92153168 0.95684093
3.0701623 -0.87680721 0.95882696
3.0682695 -0.83186591 0.96082258
3.0658908 -0.77537024 0.96333128
3.0634983 -0.71855307 0.96585417
3.0625129 -0.68421668 0.95578796
3.2334366 1.8811872 0.97212338
3.3297126 1.8609052 0.96378618
3.4204028 1.9001439 0.9855147
3.0635507 1.8639624 0.95995539
2.9575787 1.9089098 0.96375924
2.9557114 1.9534872 0.96549022
3.1108313 -1.9242876 0.99890041
3.1091385 -1.8842742 1.0008755
3.1070127 -1.8340273 1.0033555
3.1048746 -1.7834721 1.0058509
3.1027246 -1.7326448 1.0083597
3.1009951 -1.6917634 1.0103775
3.0992548 -1.6403128 1.0019177
3.0970707 -1.5886551 1.0044354
3.0957546 -1.5575161 1.0059531
3.094696 -1.5283139 1.0029459
3.093101 -1.4843397 0.99842393
3.0908794 -1.4317491 1.0009546
3.0886447 -1.3788698 1.0034992
3.0868473 -1.3363336 1.0055461
3.0845885 -1.2828693 1.0081187
3.0823169 -1.2291094 1.0107057
3.0804894 -1.1858625 1.0127867
3.0784123 -1.1287214 1.0070455
3.0763304 -1.0767632 1.0066884
3.0747454 -1.0349609 1.0041212
3.0725882 -0.97743195 0.99999708
3.070262 -0.93307334 1.0135138
3.0702355 -0.91809827 0.99896634
3.0683546 -0.87711906 1.0046999
3.066458 -0.83217895 1.0068069
3.0640736 -0.77568501 1.0094553
3.0619884 -0.72264308 1.0080831
3.1086986 -1.9246397 1.0529996
3.1072142 -1.8871162 1.0522527
3.1052983 -1.8343114 1.0468585
3.1031544 -1.7837577 1.049479
3.1009994 -1.7329316 1.0521134
3.0992665 -1.6920514 1.0542325
3.0970879 -1.6406748 1.0568956
3.0948973 -1.5890188 1.0595732
3.0935776 -1.5578809 1.0611873
3.0924251 -1.5244908 1.0562723
3.0909152 -1.4847071 1.0538845
3.0889084 -1.4347377 1.0536584
3.0868857 -1.379167 1.0481287
3.0850842 -1.3366318 1.0502809
3.0828199 -1.2831694 1.052986
3.0805433 -1.2294106 1.0557059
3.078712 -1.1861651 1.057894
3.0764098 -1.1318071 1.0606444
3.0740945 -1.0771456 1.0634102
3.0724077 -1.0309215 1.0589195
3.0703409 -0.97781807 1.0570261
3.06846 -0.93338341 1.0592469
3.0679669 -0.91099906 1.0489149
3.0665472 -0.87743074 1.0505718
3.064646 -0.83249211 1.0527898
3.0622561 -0.77599978 1.0555782
3.0603352 -0.73058569 1.0578198
3.0839522 -0.70695245 1.078384
3.1724975 -0.70359385 1.0819024
3.2662508 -0.70003784 1.0856277
3.106566 -1.9249916 1.1070973
3.1049252 -1.882086 1.1048262
3.1031544 -1.8346665 1.1012356
3.1010053 -1.7841144 1.1040125
3.0992746 -1.7332187 1.0958662
3.0975375 -1.6923397 1.0980865
3.0953541 -1.6409643 1.1008767
3.0931587 -1.5893099 1.1036822
3.0918357 -1.5581729 1.1053734
3.0905073 -1.5269148 1.1070709
3.0887291 -1.4850745 1.1093434
3.0865543 -1.4294418 1.1075901
3.0846868 -1.3795383 1.1039143
3.08288 -1.3370047 1.106198
3.0809925 -1.2865633 1.1024909
3.0787697 -1.2297122 1.1007051
3.0769341 -1.1864679 1.1030003
3.0746264 -1.1321113 1.1058851
3.0723064 -1.0774513 1.1087861
3.0704393 -1.0334787 1.1111199
3.0680933 -0.97820401 1.1140535
3.0662069 -0.93377113 1.1164117
3.0657113 -0.9113875 1.1061488
3.0642877 -0.87782037 1.1079097
3.0626576 -0.83510447 1.1055478
3.0604389 -0.77631462 1.1016998
3.5121753 -0.66448343 1.1068451
3.6724846 -0.62970215 1.1257405
3.7989652 -0.62302089 1.1315882
3.8486667 -0.59147716 1.1465067
3.9344304 -0.61586505 1.1378517
3.9879878 -0.58307493 1.1534033
3.0580301 -0.71950245 1.1046447
3.2061424 -0.67836666 1.0936917
3.3020773 -0.67401457 1.097815
3.3388174 -0.64732808 1.1103131
3.4039016 -0.66939533 1.1021916
3.4431221 -0.64181817 1.1151357
3.483387 -0.61350667 1.1284246
3.5541224 -0.63595462 1.1202679
3.5972233 -0.60664141 1.1340597
3.7187169 -0.59931427 1.140074
3.7662823 -0.56805027 1.1548207
3.8998513 -0.55899191 1.1618701
3.0572057 -0.67373586 1.1073736
3.1155999 -0.68247414 1.0898002
3.1480083 -0.6574074 1.101491
3.1812053 -0.63173085 1.113466
3.2406197 -0.65251529 1.1057729
3.2759609 -0.62601632 1.1181567
3.3121982 -0.59884501 1.1308546
3.3765051 -0.61995256 1.1231338
3.4151788 -0.59186113 1.1362897
3.5247381 -0.58443117 1.1420721
3.6415257 -0.57651091 1.148236
3.0541739 -0.63945121 1.1204131
3.0724752 -0.62677705 1.1153293
3.1237342 -0.61162627 1.1209077
3.1564896 -0.58550924 1.1330647
3.21522 -0.6054219 1.1257362
3.2500827 -0.57845688 1.1383122
3.3493664 -0.57097566 1.1438787
3.4548779 -0.56302524 1.1497943
3.0681119 -0.59216857 1.1281097
3.1048601 -1.9252732 1.1503742
3.1031537 -1.8852632 1.1526957
3.101011 -1.8350214 1.1556112
3.0988553 -1.7844714 1.1585443
3.0971191 -1.7335774 1.1505556
3.095377 -1.6926996 1.1529022
3.0934055 -1.6438844 1.1529517
3.0914207 -1.5896009 1.1477901
3.0900939 -1.5584648 1.1495582
3.0887628 -1.5272076 1.1513333
3.0869806 -1.4853686 1.1537093
3.0847406 -1.4327834 1.1566955
3.0824878 -1.3799095 1.159698
3.0806766 -1.3373777 1.1621134
3.0786169 -1.2811834 1.1568843
3.0765529 -1.2300889 1.1569525
3.0751562 -1.1867704 1.1481054
3.0728431 -1.1324158 1.1511248
3.070518 -1.0777574 1.154161
3.0686471 -1.0337858 1.1566036
3.0662951 -0.97851288 1.159674
3.064405 -0.93408114 1.1621422
3.0634561 -0.91177583 1.1633812
3.0620277 -0.87821007 1.1652458
3.0602918 -0.83097559 1.160966
3.0584011 -0.77952182 1.1563084
3.0562067 -0.71981889 1.1509056
3.9525867 -0.52552223 1.1776993
3.0542641 -0.67411113 1.1533881
3.5672204 -0.55456007 1.1560931
3.6870806 -0.54552853 1.1628132
3.7339425 -0.51365745 1.1778085
3.8152387 -0.53587157 1.1699986
3.8656487 -0.50273776 1.1856272
3.0528014 -0.63969028 1.1552576
3.0518227 -0.61666811 1.1565078
3.3875029 -0.54238081 1.1572418
3.4956427 -0.5334149 1.1636617
3.5375175 -0.50299859 1.1779066
3.6108818 -0.52386045 1.1705029
3.655771 -0.49229732 1.1853181
3.7821674 -0.48085919 1.19324
3.8318162 -0.44709244 1.2091273
3.9175777 -0.46860531 1.2017269
3.9710951 -0.43342873 1.2183191
3.0503497 -0.58202153 1.1583894
3.1158321 -0.55297053 1.1463224
3.1900482 -0.55875182 1.14552
3.2244399 -0.53133023 1.1582843
3.2858255 -0.55081093 1.1512059
3.3224831 -0.52245796 1.1644293
3.3600898 -0.49337044 1.1779952
3.4266446 -0.51303184 1.1709574
3.4668326 -0.48289859 1.1850398
3.5805478 -0.47174272 1.1925445
3.7019408 -0.45983371 1.2005559
3.0534842 -0.52813154 1.1655043
3.1077108 -0.49428645 1.1717447
3.165102 -0.51249945 1.1651268
3.1990299 -0.48463061 1.1780756
3.2596962 -0.50321943 1.1713696
3.2958498 -0.47439298 1.184788
3.3986835 -0.46351951 1.1919172
3.5081091 -0.45194909 1.1995034
3.0521724 -0.47666144 1.1781489
3.1403778 -0.4666591 1.1845589
3.2338061 -0.45606446 1.1913483
3.1027272 -1.9256251 1.2044687
3.101444 -1.885546 1.1960706
3.0992961 -1.8353055 1.1991103
3.097136 -1.7847567 1.2021688
3.0949636 -1.733936 1.2052436
3.0932162 -1.6930599 1.2077167
3.0910802 -1.6387124 1.2062855
3.0892475 -1.5899646 1.2029233
3.0879171 -1.5588298 1.2047879
3.0868454 -1.5296313 1.202106
3.0852318 -1.4856627 1.198074
3.0829864 -1.433079 1.2011902
3.0807292 -1.3802066 1.2043238
3.0789135 -1.3376759 1.2068443
3.0766308 -1.2842188 1.2100124
3.0743532 -1.2413256 1.2238014
3.0743299 -1.2268457 1.2096639
3.0729344 -1.1871487 1.2044851
3.0708427 -1.1355031 1.204682
3.0687296 -1.0780632 1.1995348
3.0668547 -1.0340929 1.2020862
3.0644975 -0.97882164 1.2052934
3.0626028 -0.93439126 1.2078716
3.0616515 -0.91208667 1.2091659
3.0602202 -0.87852186 1.2111135
3.0583036 -0.83358794 1.2137208
3.0559518 -0.7738294 1.2122391
3.0539281 -0.72021443 1.2087302
3.0524368 -0.67442888 1.199761
3.0509708 -0.64000916 1.2017157
3.0499902 -0.61698747 1.2030232
3.0485139 -0.58234197 1.2049904
3.6247823 -0.43961233 1.2075921
3.7494469 -0.42643052 1.2162348
3.8829529 -0.41231379 1.2254906
3.9356456 -0.37647712 1.2423515
3.0460417 -0.52431452 1.2082856
3.3329356 -0.44482338 1.1985523
3.4383035 -0.43287483 1.2062093
3.550519 -0.4201498 1.2143642
3.59411 -0.38746509 1.2296387
3.6702721 -0.40656996 1.2230667
3.7170718 -0.37257636 1.2389868
3.7983479 -0.39204642 1.2323742
3.8487065 -0.35663748 1.2489944
3.0435557 -0.46595228 1.2115998
3.0836422 -0.44927466 1.1908302
3.1738484 -0.43835214 1.1976882
3.2877505 -0.41175386 1.2119366
3.3709898 -0.41448143 1.212676
3.4100513 -0.38333648 1.2271736
3.4789917 -0.40140411 1.2208868
3.5207913 -0.3690736 1.2359651
3.6389315 -0.35385764 1.2453445
3.765238 -0.3375898 1.255372
3.900589 -0.32015723 1.2661177
3.041568 -0.42294255 1.2179632
3.0597837 -0.40465564 1.2097496
3.1323836 -0.40685728 1.2104717
3.2081525 -0.40934014 1.2111447
3.2433219 -0.37959653 1.2249404
3.2793896 -0.34909308 1.2390885
3.34356 -0.36591059 1.233237
3.382072 -0.33427638 1.2479353
3.4501607 -0.35135609 1.2420599
3.5637491 -0.33584744 1.2514614
3.0390806 -0.37188074 1.2287269
3.0915849 -0.37619287 1.2229081
3.1241617 -0.34703618 1.2363877
3.1827328 -0.36304045 1.2307612
3.100595 -1.9259765 1.2585617
3.0993066 -1.8858991 1.2502875
3.0971529 -1.8356605 1.2534828
3.0953562 -1.7879678 1.250278
3.0932388 -1.7342227 1.2489924
3.0914876 -1.6933479 1.2515669
3.0892866 -1.6419775 1.2548022
3.087074 -1.5903285 1.2580551
3.0857401 -1.5591946 1.2600157
3.0845737 -1.5258087 1.2554729
3.083046 -1.4860301 1.2535282
3.081017 -1.4360673 1.2538588
3.0789704 -1.3805037 1.2489483
3.0771506 -1.3379743 1.2515744
3.074863 -1.2845185 1.2548748
3.0730238 -1.2415514 1.2575275
3.0721009 -1.2199827 1.2588593
3.0707123 -1.1875272 1.2608631
3.0684443 -1.1300279 1.2595588
3.0664945 -1.0784454 1.2562504
3.0648873 -1.0366499 1.2542523
3.0626993 -0.97913033 1.2509115
3.0608003 -0.93470138 1.2535998
3.0598471 -0.91239738 1.2549492
3.0584123 -0.87883353 1.2569799
3.0564919 -0.83390093 1.2596985
3.0540774 -0.77741623 1.263116
3.0516496 -0.72060996 1.266553
3.0501525 -0.6748262 1.2577255
3.0486825 -0.64040768 1.2597866
3.0481567 -0.61730713 1.2495369
3.0466778 -0.58266258 1.25159
3.0442002 -0.52463686 1.255029
3.0417085 -0.46627635 1.2584877
3.6850362 -0.31928766 1.2615
3.8148322 -0.30156624 1.2722429
3.0397029 -0.41931781 1.2612706
3.4913599 -0.31850648 1.257351
3.6079133 -0.30168813 1.2673928
3.732481 -0.2837134 1.278125
3.7813241 -0.24709022 1.2952402
3.8659189 -0.26445866 1.2896214
3.918566 -0.22621745 1.3075308
3.0376875 -0.37212598 1.2640672
3.2174208 -0.3328526 1.2447397
3.3163905 -0.31780058 1.2536027
3.3543613 -0.2856878 1.2684975
3.4216115 -0.30179781 1.2630261
3.4622207 -0.26844078 1.2785248
3.533695 -0.28475142 1.2730635
3.5772128 -0.25005317 1.2892152
3.6533356 -0.26655561 1.2837781
3.7000709 -0.23040777 1.3006368
3.831629 -0.20937115 1.3128673
3.0361705 -0.33658522 1.2661735
3.0459402 -0.31906044 1.2589982
3.0996499 -0.30198753 1.2554792
3.1575422 -0.31715983 1.2501999
3.191757 -0.28653693 1.2643573
3.2529914 -0.30189723 1.2590736
3.2894773 -0.2701447 1.2737765
3.3269153 -0.23756403 1.2888631
3.3933401 -0.25272214 1.2837878
3.4333687 -0.21886921 1.2994896
3.5039432 -0.23416901 1.2944486
3.6219645 -0.21437144 1.3058246
3.0366559 -0.28051502 1.2745565
3.0753551 -0.25733811 1.2744015
3.1494532 -0.25616801 1.2766299
3.2448277 -0.23903787 1.286317
3.0316279 -0.24122047 1.2836912
3.1078398 -0.22663265 1.2885549
3.7332523 0.19507986 1.3078537
3.8138437 0.21695501 1.3030741
3.3820691 0.18341893 1.2822754
3.4919512 0.18706757 1.2902787
3.6144121 0.20748323 1.3015879
3.7145903 0.22057313 1.3037468
3.0690334 0.16753739 1.2786387
3.1731522 0.17439145 1.2776637
3.2676713 0.17671889 1.2840745
3.5298657 0.22730619 1.3049986
3.0142524 0.18802482 1.2851325
3.0466743 0.18592113 1.2719735
3.1149092 0.18222231 1.2707657
3.0988894 -1.9262583 1.3018349
3.0971694 -1.8862522 1.3045033
3.09501 -1.8360155 1.3078537
3.0930507 -1.7828836 1.30321
3.091083 -1.7345815 1.3036771
3.0895879 -1.6957276 1.3018552
3.0875533 -1.642267 1.2987782
3.0853355 -1.5906193 1.302159
3.0839989 -1.5594865 1.3041968
3.0826566 -1.5282323 1.3062426
3.0808604 -1.4863977 1.3089811
3.078661 -1.4307723 1.3078474
3.0767717 -1.3808749 1.3047277
3.0752149 -1.3404486 1.3028713
3.0730946 -1.2848184 1.2997358
3.0712519 -1.2418525 1.302495
3.0703268 -1.2202845 1.3038801
3.0689344 -1.1878299 1.3059642
3.0666037 -1.1334804 1.3094546
3.0642593 -1.0788277 1.3129641
3.0625479 -1.0326111 1.3091031
3.0606835 -0.98226917 1.3049018
3.0589983 -0.93501139 1.2993267
3.058043 -0.91270816 1.3007314
3.0566049 -0.87914532 1.3028451
3.0546799 -0.83421403 1.3056749
3.0522599 -0.77773094 1.3092322
3.0498266 -0.7209264 1.3128098
3.0478685 -0.67522335 1.3156883
3.0463941 -0.64080614 1.3178557
3.0458658 -0.61770654 1.3076775
3.0443826 -0.58306324 1.3098379
3.0423589 -0.52495909 1.301771
3.0398607 -0.46660033 1.3053743
3.0378513 -0.41964328 1.3082734
3.0358315 -0.37245283 1.3111868
3.0343106 -0.33691311 1.3133812
3.0332932 -0.31314123 1.3148485
3.5468259 -0.19894433 1.3108152
3.6680021 -0.17766404 1.3229113
3.7481763 -0.19319987 1.3179899
3.7977142 -0.15488464 1.3358597
3.8834634 -0.17050606 1.3310304
3.0317619 -0.27736461 1.3170574
3.3653429 -0.20412213 1.3043482
3.4047999 -0.16978443 1.3202485
3.474489 -0.18409264 1.3156198
3.5167468 -0.14835399 1.3321962
3.5909173 -0.1627267 1.3276432
3.6362703 -0.1254732 1.3449525
3.7153835 -0.13988578 1.3404968
3.764168 -0.10098916 1.3586029
3.8487494 -0.11541164 1.3542696
3.0340247 -0.22618705 1.3146434
3.1411285 -0.19516701 1.3030586
3.2009256 -0.20881295 1.2984896
3.2364068 -0.17617017 1.3135579
3.299731 -0.18989825 1.3090348
3.3376157 -0.15599066 1.3247107
3.4453278 -0.13451463 1.33658
3.56019 -0.11161298 1.3492376
3.0276515 -0.1813215 1.3229873
3.0833211 -0.18197531 1.3074756
3.1161575 -0.15010142 1.3221469
3.175252 -0.16291249 1.3179259
3.2102416 -0.12983894 1.3331708
3.2728043 -0.14268392 1.3290154
3.3101547 -0.10832119 1.3448777
3.3765101 -0.12117934 1.3408045
3.4869711 -0.098274112 1.3533615
3.0590203 -0.1377148 1.3262279
3.1498129 -0.11743206 1.3371844
3.6780205 0.18022782 1.3492879
3.7054379 0.18760055 1.3287195
3.8217468 0.18790501 1.3496134
3.325048 0.16674608 1.3297392
3.3590186 0.17667907 1.3014582
3.4194598 0.16643947 1.3486352
3.4553769 0.17666012 1.319717
3.5698531 0.18017358 1.3290584
3.0224335 0.15282005 1.3224264
3.0498633 0.16148037 1.2961781
3.110136 0.15495902 1.3303378
3.1400373 0.16417164 1.3038021
3.2247658 0.16383678 1.3209687
3.4437721 0.23044437 1.3055823
3.7457082 0.29144388 1.347839
3.0128193 0.18776685 1.3215119
3.2073765 0.23906106 1.3071842
3.2827642 0.23631316 1.3066734
3.3614867 0.23344356 1.3061398
3.4697292 0.29656225 1.3466693
3.557415 0.29493588 1.3470411
3.6493049 0.29323179 1.3474305
3.0106709 0.23802906 1.324553
3.065794 0.24422187 1.308144
3.1351168 0.24169499 1.3076741
3.2291954 0.30102307 1.3456498
3.3058658 0.29960114 1.3459748
3.3859653 0.29811555 1.3463143
3.0971837 -1.9265397 1.3451072
3.0954595 -1.8865349 1.3478743
3.0932951 -1.8362997 1.3513492
3.0911171 -1.7857559 1.3548454
3.0889275 -1.7349401 1.3583604
3.087338 -1.6919763 1.3547482
3.0853863 -1.6426291 1.3537469
3.0835972 -1.5909104 1.346262
3.0822573 -1.5597782 1.3483771
3.0809121 -1.5285251 1.3505
3.0791118 -1.4866915 1.3533419
3.0768487 -1.4341133 1.3569139
3.0745733 -1.3812462 1.3605052
3.0729158 -1.3365438 1.3568259
3.0708845 -1.2851931 1.3558105
3.0694795 -1.2421535 1.3474613
3.0685523 -1.2205861 1.3488997
3.067157 -1.1881324 1.3510643
3.0648208 -1.1337847 1.3546889
3.0624712 -1.0791335 1.3583338
3.0605812 -1.0351679 1.361266
3.0582619 -0.9767009 1.3602703
3.0567458 -0.93539888 1.3564838
3.0557873 -0.91309655 1.3579572
3.0547976 -0.87945694 1.3487092
3.0528677 -0.83452708 1.3516501
3.0504425 -0.77804565 1.3553472
3.0480034 -0.72124285 1.3590654
3.0460413 -0.67554116 1.362057
3.0445633 -0.64112496 1.3643097
3.0435748 -0.61810583 1.3658164
3.0420873 -0.58346397 1.368084
3.0402963 -0.52825236 1.3570833
3.0380137 -0.46692434 1.3522593
3.0359993 -0.41996872 1.3552749
3.0339751 -0.37277967 1.3583052
3.0324507 -0.33724099 1.3605871
3.0314307 -0.31346989 1.3621137
3.029896 -0.2776944 1.364411
3.0278418 -0.22979444 1.3674872
3.6829398 -0.087138712 1.3627642
3.8144178 -0.060924113 1.3772529
3.0253112 -0.16607994 1.3664677
3.4164555 -0.085427701 1.3573329
3.5297773 -0.061022222 1.370611
3.6048696 -0.073826611 1.3667638
3.6508393 -0.034949601 1.3847961
3.7309835 -0.04767561 1.3811005
3.7804623 -0.0070334077 1.3999845
3.8662007 -0.019636869 1.396472
3.0264468 -0.10813761 1.3525194
3.0914109 -0.10544121 1.3410635
3.1843193 -0.083937049 1.352602
3.2645435 -0.078511 1.3568296
3.348496 -0.073046982 1.3611605
3.3878677 -0.036824584 1.3778812
3.4574947 -0.048696995 1.3743141
3.4996743 -0.010946274 1.391767
3.5737946 -0.022715986 1.3883489
3.6190765 0.016690016 1.4065962
3.6981549 0.0050657392 1.4033566
3.0210397 -0.060155213 1.3664026
3.0668857 -0.061181128 1.3598105
3.1121166 -0.050037146 1.3657224
3.1586359 -0.038458526 1.3718539
3.2197087 -0.049584687 1.3684143
3.256016 -0.014341593 1.3846363
3.3207524 -0.025380433 1.3813196
3.3595607 0.011302054 1.3982282
3.428313 0.0003849864 1.3950578
3.0425794 -0.017315626 1.3783906
3.1331882 0.0066024661 1.3909292
3.1935329 -0.0036872625 1.3878375
3.611222 0.16226548 1.3994207
3.6509988 0.17296165 1.3695676
3.7640202 0.17283326 1.3913546
3.2589815 0.14742833 1.3847464
3.2916615 0.15698391 1.357537
3.372726 0.15314108 1.3862658
3.3959389 0.15974647 1.3675747
3.4819627 0.1558519 1.3974206
3.5191379 0.16613919 1.3685038
3.0125158 0.1498875 1.3676525
3.0710664 0.14292163 1.3650106
3.1624017 0.14511198 1.3746032
3.1932595 0.15437716 1.3480644
3.0109084 0.18742257 1.3700165
3.7775805 0.36403507 1.3930014
3.0087552 0.23768348 1.3731823
3.5856018 0.36413008 1.3900559
3.6792643 0.36408418 1.3914934
3.0076134 0.2756272 1.363386
3.0121095 0.30294865 1.3548594
3.0852973 0.30369169 1.3450397
3.1557381 0.30238515 1.3453383
3.3294659 0.36425608 1.3861248
3.4109836 0.36421591 1.3873761
3.4962733 0.36417407 1.3886849
3.020978 0.34537083 1.3740889
3.1051955 0.36436611 1.3826829
3.1767867 0.36433095 1.3837817
3.2514751 0.36429423 1.384928
3.0950513 -1.9268913 1.3991958
3.0933225 -1.886888 1.4020869
3.0914106 -1.8386416 1.4012196
3.0893979 -1.7860413 1.3984649
3.0872033 -1.7352269 1.4021057
3.085438 -1.694356 1.4050341
3.0832202 -1.6429908 1.4087143
3.0814242 -1.5912743 1.4013891
3.0800807 -1.5601432 1.4036005
3.0787315 -1.5288913 1.4058204
3.077363 -1.4869857 1.3977017
3.0750952 -1.4344089 1.4014038
3.0728145 -1.3815432 1.405126
3.0709805 -1.3390179 1.4081203
3.0686743 -1.285568 1.4118837
3.0672646 -1.2425299 1.4036676
3.0663345 -1.2209632 1.4051726
3.0649354 -1.1885108 1.4074376
3.0630381 -1.1340888 1.3999223
3.060683 -1.0794394 1.4037025
3.0587885 -1.035475 1.4067435
3.0564075 -0.98021096 1.4105663
3.0544932 -0.93578649 1.4136392
3.0535321 -0.91348493 1.4151818
3.0525382 -0.87984663 1.4060376
3.0508816 -0.83713877 1.404363
3.0486255 -0.77836037 1.4014612
3.046181 -0.72155917 1.4053198
3.0442138 -0.67585891 1.4084245
3.0427325 -0.64144379 1.4107624
3.0417418 -0.61842531 1.4123261
3.040251 -0.58378446 1.4146795
3.0378084 -0.52240384 1.413833
3.03599 -0.46963888 1.4060155
3.0341475 -0.42029414 1.4022751
3.032119 -0.37310648 1.4054222
3.0305908 -0.33756894 1.4077923
3.0295687 -0.31379855 1.4093777
3.0280304 -0.27802414 1.4117635
3.0259714 -0.23012573 1.414958
3.0233822 -0.16990173 1.4189745
3.0212483 -0.10923994 1.4110724
3.7468765 0.046270072 1.4224684
3.8314419 0.034841597 1.4194415
3.0196249 -0.0604074 1.4023207
3.4698761 0.038622499 1.4127088
3.543041 0.027867198 1.4097114
3.5876465 0.067789257 1.4281681
3.6656771 0.057243764 1.4253751
3.713655 0.098996222 1.4447087
3.7970679 0.08871758 1.4421569
3.018048 -0.023691714 1.4047239
3.0169935 0.00086832047 1.4063317
3.0748737 0.016546011 1.3939167
3.2293303 0.031981289 1.4042336
3.293277 0.021827281 1.4012847
3.3315308 0.058959126 1.4183767
3.3994215 0.048979163 1.4155951
3.440378 0.087691724 1.4334395
3.512603 0.077931046 1.4308542
3.6335442 0.10886776 1.4471595
3.7630718 0.14200097 1.4646225
3.8365262 0.1450327 1.4591932
3.0246739 0.040514708 1.4127156
3.1079731 0.05125165 1.40983
3.1852486 0.059825718 1.4153633
3.2660646 0.068582535 1.4210587
3.3037722 0.10615331 1.4383295
3.370816 0.097092688 1.4359297
3.4336097 0.14247125 1.4350327
3.482476 0.12748313 1.4517813
3.5584528 0.13834029 1.4420447
3.6805277 0.1510343 1.4517387
3.7217727 0.16180295 1.4219092
3.019685 0.089352369 1.4270638
3.0829875 0.095494688 1.4285591
3.1171906 0.10547483 1.430444
3.1767113 0.12332487 1.4428774
3.2239163 0.12826645 1.4270597
3.3160429 0.13701147 1.4319081
3.3498166 0.146622 1.4047129
3.457624 0.14911658 1.416353
3.0139809 0.13796955 1.4164664
3.0423465 0.13407284 1.390498
3.1220934 0.13300979 1.4092684
3.008997 0.18707842 1.4185201
3.0068393 0.23733765 1.4218102
3.005214 0.27519351 1.4242882
3.0046077 0.30060416 1.4137498
3.6144295 0.4349373 1.4340707
3.7099187 0.43662769 1.4366046
3.0034533 0.338808 1.4040016
3.3535724 0.43031925 1.4271481
3.4365494 0.43178827 1.4293504
3.5234084 0.43332595 1.4316552
3.0012856 0.38555568 1.4110922
3.1254997 0.42628163 1.421096
3.198271 0.42757004 1.4230269
3.274224 0.42891437 1.4250424
2.9991312 0.42820781 1.4220234
3.0557139 0.42504591 1.4192436
3.0929189 -1.9272432 1.4532831
3.0911853 -1.8872414 1.4562976
3.0891786 -1.8349515 1.4537077
3.0872483 -1.7863982 1.4529878
3.085479 -1.7355138 1.4458499
3.08371 -1.694644 1.4488795
3.0814867 -1.6432803 1.4526869
3.0792513 -1.5916378 1.4565148
3.0779037 -1.560508 1.4588224
3.0765512 -1.5292568 1.4611387
3.0751779 -1.4873528 1.45315
3.073127 -1.4373965 1.454037
3.0710561 -1.3818402 1.4497457
3.0692172 -1.3393164 1.4528451
3.0669069 -1.2858678 1.4567409
3.0650489 -1.2429061 1.459872
3.0641162 -1.2213404 1.4614439
3.0627131 -1.188889 1.463809
3.0608089 -1.1344693 1.456462
3.0588953 -1.0797452 1.4490699
3.0569966 -1.0357821 1.4522197
3.0546095 -0.98051971 1.4561791
3.0526912 -0.93609655 1.459362
3.0517282 -0.91379565 1.4609599
3.0502789 -0.88023627 1.4633642
3.0485132 -0.83301085 1.4598446
3.0465901 -0.7815671 1.4560151
3.044358 -0.72187567 1.4515731
3.0423868 -0.67617673 1.4547908
3.0409024 -0.64176261 1.4572139
3.0399094 -0.61874485 1.4588346
3.0384152 -0.5841049 1.4612734
3.035912 -0.52608705 1.4653587
3.0335712 -0.46534398 1.4625955
3.0321195 -0.42302176 1.4561565
3.0302622 -0.37343338 1.4525379
3.0287311 -0.33789688 1.4549961
3.0277066 -0.31412715 1.4566402
3.0261652 -0.27835381 1.4591148
3.0241013 -0.23045689 1.4624277
3.0215061 -0.17023474 1.4665933
3.0188954 -0.10965854 1.4707832
3.0175605 -0.063237786 1.4572233
3.0161581 -0.024029195 1.4527047
3.0151007 0.0005300045 1.454373
3.01351 0.037493467 1.456884
3.4099138 0.13591403 1.4534645
3.0113797 0.086987138 1.4602462
3.0092382 0.13673335 1.4636254
3.0070863 0.18673438 1.4670223
3.0049233 0.23699206 1.4704367
3.0032949 0.27484661 1.4730084
3.0022049 0.30016965 1.4747287
3.0015275 0.33845907 1.4528795
2.9993334 0.38949901 1.4562838
2.9976807 0.42794412 1.458848
3.0912132 -1.9275246 1.4965515
3.0894759 -1.8875237 1.4996653
3.0872943 -1.8372934 1.5035753
3.0850992 -1.7867547 1.5075092
3.0833232 -1.7358723 1.5005287
3.0815492 -1.695004 1.5036845
3.0796957 -1.6465425 1.5011386
3.077513 -1.591929 1.500614
3.0761626 -1.5607998 1.5029985
3.0748069 -1.5295498 1.5053923
3.0729923 -1.4877205 1.5085965
3.0707691 -1.4321021 1.5080826
3.0688574 -1.3822116 1.5055187
3.0674546 -1.3396145 1.4975688
3.0651386 -1.2861674 1.5015968
3.063277 -1.2432071 1.5048343
3.0623419 -1.221642 1.5064595
3.0609357 -1.1891917 1.5089053
3.0585809 -1.1348494 1.5130006
3.0566602 -1.0801274 1.5057774
3.0550311 -1.0383385 1.5043485
3.0528126 -0.98082834 1.501791
3.0508895 -0.93640655 1.5050838
3.0499239 -0.91410631 1.5067368
3.0484715 -0.880548 1.5092243
3.0465267 -0.83562255 1.5125543
3.0441375 -0.77587563 1.5120344
3.0423605 -0.72451866 1.5045925
3.0405598 -0.67649448 1.501156
