# .PCD v0.7 - Point Cloud Data file format
VERSION 0.7
FIELDS x y z
SIZE 4 4 4
TYPE F F F
COUNT 1 1 1
WIDTH 1509
HEIGHT 1
VIEWPOINT 0 0 0 1 0 0 0
POINTS 1509
DATA ascii
2.8090212 1.2957292 0.70439905
2.817275 1.2740555 0.70509505
2.9052854 1.2972176 0.70287716
3.0030272 1.310293 0.7008934
3.1069012 1.3241881 0.69878525
3.217505 1.3389841 0.69654077
3.3355176 1.3547722 0.69414723
3.467382 1.3586578 0.69199389
3.6029758 1.3763047 0.68926257
2.4748359 1.2905054 0.70968461
2.548013 1.3016317 0.70814866
2.6288698 1.3031819 0.70685899
2.7065427 1.3257606 0.70482045
2.7143629 1.3048158 0.70549548
2.7966979 1.3280863 0.70335984
2.8880155 1.3416371 0.70145589
2.9848673 1.356009 0.69943649
3.0877752 1.3712804 0.69729155
3.1973259 1.3875383 0.69500923
3.3194921 1.3924048 0.69296622
3.4503746 1.3975915 0.69077849
3.5849104 1.4165729 0.6880129
2.4578009 1.3387212 0.70811576
2.5302351 1.3510653 0.706545
2.6102719 1.3539529 0.70521706
2.6909914 1.3674111 0.70347798
2.7803633 1.3709756 0.70198226
2.8708715 1.3857343 0.70004493
2.9668481 1.4013853 0.69799161
3.0688024 1.4180121 0.69581085
3.1773078 1.435707 0.69348991
3.3035767 1.4297795 0.69179326
3.4278591 1.4491345 0.68916947
3.5609992 1.4698691 0.68635863
2.4409084 1.3865328 0.70656019
2.51261 1.4000736 0.70495522
2.5918179 1.404331 0.70358795
2.6716855 1.4191197 0.70181137
2.7601147 1.4241498 0.70027518
2.8538566 1.4295151 0.69864565
2.948966 1.4464256 0.6965583
3.0499744 1.4643852 0.69434148
3.1574481 1.4834939 0.69198269
3.282501 1.4792719 0.69023991
3.4055345 1.5002409 0.68757415
3.5313985 1.5358467 0.68431097
3.5431974 1.5095485 0.68512726
2.42414 1.4339944 0.7050159
2.4951172 1.4487141 0.70337725
2.5735288 1.4542661 0.70197368
2.6563675 1.4601609 0.70049
2.7360406 1.4873928 0.69824672
2.7440338 1.4663936 0.69892019
2.8327687 1.483783 0.69691181
2.9312167 1.4911319 0.69513559
3.031291 1.5104036 0.69288331
3.1328387 1.5427101 0.69011503
3.1426508 1.5190984 0.69085979
3.2615974 1.5283605 0.68869936
3.3778872 1.5635308 0.68559831
3.3889091 1.5383006 0.68638599
3.5138044 1.5750647 0.68309379
2.4177032 1.4869963 0.69603711
2.4851332 1.4783852 0.69179124
2.5426183 1.4859709 0.68503624
2.6020017 1.493166 0.68906569
2.6529088 1.4951979 0.69025576
2.7251115 1.5073355 0.68509698
2.7924993 1.5155476 0.68943363
2.8593252 1.5229132 0.68085015
2.9235265 1.5275277 0.68298376
3.0093384 1.541024 0.68985248
3.0858467 1.549493 0.68067157
3.165935 1.5583582 0.67106116
3.2479434 1.5662876 0.67427105
3.3468459 1.5801182 0.68046594
3.439765 1.5904477 0.67010051
3.5374923 1.6013116 0.65919882
2.4090066 1.5383295 0.69692534
2.4042051 1.5805506 0.69827056
2.3982015 1.6333374 0.69995248
2.3921969 1.6861354 0.70163471
2.3873925 1.7283822 0.70298076
2.3813853 1.7812021 0.70466357
2.3753772 1.8340327 0.70634699
2.3705697 1.8763057 0.70769376
2.3645592 1.9291583 0.70937771
2.3585472 1.9820215 0.71106207
2.3525336 2.0348971 0.71274674
2.7315412 -1.28572 0.67017007
2.7267957 -1.2439964 0.67150503
2.7208638 -1.1918323 0.67317396
2.7161169 -1.1500926 0.67450929
2.7101824 -1.0979075 0.67617905
2.7042468 -1.0457115 0.67784905
3.1077921 -0.97767472 0.69007975
3.2766275 -0.95597363 0.68354499
2.708652 -1.0173049 0.68098229
2.7570009 -1.0039197 0.67428112
2.7982194 -0.98688257 0.65438527
2.860132 -0.99778014 0.68138337
2.9045208 -0.98001474 0.66086459
2.934963 -0.96783131 0.64679313
3.0029132 -0.97884876 0.67495424
3.0519142 -0.95987779 0.65330136
3.1605 -0.95795429 0.6678583
3.2148592 -0.93761611 0.64494026
3.315438 -0.9419558 0.66796654
3.355202 -0.92759371 0.65200549
3.4646213 -0.93180972 0.67626852
3.5080743 -0.91667652 0.65970165
3.5526557 -0.90115005 0.64270407
3.6752317 -0.9047392 0.66811687
3.7242 -0.88831484 0.65042883
3.7745187 -0.87143713 0.63225263
3.9128003 -0.8742035 0.65892166
2.6330574 -0.38763428 0.69993979
2.7046707 -0.37689754 0.68890238
2.7763045 -0.36530524 0.68731827
2.8567028 -0.3649523 0.68623275
2.9416153 -0.36455044 0.6850847
3.0259376 -0.3516244 0.68325937
3.115062 -0.33796248 0.68133026
3.2094095 -0.32349974 0.67928791
3.3094542 -0.30816373 0.67712224
3.4157279 -0.29187268 0.67482185
3.5288312 -0.274535 0.67237347
3.6494443 -0.25604603 0.66976273
3.7943954 -0.26703382 0.66844136
2.6260269 -0.35568386 0.69999772
2.6909571 -0.34325269 0.68724406
2.761996 -0.33084565 0.68562341
2.8367398 -0.31779152 0.68391812
2.9259024 -0.32816094 0.68330276
3.0094759 -0.31428006 0.68143523
3.097791 -0.29961187 0.67946166
3.1912615 -0.28408736 0.67737293
3.2903526 -0.26762938 0.67515856
3.4022758 -0.2640062 0.6734761
3.514621 -0.24582584 0.6709919
3.6344023 -0.22644195 0.66834307
3.7703624 -0.22100914 0.66624272
2.6198151 -0.30328619 0.70160246
2.6728082 -0.29872671 0.68504941
2.743063 -0.28524992 0.68338066
2.8169646 -0.27107355 0.68162513
2.9051206 -0.28003219 0.68094593
2.9877088 -0.26489952 0.67902303
3.0749588 -0.24891272 0.67699146
3.1672754 -0.23199761 0.67484206
3.2713892 -0.22738798 0.67320913
3.3822486 -0.22251774 0.67147249
3.4864454 -0.18890393 0.66825223
3.5004923 -0.21728271 0.66961807
3.6120183 -0.18238866 0.6662305
3.7307673 -0.14518267 0.66262066
3.7465267 -0.1753635 0.66406232
2.6138594 -0.25091583 0.70327806
2.6548209 -0.25459614 0.68287438
2.724303 -0.24006945 0.68115824
2.7973742 -0.2247922 0.67935365
2.8845384 -0.23236626 0.67861187
2.966157 -0.21600664 0.67663467
3.0523586 -0.1987284 0.6745463
3.1376376 -0.16763301 0.67171472
3.1494427 -0.19327112 0.67296034
3.2525961 -0.18750824 0.67127717
3.355793 -0.16771249 0.66882586
3.4655361 -0.14666116 0.666219
3.589812 -0.13868392 0.66413456
3.7151039 -0.11518706 0.66118771
2.6191542 -0.20514968 0.69414651
2.7057123 -0.19529876 0.67895615
2.777966 -0.17894135 0.67710322
2.8590977 -0.1734478 0.67572683
2.9448166 -0.16759437 0.6742698
3.0299871 -0.14905114 0.67212617
3.1258934 -0.14212845 0.67047548
3.2277625 -0.1348106 0.6687243
3.3231249 -0.10003843 0.66555774
3.3361344 -0.12698802 0.66685921
3.4447856 -0.10474023 0.66420138
3.5678236 -0.095409349 0.66205925
3.6918006 -0.070559755 0.65905589
2.6048195 -0.15663211 0.70225996
2.68729 -0.15093212 0.67677385
2.7587376 -0.13351499 0.67487359
2.8389387 -0.12676206 0.67344058
2.9236856 -0.11965572 0.67192805
3.0078402 -0.099873431 0.66973001
3.1083989 -0.10413584 0.66862959
3.2031944 -0.082675457 0.66619861
3.3037541 -0.059910174 0.66361982
3.4174068 -0.049427763 0.6615392
3.4310575 -0.077005245 0.66286653
3.5387931 -0.038274467 0.65931928
3.6686857 -0.026294362 0.65694141
3.8080602 -0.013488305 0.65439254
2.5971761 -0.10421651 0.70797169
3.0910249 -0.066404842 0.66679633
3.4038336 -0.02200656 0.66021943
3.6534007 0.0029774522 0.65554309
3.7836697 0.031905215 0.65223336
2.5924079 -0.062285725 0.70931309
2.586446 -0.0098616434 0.71099031
2.5804827 0.042573236 0.71266806
2.574518 0.095020309 0.71434605
2.5685525 0.1474783 0.7160244
2.5637791 0.18945327 0.71736741
2.557811 0.24193273 0.71904641
2.5518413 0.29442292 0.72072589
2.5470648 0.33642372 0.72206962
2.5410931 0.38893554 0.7237497
2.53512 0.44145811 0.72543013
2.5291455 0.49399298 0.72711098
2.5231698 0.54653871 0.72879219
2.5183887 0.58858401 0.73013741
2.5124102 0.64115125 0.73181927
2.5064309 0.69372934 0.73350143
2.5016465 0.73580045 0.73484743
2.4956648 0.78840011 0.73653036
2.4896822 0.84101069 0.7382136
2.4848938 0.88310772 0.73956043
2.4789085 0.93573982 0.74124444
2.5198553 0.95014745 0.72190422
2.5871062 0.97274017 0.72002381
2.4729218 0.98838282 0.74292868
2.5060661 0.98984879 0.72060877
2.576335 1.0032254 0.71903187
2.6540134 1.0068848 0.71771049
2.7281699 1.0320994 0.71562564
2.8103485 1.0477372 0.7137816
2.9014616 1.0530083 0.71219468
2.9980581 1.0585963 0.71051228
3.1998265 1.0954287 0.7060442
3.3156431 1.1029594 0.70399553
3.4393682 1.1110044 0.70180684
2.471611 1.0342015 0.7391569
2.4923499 1.0293411 0.71932024
2.5620518 1.0436536 0.71771652
2.6316633 1.069033 0.71569449
2.642807 1.038045 0.7166996
2.7126064 1.0745863 0.71425164
2.7981329 1.0804539 0.71272719
2.8843818 1.0978551 0.71075439
2.892906 1.0754721 0.71147323
2.984587 1.0932459 0.70940363
3.0817516 1.1121062 0.70720923
3.0911827 1.0883645 0.70796585
3.1799729 1.1443027 0.70449328
3.1898799 1.1199141 0.70526719
3.2998996 1.1408229 0.70279944
3.422698 1.1501306 0.70057714
3.5541501 1.1600941 0.6981982
2.4654133 1.0848012 0.73644239
2.5443311 1.0938087 0.71608466
2.6168859 1.1101226 0.71436143
2.6971488 1.1167843 0.71288699
2.7779067 1.1346263 0.71098107
2.7859747 1.113018 0.71167749
2.8716559 1.1312685 0.70968115
2.9667363 1.1391602 0.7079345
3.0630095 1.1592889 0.70570564
3.16519 1.1806943 0.70333844
3.2738581 1.203451 0.70082134
3.284241 1.1784813 0.70161003
3.4006267 1.2019341 0.69894898
3.5249045 1.2270079 0.69610631
3.5365622 1.2003355 0.69694018
3.6703002 1.2262625 0.69392109
2.4562049 1.1362638 0.73716021
2.530246 1.1336747 0.71478742
2.6058638 1.1407703 0.71336722
2.6817958 1.1586969 0.71153152
2.7658608 1.1668885 0.70994121
2.8547895 1.175554 0.70825881
2.949017 1.1847358 0.70647615
3.0397601 1.2178195 0.70384043
3.1456082 1.2289 0.70180887
3.2583685 1.2407041 0.69964463
3.3787394 1.253305 0.69733441
3.507519 1.2667857 0.69486284
3.6456249 1.281244 0.69221312
2.4498982 1.1888267 0.7387498
3.6272616 1.322175 0.69094282
2.4439051 1.2415257 0.74043483
2.4391098 1.2836936 0.74178296
2.4331143 1.3364141 0.7434687
2.4271173 1.3891455 0.74515456
2.4223187 1.4313396 0.74650371
2.4163196 1.4840926 0.74819034
2.4103189 1.5368565 0.74987721
2.4055173 1.5790764 0.75122696
2.3995144 1.6318622 0.75291479
2.3935094 1.6846586 0.75460273
2.3887057 1.7269047 0.75595355
2.3826988 1.7797232 0.75764215
2.3766909 1.8325523 0.75933129
2.3718832 1.8748244 0.76068282
2.3658733 1.9276756 0.76237267
2.3598614 1.9805374 0.76406276
2.3538485 2.0334117 0.76575333
2.7325792 -1.2868434 0.71228129
2.7278342 -1.2451204 0.71361983
2.7219017 -1.1929575 0.71529341
2.7171552 -1.1512187 0.71663249
2.7112212 -1.0990344 0.71830666
2.7052855 -1.0468396 0.71998137
2.7757404 -1.021505 0.71072978
2.8169668 -1.0150555 0.70133632
2.9181654 -1.0070542 0.7079801
2.9553292 -0.99727136 0.69598109
3.0737088 -0.99042678 0.70444947
3.2387359 -0.96965921 0.69875437
3.341939 -0.94994879 0.69950491
3.4222558 -0.9465645 0.69242114
3.5494485 -0.92803079 0.6954807
3.6275613 -0.92072827 0.68533623
3.7840297 -0.9032532 0.69093144
3.8587761 -0.89163172 0.67735708
2.7021048 -1.0056472 0.72175217
2.7662115 -0.98730731 0.71018171
2.8385987 -0.99109578 0.70901597
2.9078743 -0.97116345 0.70740986
2.9877617 -0.97471952 0.70611024
3.064563 -0.95330745 0.70434403
3.1531887 -0.95655793 0.70288789
3.2388012 -0.93345171 0.70093483
3.3334467 -0.92265534 0.69908273
3.4337106 -0.91123915 0.69712061
3.540103 -0.89910388 0.69503921
3.653204 -0.88622504 0.69282514
3.7736707 -0.87248421 0.69046831
3.9022465 -0.85784382 0.68795151
2.7052014 -0.9665581 0.72528988
2.759603 -0.95440108 0.72111422
2.8118889 -0.95097297 0.72578776
2.8527317 -0.94306386 0.72718418
2.9037259 -0.93755418 0.71965992
2.9605165 -0.93330032 0.7242896
3.0068238 -0.92502761 0.72600132
3.0634344 -0.91888547 0.71804827
3.1197743 -0.91205287 0.7213164
3.1586251 -0.91119397 0.71933961
3.1806931 -0.90542918 0.71297365
3.241401 -0.89808249 0.71625233
3.3146975 -0.89294767 0.70916826
3.3699169 -0.88252836 0.72321397
3.4409459 -0.87475711 0.71423858
3.5119238 -0.86618268 0.71783489
3.5307693 -0.87026554 0.6945954
3.5890477 -0.85772723 0.70836216
3.6662471 -0.84842104 0.71196485
3.7550559 -0.84026378 0.70287633
3.8345475 -0.82904893 0.70558971
3.9188013 -0.81797343 0.7238062
2.6303835 -0.38819683 0.74111259
2.6268117 -0.35678703 0.74212027
2.6208575 -0.30442855 0.74380004
2.6149015 -0.25205919 0.7454803
2.6101363 -0.21015508 0.74682468
2.6041784 -0.15776426 0.74850553
2.5982189 -0.10536278 0.75018674
2.5934505 -0.063432872 0.75153208
2.5874891 -0.011009723 0.75321394
2.5815265 0.041424055 0.75489622
2.575562 0.09387017 0.75657874
2.5695963 0.14632708 0.75826174
2.5648232 0.18830124 0.75960851
2.5588553 0.24077967 0.7612921
2.5528858 0.29326883 0.76297617
2.5481098 0.33526888 0.76432365
2.5421379 0.38777959 0.76600838
2.5361652 0.44030118 0.7676934
2.5301909 0.49283507 0.76937878
2.5242155 0.5453797 0.77106452
2.5194342 0.58742416 0.77241349
2.5134563 0.63999039 0.77409995
2.5074773 0.69256741 0.77578682
2.5026927 0.73463774 0.7771365
2.4967115 0.78723639 0.77882409
2.4907284 0.83984584 0.78051198
2.4859409 0.88194209 0.78186256
2.4799559 0.93457317 0.7835511
2.4739695 0.98721534 0.78524005
2.4691792 1.0293374 0.78659147
2.4631903 1.082001 0.78828102
2.4572001 1.1346754 0.78997105
2.4512081 1.1873623 0.79166138
2.4452157 1.24006 0.79335207
2.4404202 1.2822267 0.79470485
2.4344254 1.334946 0.79639637
2.4284289 1.3876764 0.79808807
2.4236305 1.4298691 0.79944175
2.4176316 1.482621 0.80113423
2.4116306 1.5353836 0.80282688
2.4068298 1.5776025 0.80418146
2.4008272 1.6303868 0.80587488
2.3948228 1.683182 0.80756867
2.3900189 1.7254272 0.80892402
2.384012 1.7782441 0.81061858
2.3780043 1.8310722 0.8123135
2.3731973 1.8733432 0.81366974
2.3671873 1.926193 0.81536531
2.3611755 1.9790536 0.81706131
2.3551631 2.0319266 0.81875765
2.7338769 -1.2882476 0.76491833
2.7291317 -1.2465256 0.76626146
2.7231998 -1.1943638 0.76794076
2.7184536 -1.152626 0.76928449
2.7125196 -1.1004429 0.77096444
2.7065842 -1.0482494 0.77264464
2.7018349 -1.0064858 0.77398926
2.7013397 -0.96618736 0.77658987
2.7502649 -0.95222992 0.77190107
2.7957504 -0.94663841 0.77571219
2.8447309 -0.94130158 0.76917702
2.893368 -0.93533552 0.77304697
2.9436591 -0.92916477 0.77707624
2.9979181 -0.92322856 0.77022004
3.054184 -0.91707242 0.76311028
3.1101801 -0.9102301 0.76715505
3.1682243 -0.90313572 0.77137959
3.2284396 -0.89577627 0.77575612
3.2336102 -0.89669633 0.75201869
3.2963302 -0.88906151 0.75609648
3.3586876 -0.88066459 0.77267623
3.4263129 -0.8724156 0.77734321
3.4321494 -0.87334955 0.75217348
3.5027614 -0.86477107 0.75650531
3.5794713 -0.85630846 0.74789512
3.6529195 -0.84652495 0.76574033
3.73633 -0.8372854 0.75696659
3.8199468 -0.82714337 0.76181626
3.8272374 -0.82809532 0.73375982
3.9111528 -0.81701964 0.75254518
2.6316853 -0.38962275 0.79384845
2.6281137 -0.35821378 0.79485959
2.6221597 -0.30585656 0.79654521
2.6162043 -0.25348845 0.79823101
2.6114395 -0.21158536 0.79958016
2.6054811 -0.15919587 0.80126673
2.5995226 -0.10679553 0.80295372
2.5947545 -0.064866669 0.80430347
2.5887935 -0.01244487 0.80599117
2.5828307 0.039987668 0.80767918
2.5768664 0.092432454 0.8093676
2.5709014 0.14488816 0.81105644
2.5661283 0.18686126 0.81240767
2.5601606 0.23933843 0.81409717
2.5541916 0.29182634 0.81578684
2.5494153 0.33382529 0.81713897
2.5434442 0.38633481 0.81882948
2.5374718 0.43885508 0.82052034
2.5314975 0.49138767 0.82221156
2.5255222 0.54393107 0.82390308
2.5207417 0.58597445 0.82525653
2.5147634 0.63853937 0.82694894
2.508785 0.69111526 0.82864147
2.5040007 0.73318446 0.82999575
2.4980195 0.78578186 0.83168912
2.4920366 0.83838999 0.83338273
2.4872494 0.88048524 0.83473802
2.4812646 0.93311495 0.83643222
2.4752781 0.98575562 0.83812708
2.4704883 1.027877 0.83948308
2.4645 1.0805392 0.84117848
2.4585102 1.1332124 0.84287429
2.4525187 1.1858979 0.8445704
2.4465261 1.2385943 0.84626693
2.4417312 1.28076 0.84762448
2.4357359 1.3334781 0.84932166
2.4297397 1.386207 0.8510192
2.4249418 1.4283988 0.85237747
2.4189429 1.4811492 0.85407567
2.4129429 1.5339108 0.85577422
2.4081419 1.5761284 0.85713333
2.4021392 1.6289116 0.85883266
2.3961358 1.681706 0.86053234
2.3913314 1.7239497 0.86189228
2.3853254 1.7767653 0.86359268
2.3793182 1.8295919 0.86529326
2.374511 1.8718619 0.86665416
2.3685012 1.9247105 0.86835551
2.3622274 1.9778666 0.85945839
2.3562148 2.0307386 0.86115938
2.7351739 -1.2896515 0.81755328
2.7304292 -1.2479304 0.818901
2.7244973 -1.1957703 0.82058585
2.7197514 -1.1540334 0.82193416
2.7138176 -1.1018517 0.82361996
2.7078829 -1.0496591 0.825306
2.7031341 -1.0078969 0.82665503
2.6988223 -0.96029085 0.83066452
2.747098 -0.94536418 0.82828158
2.7990184 -0.94160318 0.8241663
2.8515277 -0.93726408 0.81948704
2.8822715 -0.92212987 0.82655531
2.9389024 -0.92130589 0.82560897
2.9982376 -0.91679877 0.82114822
3.0449908 -0.91527063 0.80788589
3.0953379 -0.90711731 0.82326525
3.1590047 -0.89370495 0.8225438
3.2207122 -0.89440042 0.81120139
3.2409854 -0.87598795 0.8306278
3.2989573 -0.88259542 0.81261098
3.3503051 -0.87927246 0.80955487
3.4175844 -0.87101752 0.81491518
3.49405 -0.85508525 0.81364167
3.566766 -0.85442472 0.80027628
3.5997155 -0.83561331 0.82360566
3.6429734 -0.84510851 0.80581415
3.7040811 -0.8315447 0.82168365
3.7259185 -0.83586413 0.79796791
3.8079236 -0.81603247 0.80889398
3.8997357 -0.81559527 0.79541939
2.6926661 -0.90412372 0.84093171
2.7511497 -0.90243518 0.83976501
2.8096707 -0.88939327 0.83851773
2.870713 -0.87576932 0.83721668
2.9374459 -0.87343311 0.83599168
3.0072629 -0.87098891 0.83471036
3.0803843 -0.86842918 0.83336818
3.1503873 -0.84028316 0.83167905
3.2306032 -0.83683729 0.8301965
3.3149009 -0.83321667 0.82863867
3.403599 -0.82940662 0.82699949
3.4931552 -0.8113212 0.82512057
3.5875301 -0.79228151 0.82314074
3.6913495 -0.78699541 0.82120913
3.7967796 -0.76614988 0.81900394
3.9130168 -0.75976789 0.81683409
2.6855769 -0.85150498 0.84225297
2.7375932 -0.84679985 0.8391307
2.79568 -0.83259863 0.83787316
2.8591528 -0.82936698 0.83669227
2.9254878 -0.82598954 0.83545798
2.9948826 -0.82245618 0.83416694
3.067554 -0.81875604 0.83281487
3.1371071 -0.78952712 0.83111668
3.2133741 -0.77186108 0.82948083
3.2202535 -0.79780477 0.82976657
3.3005662 -0.77990085 0.8280549
3.3886802 -0.77471143 0.82640457
3.4815056 -0.76924491 0.82466573
3.575386 -0.74909425 0.82267731
3.6744471 -0.72785109 0.82057929
3.7835286 -0.72055548 0.81852251
3.899132 -0.71282381 0.81634253
2.6796358 -0.79925799 0.84394193
2.7240977 -0.79141384 0.83849949
2.7845383 -0.7873714 0.83735985
2.8476396 -0.78315085 0.83616984
2.9106081 -0.76695251 0.83479398
2.9165504 -0.7905286 0.83505923
2.9825542 -0.77412724 0.83362597
3.0547791 -0.76929659 0.83226413
3.1271834 -0.75159979 0.83069658
3.2030857 -0.73306292 0.8290534
3.2862971 -0.7268312 0.82747388
3.3738313 -0.72027558 0.82581234
3.4660351 -0.71337044 0.82406193
3.563292 -0.70608687 0.82221586
3.6618245 -0.68368286 0.82010907
3.770324 -0.67512184 0.81804258
3.8852975 -0.66604996 0.8158527
2.6748817 -0.75745147 0.84529328
2.7133491 -0.74730337 0.83799672
2.7734408 -0.74232101 0.83684856
2.8361716 -0.73711979 0.83564985
2.9017191 -0.73168498 0.83439726
2.9702773 -0.72600067 0.83308738
3.0420585 -0.72004914 0.83171564
3.117296 -0.7138108 0.83027792
3.1894195 -0.68152511 0.82848579
3.272094 -0.67400593 0.82689548
3.3590539 -0.66609704 0.82522279
3.4506407 -0.6577673 0.82346112
3.5472338 -0.64898187 0.82160312
3.649256 -0.63970321 0.8196407
3.7571776 -0.6298877 0.81756485
3.8715262 -0.61948776 0.81536549
2.6766963 -0.70198673 0.84458005
2.7053137 -0.7143262 0.83762091
2.7623866 -0.69744682 0.83633929
2.8247495 -0.69127268 0.8351317
2.8899074 -0.68482161 0.83387005
2.9580512 -0.67807508 0.83255059
3.0293925 -0.67101234 0.83116937
3.1041608 -0.66360992 0.82972175
3.1792083 -0.6430167 0.82806164
3.2614827 -0.63453901 0.82646334
3.3480139 -0.62562299 0.82478255
3.4353201 -0.60243297 0.8228631
3.531256 -0.59216094 0.8209936
3.6325693 -0.58131319 0.81901908
3.7397282 -0.56984025 0.81693125
3.8532522 -0.55768591 0.81471968
2.6774843 -0.65624607 0.84283507
2.7513752 -0.65274799 0.83583182
2.8133733 -0.64560843 0.83461565
2.8781433 -0.63814962 0.833345
2.9428394 -0.61844337 0.83188313
2.9489138 -0.64225632 0.8321498
3.0167804 -0.62218469 0.83062577
3.0910833 -0.61362845 0.82916826
3.1690352 -0.60465163 0.82763904
3.2509117 -0.59522295 0.82603294
3.3370171 -0.58530742 0.82434386
3.4238758 -0.56109941 0.82241654
3.5193219 -0.54972154 0.82053822
3.62011 -0.53770751 0.81855547
3.7267013 -0.52500194 0.81645864
3.8396089 -0.51154315 0.81423748
2.6705158 -0.60749751 0.84183562
2.7376738 -0.59712803 0.83520061
2.7992191 -0.5887931 0.83397365
2.8635092 -0.58008629 0.83269203
2.9337528 -0.58282298 0.8314845
3.0042224 -0.5735653 0.8300842
3.0780628 -0.56386477 0.8286168
3.1555214 -0.55368882 0.82707775
3.2333689 -0.52997637 0.82531869
3.2403731 -0.55602711 0.82560378
3.3224123 -0.53176409 0.82376122
3.4124799 -0.51993233 0.82197189
3.507441 -0.50745797 0.82008582
3.6077063 -0.49428684 0.81809425
3.7137313 -0.48035932 0.81598836
3.8260274 -0.46560788 0.81375772
2.6575685 -0.5556159 0.8453328
2.7240348 -0.54176039 0.83457232
2.78513 -0.53224093 0.83333474
2.8489437 -0.5222978 0.83204216
2.9186711 -0.52370214 0.83082259
2.9917176 -0.52515227 0.82954478
3.0650985 -0.51431775 0.82806802
3.1420679 -0.50295317 0.82651877
3.2228954 -0.49101952 0.82489222
3.3078797 -0.47847235 0.82318252
3.4011223 -0.47889763 0.82152963
3.4956 -0.46533358 0.81963485
3.5953434 -0.45101339 0.81763458
3.7008064 -0.43587229 0.81551969
3.8124945 -0.41983721 0.81327969
2.6506515 -0.50707459 0.84433645
2.7131724 -0.4976663 0.83407146
2.7739108 -0.48720807 0.8328256
2.8373466 -0.4762854 0.83152449
2.9036622 -0.46486691 0.83016402
2.9761596 -0.46491864 0.82887423
2.982372 -0.48897123 0.82914203
3.0554111 -0.47729197 0.82765788
2.641269 -0.45406026 0.84492171
2.7023528 -0.45374304 0.83357316
2.7627366 -0.44235346 0.83231884
2.8286777 -0.44189253 0.83113754
2.6341784 -0.40151682 0.84624404
2.6942639 -0.42090681 0.83320045
2.6294162 -0.35964057 0.84759676
2.6234622 -0.30728441 0.84928823
2.6175075 -0.25491768 0.85097975
2.6127424 -0.21301563 0.85233343
2.6067851 -0.16062734 0.8540259
2.6008263 -0.1082283 0.85571855
2.5960581 -0.066300511 0.85707301
2.5900972 -0.013879951 0.85876638
2.5841348 0.038551316 0.86046034
2.578171 0.090994909 0.86215436
2.5722063 0.14344925 0.86384887
2.5674334 0.18542138 0.86520475
2.561466 0.23789726 0.86689997
2.5554974 0.29038391 0.8685956
2.5507216 0.33238187 0.86995226
2.54475 0.38488999 0.87164837
2.5387778 0.43740901 0.87334502
2.5328045 0.48994038 0.87504208
2.5268292 0.54248244 0.87673926
2.5220487 0.58452481 0.87809747
2.5160706 0.63708848 0.87979561
2.5100923 0.68966287 0.88149387
2.5053084 0.73173118 0.88285297
2.4993274 0.78432727 0.88455194
2.493345 0.83693409 0.88625145
2.4885585 0.87902844 0.88761115
2.4825735 0.93165696 0.88931143
2.4765878 0.98429632 0.89101207
2.4717977 1.0264164 0.89237261
2.4658096 1.0790775 0.89407384
2.4598198 1.1317494 0.89577538
2.4538288 1.1844336 0.89747751
2.4478366 1.2371286 0.89917958
2.4430418 1.2792934 0.90054172
2.4370468 1.33201 0.90224475
2.431051 1.3847377 0.90394819
2.4262531 1.4269285 0.90531111
2.4202547 1.4796778 0.9070152
2.4142551 1.5324379 0.90871966
2.4094541 1.5746548 0.91008335
2.4034517 1.6274365 0.91178823
2.3974483 1.6802292 0.91349363
2.3926439 1.7224721 0.91485834
2.3866389 1.7752867 0.91656458
2.3806314 1.8281119 0.91827106
2.3758247 1.870381 0.91963637
2.3698153 1.9232279 0.92134374
2.3635416 1.976383 0.9124527
2.3575289 2.0292535 0.91415942
2.7364714 -1.2910556 0.87018573
2.7317269 -1.2493356 0.87153804
2.7257957 -1.1971765 0.87322879
2.7210495 -1.1554406 0.87458175
2.715116 -1.10326 0.87627321
2.7091811 -1.0510691 0.87796491
2.7044327 -1.0093076 0.87931859
2.6984951 -0.95709515 0.88101113
2.6925569 -0.904872 0.88270414
2.6866169 -0.85263664 0.88439721
2.6806757 -0.8003906 0.88609082
2.6759219 -0.75858516 0.88744593
2.6699781 -0.70631766 0.88914019
2.6637735 -0.65375555 0.88029444
2.6590164 -0.61192435 0.88164961
2.6530693 -0.55962425 0.8833437
2.6471207 -0.50731361 0.88503838
2.641171 -0.45499086 0.88673335
2.6352196 -0.40265724 0.88842839
2.6304576 -0.36078179 0.88978487
2.6245041 -0.30842668 0.89148086
2.6185496 -0.25606084 0.89317709
2.613785 -0.21415976 0.89453441
2.6078272 -0.16177247 0.89623129
2.6018689 -0.10937449 0.89792877
2.5971012 -0.067447484 0.89928687
2.5911405 -0.015027971 0.90098494
2.5851784 0.037402321 0.9026832
2.5792148 0.08984489 0.90438205
2.5732501 0.14229819 0.9060812
2.5684772 0.18426949 0.90744078
2.5625103 0.23674436 0.90914059
2.5565417 0.28922999 0.91084075
2.5517662 0.33122709 0.91220117
2.5457952 0.38373429 0.9139021
2.5398228 0.43625224 0.91560322
2.5338497 0.48878255 0.91730481
2.5278745 0.54132354 0.919007
2.5230939 0.58336508 0.92036861
2.5171165 0.63592774 0.92207134
2.5111384 0.68850124 0.92377448
2.5063546 0.73056859 0.92513698
2.5003738 0.78316373 0.92684072
2.4943917 0.83576959 0.92854482
2.4896052 0.87786299 0.92990822
2.4836204 0.93049037 0.93161303
2.4776349 0.98312879 0.93331808
2.4728453 1.0252482 0.93468267
2.4668572 1.0779082 0.93638837
2.4608679 1.130579 0.93809468
2.4548767 1.1832621 0.93980128
2.4488847 1.2359562 0.94150805
2.4440899 1.27812 0.94287401
2.4380951 1.3308358 0.94458151
2.4320996 1.3835624 0.94628966
2.4273024 1.4257524 0.94765633
2.421304 1.4785006 0.94936484
2.4153044 1.5312598 0.95107388
2.4105036 1.5734757 0.95244139
2.4045014 1.6262562 0.95415103
2.3984985 1.6790482 0.95586127
2.3936949 1.7212901 0.9572295
2.3876891 1.7741036 0.95894039
2.3816819 1.8269279 0.96065158
2.3768756 1.8691961 0.96202081
2.3708663 1.9220421 0.96373254
2.364856 1.9748993 0.96544474
2.3588433 2.0277686 0.96715742
2.7377684 -1.2924595 0.92281616
2.7330244 -1.2507404 0.92417294
2.7270935 -1.1985826 0.92586964
2.7223477 -1.1568478 0.92722708
2.7164142 -1.1046686 0.92892432
2.71048 -1.0524789 0.9306218
2.7057312 -1.0107186 0.93198025
2.6997943 -0.95850724 0.93367845
2.6938558 -0.90628541 0.93537688
2.6879163 -0.85405135 0.93707597
2.6819756 -0.80180639 0.93877524
2.6772218 -0.76000196 0.94013488
2.6712782 -0.70773584 0.94183493
2.6650736 -0.65517509 0.9329952
2.6603174 -0.61334467 0.93435508
2.6543703 -0.561046 0.93605477
2.6484225 -0.50873667 0.93775505
2.6424723 -0.45641515 0.93945563
2.6365211 -0.4040828 0.94115669
2.6317599 -0.36220831 0.94251794
2.6258063 -0.30985448 0.94421947
2.6198518 -0.25748998 0.94592142
2.6150873 -0.21558988 0.94728345
2.6091306 -0.16320384 0.94898623
2.6031723 -0.11080714 0.95068944
2.5984051 -0.068881109 0.952052
2.5924442 -0.0164629 0.95375586
2.5864823 0.035966095 0.95545995
2.5805197 0.088407435 0.95716441
2.5745547 0.14085944 0.95886952
2.569782 0.18282968 0.96023369
2.5638154 0.23530328 0.96193928
2.5578473 0.28778765 0.96364522
2.5530715 0.32978371 0.96501023
2.547101 0.38228962 0.96671689
2.5411291 0.43480629 0.96842378
2.535156 0.48733532 0.97013122
2.5291817 0.53987509 0.97183889
2.5244012 0.58191562 0.97320539
2.518424 0.6344769 0.97491378
2.5124454 0.68704909 0.97662258
2.5076623 0.72911543 0.97798991
2.5016818 0.78170925 0.97969931
2.4957001 0.83431393 0.98140913
2.4909136 0.87640625 0.98277736
2.4849293 0.9290325 0.98448801
2.4789436 0.98166943 0.98619884
2.474154 1.0237877 0.98756784
2.4681666 1.0764467 0.98927945
2.4621775 1.1291161 0.99099135
2.4561872 1.181798 0.9927038
2.4501948 1.2344906 0.99441648
2.4454002 1.2766535 0.99578708
2.4394062 1.329368 0.99750048
2.4334109 1.3820934 0.99921429
2.4286141 1.4242823 1.0005857
2.4226153 1.4770293 1.0023001
2.4166164 1.5297869 1.004015
2.4118161 1.5720021 1.0053872
2.4058139 1.6247814 1.0071025
2.399811 1.6775717 1.0088183
2.3950078 1.7198128 1.0101914
2.3890023 1.7726252 1.0119079
2.3829956 1.825448 1.0136249
2.3781891 1.867715 1.0149989
2.3721802 1.9205599 1.0167165
2.3661699 1.9734155 1.0184344
2.3601582 2.0262837 1.0201529
2.7388062 -1.2935824 0.96491885
2.7340624 -1.2518642 0.96627933
2.7281313 -1.1997074 0.96798038
2.7233858 -1.1579735 0.96934146
2.717453 -1.1057955 0.97104335
2.7115183 -1.0536066 0.97274548
2.7067704 -1.0118471 0.9741075
2.7008336 -0.95963693 0.97581035
2.694895 -0.90741605 0.97751349
2.6889558 -0.85518295 0.97921711
2.6830156 -0.80293906 0.98092097
2.6782618 -0.7611354 0.98228449
2.6723189 -0.70887011 0.98398912
2.6663744 -0.6565944 0.98569411
2.661618 -0.61476505 0.98705834
2.6556716 -0.56246763 0.98876405
2.6497233 -0.51015961 0.99046981
2.6437738 -0.45783922 0.99217647
2.6378233 -0.40550822 0.99388301
2.6330616 -0.36363479 0.99524862
2.6271091 -0.31128222 0.99695605
2.6211545 -0.258919 0.9986639
2.61639 -0.21701986 1.0000305
2.6104341 -0.16463508 1.001739
2.6044757 -0.11223967 1.0034477
2.5997081 -0.070314743 1.0048151
2.5937481 -0.017897723 1.0065247
2.5877864 0.034529909 1.0082346
2.5818236 0.086969972 1.009945
2.5758595 0.13942073 1.0116557
2.5710866 0.18138993 1.0130246
2.5651202 0.23386224 1.0147356
2.5591526 0.28634533 1.0164475
2.5543771 0.32834038 1.0178173
2.5484068 0.38084501 1.0195295
2.5424354 0.43336043 1.0212424
2.5364623 0.48588812 1.0229555
2.530488 0.53842664 1.0246691
2.525708 0.58046615 1.0260401
2.519731 0.63302618 1.0277541
2.5137534 0.68559718 1.0294687
2.50897 0.72766244 1.0308409
2.5029898 0.7802549 1.0325559
2.4970083 0.83285826 1.0342717
2.4922218 0.87494957 1.0356445
2.4862375 0.92757446 1.0373607
2.4802527 0.9802103 1.0390774
2.4754636 1.0223275 1.0404512
2.4694757 1.074985 1.0421686
2.4634871 1.1276532 1.0438862
2.4574966 1.1803339 1.0456043
2.4515052 1.2330253 1.047323
2.4467108 1.275187 1.0486981
2.4407167 1.3279002 1.0504173
2.4347219 1.3806243 1.0521368
2.4299252 1.4228122 1.0535128
2.4239268 1.4755579 1.0552331
2.417928 1.5283142 1.0569539
2.4131279 1.5705284 1.0583307
2.4071262 1.6233065 1.0600518
2.4011238 1.6760955 1.0617734
2.3963203 1.7183356 1.0631511
2.3903148 1.7711464 1.0648735
2.3843086 1.8239679 1.0665963
2.379503 1.8662342 1.0679748
2.3734939 1.9190778 1.0696983
2.3674839 1.9719321 1.0714219
2.3614728 2.0247991 1.0731462
2.7401032 -1.2949864 1.017545
2.7353597 -1.2532692 1.0189102
2.7294288 -1.2011137 1.0206169
2.7246835 -1.1593806 1.0219827
2.7187507 -1.1072038 1.0236902
2.7128167 -1.0550164 1.0253983
2.7080688 -1.0132576 1.0267648
2.7021322 -0.96104878 1.0284733
2.6961939 -0.90882915 1.0301822
2.6902556 -0.85659719 1.0318916
2.6843154 -0.80435467 1.0336012
2.6795619 -0.76255226 1.0349693
2.673619 -0.71028829 1.0366796
2.6676748 -0.65801376 1.0383903
2.6629188 -0.61618531 1.0397592
2.6569722 -0.56388927 1.0414704
2.6510246 -0.51158237 1.0431823
2.6450758 -0.45926335 1.0448943
2.6391249 -0.40693352 1.0466069
2.6343637 -0.36506116 1.0479773
2.6284111 -0.31270996 1.0496904
2.6224568 -0.26034799 1.0514038
2.6176927 -0.21844982 1.0527751
2.6117363 -0.16606648 1.0544893
2.6057787 -0.11367222 1.0562037
2.6010115 -0.071748309 1.0575758
2.5950515 -0.019332627 1.0592912
2.5890906 0.03309387 1.0610069
2.5831275 0.085532583 1.0627229
2.5771637 0.13798206 1.0644393
2.5723917 0.17995027 1.0658127
2.5666168 0.22958735 1.0613983
2.5601969 0.28519154 1.0586874
2.5554218 0.32718581 1.0600609
2.5494518 0.37968943 1.0617781
2.5434804 0.43220377 1.0634954
2.5375071 0.48473042 1.0652133
2.5315335 0.53726792 1.0669312
2.5267534 0.5793066 1.0683062
2.5207767 0.63186562 1.070025
2.5147991 0.68443543 1.0717442
2.5100162 0.72650003 1.0731198
2.5040362 0.7790916 1.0748397
2.4980547 0.83169389 1.07656
2.4932687 0.8737843 1.0779363
2.4872851 0.92640823 1.0796573
2.4812999 0.97904289 1.0813787
2.4765105 1.0211594 1.0827559
2.4705236 1.0738158 1.0844781
2.4645352 1.126483 1.0862005
2.4585445 1.1791626 1.0879233
2.4525535 1.231853 1.0896463
2.4477592 1.274014 1.0910251
2.4417655 1.3267261 1.0927489
2.4357705 1.379449 1.0944732
2.4309731 1.421636 1.0958529
2.4249763 1.4743807 1.0975779
2.4189773 1.5271362 1.0993031
2.4141777 1.5693496 1.1006838
2.4081762 1.6221265 1.1024096
2.4021733 1.6749145 1.1041359
2.3973708 1.7171538 1.1055173
2.3913658 1.7699635 1.1072443
2.385359 1.8227842 1.1089717
2.3805535 1.8650494 1.1103538
2.3745451 1.9178919 1.1120819
2.368535 1.9707453 1.1138104
2.3625236 2.0236111 1.1155393
2.7411411 -1.2961094 1.0596447
2.7363975 -1.2543927 1.0610133
2.7304668 -1.2022386 1.0627248
2.7257218 -1.1605064 1.0640943
2.71979 -1.1083306 1.0658064
2.7138557 -1.0561441 1.0675187
2.7091079 -1.0143861 1.068889
2.7031715 -0.96217817 1.0706022
2.6972334 -0.90995961 1.0723157
2.6912949 -0.85772884 1.0740297
2.6853545 -0.80548728 1.0757437
2.6806016 -0.76368558 1.0771155
2.6746593 -0.71142256 1.0788305
2.668715 -0.65914905 1.0805458
2.6639595 -0.61732155 1.0819184
2.6580126 -0.56502652 1.0836343
2.6520655 -0.51272064 1.0853506
2.6461167 -0.46040243 1.0870676
2.6401663 -0.40807384 1.0887845
2.6354051 -0.36620227 1.0901586
2.6294529 -0.31385201 1.0918763
2.6234989 -0.26149112 1.0935946
2.6187351 -0.21959376 1.0949693
2.6127789 -0.16721137 1.0966882
2.6068215 -0.11481819 1.0984074
2.6020544 -0.07289511 1.0997831
2.5960948 -0.020480398 1.1015029
2.5901337 0.031945013 1.1032232
2.5841713 0.084382735 1.104944
2.5782073 0.13683118 1.106665
2.5734355 0.17879859 1.108042
2.5667832 0.23569712 1.1014547
2.5612409 0.28403777 1.1009265
2.5564663 0.32603127 1.1023033
2.5504961 0.37853378 1.104025
2.5445249 0.43104711 1.105747
2.5385525 0.48357281 1.1074694
2.5325787 0.53610927 1.1091921
2.5277989 0.57814711 1.1105707
2.5218227 0.63070512 1.1122942
2.5158448 0.68327397 1.1140178
2.5110619 0.72533762 1.1153971
2.5050819 0.77792811 1.1171218
2.4991009 0.83052939 1.1188467
2.4943154 0.87261909 1.1202269
2.4883316 0.92524195 1.1219524
2.482347 0.97787571 1.1236784
2.4775581 1.0199912 1.1250595
2.4715707 1.0726466 1.1267861
2.4655826 1.1253128 1.128513
2.4595926 1.1779914 1.1302406
2.4536016 1.2306807 1.1319684
2.4488075 1.2728409 1.133351
2.4428141 1.325552 1.1350795
2.4368196 1.378274 1.1368082
2.4320226 1.4204602 1.1381915
2.4260256 1.4732037 1.1399212
2.4200268 1.5259584 1.1416513
2.4152272 1.5681707 1.1430355
2.4092257 1.6209466 1.1447659
2.4032238 1.6737335 1.1464968
2.3984206 1.7159721 1.1478817
2.3924158 1.7687808 1.1496134
2.38641 1.8216003 1.1513455
2.3816044 1.8638648 1.1527313
2.3755958 1.9167061 1.1544641
2.3695865 1.9695587 1.1561973
2.363575 2.0224233 1.1579309
2.3289177 1.8495069 -1.3629845
2.3241022 1.8918129 -1.3618195
2.5965512 -0.49786448 -1.4064897
2.590591 -0.44549876 -1.4050452
2.5846295 -0.39312065 -1.4036005
2.5786664 -0.34073156 -1.4021553
2.573895 -0.29881197 -1.4009991
2.56793 -0.24640147 -1.3995533
2.5619633 -0.19398025 -1.3981075
2.557189 -0.15203488 -1.3969505
2.5512202 -0.099592209 -1.395504
2.5452502 -0.047138687 -1.394057
2.5392785 0.0053269933 -1.3926098
2.5333054 0.057803478 -1.3911623
2.5285261 0.099793345 -1.3900039
2.5225511 0.15229145 -1.3885559
2.5165746 0.20480029 -1.3871075
2.5117924 0.24681604 -1.3859485
2.5058134 0.29934645 -1.3844994
2.4998333 0.3518877 -1.3830503
2.4950478 0.3939293 -1.3818905
2.4890659 0.44649222 -1.3804407
2.4830816 0.49906582 -1.3789907
2.4770961 0.55165178 -1.3775401
2.4711099 0.60424858 -1.3760893
2.46632 0.64633471 -1.3749285
2.460331 0.69895315 -1.3734772
2.4543407 0.75158238 -1.3720254
2.4495475 0.7936945 -1.3708639
2.4435546 0.84634531 -1.3694115
2.4375608 0.89900708 -1.3679591
2.432765 0.94114524 -1.3667966
2.4267683 0.99382865 -1.3653435
2.4207709 1.0465229 -1.3638898
2.415972 1.0886869 -1.3627268
2.4099717 1.1414028 -1.3612727
2.4039702 1.1941297 -1.3598183
2.3979678 1.2468688 -1.3583636
2.3919635 1.2996188 -1.3569086
2.3871596 1.3418276 -1.3557441
2.3811529 1.3945993 -1.3542886
2.3751457 1.447382 -1.3528327
2.3703384 1.4896168 -1.3516675
2.3643286 1.5424215 -1.3502111
2.3583169 1.5952365 -1.3487543
2.3535063 1.6374973 -1.3475884
2.3474929 1.6903344 -1.3461311
2.3414776 1.7431822 -1.3446735
2.3366649 1.7854693 -1.3435071
2.3311415 1.8351483 -1.336067
2.3248913 1.8909231 -1.3299752
2.5978544 -0.49928877 -1.3536807
2.5918944 -0.44692439 -1.3522304
2.5859332 -0.39454746 -1.35078
2.5799706 -0.34215975 -1.3493291
2.5751998 -0.30024108 -1.3481681
2.5692346 -0.24783193 -1.3467168
2.5632684 -0.19541205 -1.345265
2.5584941 -0.15346764 -1.3441033
2.5525255 -0.10102625 -1.342651
2.5465558 -0.048574027 -1.3411984
2.5405846 0.0038904527 -1.3397453
2.5346119 0.056365676 -1.338292
2.5298328 0.098354459 -1.337129
2.5238576 0.15085123 -1.3356754
2.5178816 0.20335887 -1.3342211
2.5130999 0.24537361 -1.3330575
2.5071208 0.2979027 -1.3316028
2.5011411 0.35044265 -1.3301477
2.496356 0.39248326 -1.3289834
2.4903738 0.44504482 -1.3275279
2.4843903 0.49761719 -1.3260717
2.4784052 0.55020189 -1.3246154
2.4724188 0.60279739 -1.3231589
2.467629 0.64488244 -1.3219934
2.4616406 0.69749963 -1.3205363
2.4556506 0.75012761 -1.3190787
2.4508576 0.79223865 -1.3179125
2.444865 0.84488833 -1.3164543
2.4388714 0.89754868 -1.314996
2.4340758 0.93968576 -1.3138291
2.4280798 0.99236792 -1.3123701
2.4220824 1.0450609 -1.3109107
2.4172835 1.0872238 -1.3097429
2.4112837 1.1399385 -1.3082832
2.4052825 1.1926639 -1.3068228
2.3992803 1.245402 -1.3053623
2.3932767 1.2981507 -1.3039014
2.3884728 1.3403584 -1.3027325
2.3824666 1.3931289 -1.301271
2.3764589 1.4459101 -1.2998092
2.3716519 1.4881439 -1.2986397
2.3656423 1.540947 -1.2971771
2.3596313 1.5937611 -1.2957146
2.354821 1.6360208 -1.2945441
2.3488076 1.6888566 -1.2930808
2.342793 1.7417033 -1.2916175
2.3379798 1.7839894 -1.2904464
2.3319633 1.8368578 -1.2889822
2.3259442 1.8897369 -1.2875178
2.5983684 -0.49618268 -1.3134309
2.5929372 -0.44806474 -1.3099804
2.5869761 -0.39568883 -1.3085252
2.5810142 -0.34330228 -1.3070697
2.5762434 -0.30138448 -1.3059051
2.5702784 -0.24897626 -1.3044488
2.5643125 -0.19655743 -1.3029925
2.5595386 -0.15461378 -1.3018272
2.5535698 -0.10217337 -1.3003703
2.5476005 -0.049722247 -1.2989131
2.5416291 0.0027411757 -1.2974553
2.5356567 0.055215415 -1.2959975
2.5308778 0.097203396 -1.2948309
2.5249031 0.14969917 -1.2933725
2.5189273 0.20220578 -1.2919137
2.5141454 0.24421963 -1.2907465
2.508167 0.29674774 -1.289287
2.5021873 0.34928668 -1.2878271
2.4974027 0.39132649 -1.2866594
2.4914207 0.44388703 -1.285199
2.4854372 0.49645832 -1.2837385
2.4794521 0.54904199 -1.2822775
2.4734662 0.60163647 -1.2808163
2.4686766 0.64372075 -1.279647
2.4626882 0.69633681 -1.2781851
2.4566984 0.74896383 -1.276723
2.4519055 0.79107392 -1.2755532
2.4459131 0.84372258 -1.2740904
2.4399202 0.89638215 -1.2726274
2.4351242 0.93851817 -1.2714566
2.4291286 0.99119937 -1.2699931
2.4231312 1.0438914 -1.2685291
2.4183328 1.0860534 -1.2673575
2.4123335 1.1387672 -1.265893
2.4063325 1.1914915 -1.264428
2.4000993 1.2471166 -1.2583364
2.3945892 1.2966826 -1.2508967
2.3897855 1.3388892 -1.2497232
2.3837795 1.3916583 -1.2482557
2.3777726 1.4444385 -1.2467885
2.3729658 1.4866709 -1.2456139
2.3669562 1.5394729 -1.2441458
2.3609455 1.5922856 -1.2426773
2.3561358 1.6345445 -1.2415023
2.3501222 1.687379 -1.2400333
2.3441076 1.7402242 -1.2385637
2.3392954 1.7825092 -1.237388
2.3332784 1.8353764 -1.2359183
2.3272605 1.8882545 -1.2344478
2.3239117 1.91969 -1.2229509
2.5990086 -0.49138135 -1.2583383
2.5942409 -0.44949034 -1.2571697
2.5882802 -0.39711565 -1.2557088
2.5823181 -0.34473035 -1.2542475
2.5775478 -0.3028135 -1.2530782
2.5715828 -0.25040656 -1.2516166
2.5656171 -0.19798911 -1.2501544
2.5608435 -0.15604639 -1.2489845
2.5548756 -0.10360725 -1.2475218
2.5489061 -0.051157437 -1.2460585
2.5429356 0.001304795 -1.2445953
2.5369627 0.053777635 -1.2431315
2.5321841 0.095764592 -1.2419603
2.5262101 0.14825916 -1.240496
2.5202343 0.2007644 -1.2390316
2.5154529 0.24277732 -1.2378595
2.5094745 0.29530412 -1.2363945
2.503495 0.34784177 -1.234929
2.4987106 0.38988054 -1.2337563
2.4927287 0.44243976 -1.2322901
2.4867458 0.49500984 -1.2308238
2.4807611 0.54759222 -1.229357
2.4747753 0.60018539 -1.22789
2.4699857 0.6422686 -1.2267162
2.4639974 0.69488341 -1.2252485
2.4580078 0.74750906 -1.2237808
2.4532158 0.78961831 -1.2226062
2.4472241 0.84226567 -1.2211374
2.441231 0.89492381 -1.2196687
2.4364352 0.93705899 -1.2184932
2.4304392 0.9897387 -1.2170238
2.4244428 1.0424293 -1.215554
2.4196444 1.0845904 -1.2143779
2.413645 1.1373029 -1.2129076
2.4076443 1.190026 -1.211437
2.4020083 1.2400513 -1.2073896
2.3959017 1.2952144 -1.1978942
2.3910983 1.33742 -1.1967158
2.3850927 1.3901879 -1.1952428
2.3790858 1.4429666 -1.1937695
2.3742793 1.4851985 -1.1925905
2.3682702 1.5379988 -1.1911166
2.3622594 1.5908104 -1.1896422
2.35745 1.6330681 -1.1884625
2.3514371 1.685901 -1.1869876
2.3454227 1.7387452 -1.1855124
2.3406103 1.7810291 -1.184332
2.3345933 1.8338951 -1.1828561
2.3285761 1.8867719 -1.1813802
2.324964 1.9185034 -1.1804943
2.600312 -0.49280563 -1.2055345
2.5955443 -0.45091575 -1.2043614
2.5895844 -0.39854243 -1.2028947
2.5836225 -0.34615827 -1.2014275
2.5788519 -0.30424243 -1.2002537
2.5728877 -0.25183681 -1.1987861
2.5669222 -0.1994206 -1.1973182
2.5621488 -0.15747897 -1.1961436
2.5561805 -0.1050412 -1.1946751
2.5502117 -0.052592546 -1.1932063
2.5442412 -0.00013167584 -1.1917372
2.5382693 0.052339997 -1.1902677
2.5334909 0.094325945 -1.1890919
2.5275164 0.14681913 -1.1876217
2.5215411 0.19932316 -1.1861514
2.5167596 0.24133493 -1.1849749
2.510782 0.29386052 -1.1835039
2.5048027 0.34639692 -1.1820326
2.5000186 0.38843465 -1.1808554
2.4940369 0.44099259 -1.1793834
2.488054 0.49356136 -1.1779113
2.4820697 0.54614246 -1.1764388
2.4760842 0.59873438 -1.174966
2.4712951 0.64081663 -1.1737876
2.465307 0.69343013 -1.1723142
2.4593182 0.74605453 -1.1708401
2.4545257 0.78816265 -1.169661
2.4485338 0.84080869 -1.1681867
2.4425409 0.89346546 -1.1667119
2.4377458 0.93559957 -1.1655319
2.431751 0.98827827 -1.1640568
2.4257543 1.0409676 -1.1625812
2.4209559 1.0831277 -1.1614003
2.4149568 1.1358386 -1.1599243
2.4089563 1.1885606 -1.1584479
2.4029546 1.2412949 -1.1569709
2.3969524 1.2940401 -1.155494
2.392149 1.3362449 -1.1543118
2.3861432 1.3890116 -1.1528342
2.3801365 1.4417893 -1.1513561
2.3753302 1.4840204 -1.1501734
2.3693211 1.5368198 -1.1486948
2.3633106 1.5896301 -1.1472158
2.3585017 1.6318871 -1.1460325
2.352489 1.6847191 -1.1445528
2.3464749 1.7375623 -1.143073
2.3416624 1.7798452 -1.1418887
2.3356457 1.8327101 -1.1404083
2.3296282 1.8855858 -1.1389277
2.3260169 1.9173168 -1.138039
2.6013548 -0.49394512 -1.1632931
2.5965872 -0.45205602 -1.1621163
2.5906272 -0.39968359 -1.1606449
2.5846655 -0.34730053 -1.1591734
2.5798953 -0.30538568 -1.1579959
2.5739312 -0.25298101 -1.1565236
2.5679657 -0.20056583 -1.155051
2.5631931 -0.15862498 -1.1538727
2.5572252 -0.1061881 -1.1523997
2.5512559 -0.053740621 -1.1509261
2.5452857 -0.0012807702 -1.1494523
2.539314 0.051189829 -1.1479783
2.5345359 0.093174964 -1.1467988
2.5285616 0.14566717 -1.1453239
2.5225868 0.19817019 -1.143849
2.5178056 0.24018119 -1.1426687
2.5118277 0.29270571 -1.1411933
2.5058486 0.34524104 -1.1397173
2.5010648 0.38727799 -1.1385363
2.4950833 0.43983489 -1.1370598
2.4890184 0.49433175 -1.1291746
2.4833782 0.54469275 -1.1235229
2.4773932 0.59728336 -1.1220441
2.4726043 0.6393646 -1.1208611
2.4666164 0.69197679 -1.1193819
2.4606278 0.7446 -1.1179023
2.4558358 0.78670704 -1.1167184
2.4498441 0.83935177 -1.1152383
2.4438517 0.89200735 -1.1137578
2.4390564 0.93414038 -1.1125733
2.4330616 0.98681778 -1.1110921
2.4270656 1.0395057 -1.1096108
2.4222672 1.0816649 -1.1084254
2.4162681 1.1343746 -1.1069434
2.4102685 1.1870953 -1.1054612
2.4042668 1.2398282 -1.1039784
2.3982644 1.292572 -1.1024956
2.3934619 1.3347759 -1.1013089
2.3874567 1.3875414 -1.0998254
2.3814497 1.4403176 -1.0983415
2.3766439 1.4825475 -1.0971543
2.3706348 1.5353458 -1.0956697
2.3646252 1.588155 -1.094185
2.3598158 1.6304108 -1.0929968
2.3538032 1.6832416 -1.0915115
2.3477895 1.736083 -1.0900259
2.3429775 1.7783655 -1.088837
2.3369613 1.8312289 -1.0873507
2.3309438 1.8841032 -1.0858639
2.3261287 1.9264114 -1.0846745
2.3210869 1.9720562 -1.0763091
2.6026576 -0.49536946 -1.1104935
2.5978906 -0.45348129 -1.1093121
2.5919306 -0.40111026 -1.1078351
2.5859697 -0.34872842 -1.1063577
2.5811994 -0.30681449 -1.1051753
2.5752358 -0.25441119 -1.1036974
2.5692706 -0.20199722 -1.1022191
2.5644977 -0.16005741 -1.1010363
2.5585301 -0.10762195 -1.0995573
2.5525618 -0.055175614 -1.098078
2.5465918 -0.0027170519 -1.0965986
2.5406199 0.049752235 -1.0951185
2.5358422 0.091736421 -1.0939345
2.5298684 0.14422733 -1.0924538
2.5238934 0.19672899 -1.0909731
2.5191123 0.23873895 -1.0897882
2.5131352 0.2912623 -1.0883069
2.5071564 0.34379628 -1.0868251
2.5023725 0.38583219 -1.0856396
2.4963913 0.43838781 -1.0841572
2.4907532 0.48873553 -1.0785012
2.4846873 0.54324323 -1.0706091
2.4787023 0.59583253 -1.0691247
2.4739132 0.63791269 -1.0679369
2.4679258 0.69052356 -1.0664518
2.4619374 0.74314541 -1.0649664
2.4571455 0.7852515 -1.0637779
2.4511545 0.83789498 -1.0622919
2.4451618 0.89054918 -1.0608057
2.440367 0.93268126 -1.0596164
2.4343724 0.98535722 -1.0581295
2.4283762 1.0380441 -1.0566425
2.4235785 1.0802021 -1.0554526
2.4175801 1.1329105 -1.0539647
2.4115806 1.18563 -1.0524765
2.4055796 1.2383617 -1.0509881
2.3995769 1.2911041 -1.0494994
2.3947742 1.3333069 -1.0483081
2.3887691 1.3860711 -1.0468186
2.3827634 1.4388462 -1.045329
2.3779573 1.481075 -1.0441371
2.3719487 1.533872 -1.0426466
2.3659389 1.5866798 -1.0411563
2.3611302 1.6289346 -1.0399635
2.355118 1.681764 -1.0384723
2.3491044 1.7346045 -1.0369807
2.3442929 1.7768856 -1.0357872
2.3382769 1.8297478 -1.0342953
2.3322594 1.8826209 -1.0328027
2.3274443 1.9249281 -1.0316086
2.321425 1.9778229 -1.0301156
2.3154039 2.0307288 -1.0286219
2.3120539 2.0621803 -1.01711
2.6040642 -0.49332136 -1.0613142
2.6745989 -0.47983569 -1.049256
2.7480342 -0.47235516 -1.0511745
2.8253889 -0.46447557 -1.0531956
2.9069848 -0.45616376 -1.0553274
2.9931808 -0.44738349 -1.0575793
3.0843766 -0.43809384 -1.059962
3.1810212 -0.42824924 -1.0624871
3.2836173 -0.41779831 -1.0651675
3.3927326 -0.40668324 -1.0680183
3.5090084 -0.39483875 -1.0710562
3.6331732 -0.38219088 -1.0743001
3.7660594 -0.36865464 -1.077772
2.5991943 -0.45490643 -1.05651
2.5932345 -0.40253666 -1.0550272
2.5872734 -0.35015631 -1.0535439
2.5825036 -0.3082433 -1.0523573
2.57654 -0.25584131 -1.0508735
2.5705752 -0.20342863 -1.0493892
2.5658023 -0.16148981 -1.0482017
2.5598354 -0.10905558 -1.046717
2.5538666 -0.056610633 -1.0452319
2.5478971 -0.0041533066 -1.0437467
2.5419261 0.048314791 -1.042261
2.537148 0.090297826 -1.0410722
2.5311744 0.14278744 -1.0395859
2.5252001 0.1952879 -1.0380994
2.5204194 0.23729686 -1.0369099
2.5144424 0.28981885 -1.0354228
2.5084639 0.34235162 -1.0339352
2.5036802 0.38438648 -1.032745
2.4976995 0.43694082 -1.0312568
2.4917173 0.48950598 -1.0297685
2.485734 0.5420835 -1.0282798
2.479749 0.59467179 -1.0267907
2.4749606 0.63675117 -1.0255991
2.4689734 0.68936104 -1.0241096
2.4629848 0.7419818 -1.0226195
2.4581935 0.78408712 -1.0214273
2.4522023 0.83672953 -1.0199366
2.4462101 0.88938272 -1.0184458
2.4414153 0.93151402 -1.0172528
2.435421 0.98418897 -1.0157613
2.4294252 1.0368748 -1.0142695
2.4246278 1.0790319 -1.0130758
2.4186294 1.1317394 -1.0115834
2.4126301 1.1844577 -1.0100906
2.4066291 1.2371882 -1.0085975
2.4006271 1.2899299 -1.0071042
2.3958242 1.3321319 -1.0059092
2.3898194 1.3848948 -1.004415
2.3838136 1.4376689 -1.0029209
2.3790078 1.479897 -1.001725
2.3729999 1.532693 -1.0002301
2.3669901 1.5854998 -0.99873489
2.3621817 1.6277537 -0.99753845
2.3561692 1.680582 -0.99604249
2.3501558 1.7334216 -0.99454635
2.3453448 1.775702 -0.99334913
2.3393288 1.8285629 -0.99185228
2.3333118 1.8814348 -0.99035525
2.3284972 1.9237413 -0.98915738
2.3224781 1.9766352 -0.98765963
2.3164568 2.0295398 -0.98616159
2.3116393 2.0718725 -0.984963
2.3080258 2.1036267 -0.98406386
2.6196189 -0.44899723 -1.0313799
2.6902933 -0.44086882 -1.0328075
2.7646663 -0.4323146 -1.0343093
2.8430376 -0.42330042 -1.0358917
2.9257388 -0.41378856 -1.0375619
3.0131388 -0.40373603 -1.0393265
3.1056497 -0.39309588 -1.0411948
3.2037325 -0.38181469 -1.0431753
3.3079076 -0.3698329 -1.045279
3.4187596 -0.35708296 -1.0475173
3.5369523 -0.3434889 -1.0499041
3.66324 -0.32896361 -1.0524544
3.7984836 -0.3134084 -1.0551853
2.5935507 -0.39829794 -1.0179142
2.6346502 -0.41052708 -1.0151079
2.7062078 -0.40135291 -1.0161271
2.7815385 -0.39169529 -1.0172002
2.8609488 -0.38151434 -1.0183313
2.9447796 -0.37076679 -1.0195252
3.0334103 -0.35940376 -1.0207876
3.1272662 -0.34737083 -1.0221243
3.2268219 -0.33460703 -1.0235422
3.3326147 -0.32104376 -1.0250491
3.4452481 -0.30660343 -1.0266532
3.5654085 -0.29119813 -1.0283645
3.693876 -0.27472776 -1.0301942
2.589772 -0.34959272 -1.0053804
2.6576145 -0.35175234 -0.99024701
2.7223485 -0.36127689 -0.99921042
2.7986569 -0.35048446 -0.99984205
2.879128 -0.33910322 -1.000508
2.9641132 -0.32708335 -1.0012113
3.054003 -0.31436995 -1.0019552
3.149235 -0.30090088 -1.0027431
3.2502992 -0.28660706 -1.0035795
3.3577497 -0.27140975 -1.0044686
3.4722102 -0.2552211 -1.0054158
3.5943909 -0.23794076 -1.0064269
3.7250986 -0.21945408 -1.0075083
2.5838075 -0.30967209 -0.99954116
2.5778446 -0.25727132 -0.9980517
