# .PCD v0.7 - Point Cloud Data file format
VERSION 0.7
FIELDS x y z
SIZE 4 4 4
TYPE F F F
COUNT 1 1 1
WIDTH 1528
HEIGHT 1
VIEWPOINT 0 0 0 1 0 0 0
POINTS 1528
DATA ascii
3.3242159 1.7871345 1.1221159
3.3249428 1.8367829 1.1214851
3.3254881 1.8740089 1.1210123
3.266691 -2.1108239 1.222348
3.2674365 -2.0598762 1.2216923
3.2681828 -2.0089455 1.2210369
3.2689285 -1.9580321 1.2203815
3.2696741 -1.9071356 1.2197268
3.2704194 -1.856256 1.2190719
3.2711639 -1.8053935 1.2184172
3.271909 -1.7545481 1.2177628
3.2726533 -1.7037196 1.2171087
3.2733977 -1.6529081 1.2164546
3.2741418 -1.6021138 1.2158011
3.2748854 -1.5513363 1.2151476
3.2756288 -1.5005755 1.2144941
3.276372 -1.449832 1.2138412
3.2771151 -1.3991051 1.2131883
3.277858 -1.3483955 1.2125357
3.2786002 -1.2977027 1.2118832
3.2793434 -1.2470267 1.211231
3.2800844 -1.1963677 1.2105792
3.2808266 -1.1457255 1.2099274
3.2815683 -1.0951003 1.2092757
3.2823093 -1.0444919 1.2086245
3.2830505 -0.99390054 1.2079734
3.2837913 -0.94332576 1.2073225
3.2845316 -0.89276809 1.2066718
3.2852724 -0.84222704 1.2060213
3.2860117 -0.79170299 1.205371
3.2867522 -0.74119568 1.204721
3.2874918 -0.69070536 1.2040713
3.2882309 -0.64023167 1.2034216
3.28897 -0.58977497 1.2027724
3.2897084 -0.53933483 1.2021229
3.2907386 -0.47641599 1.1887017
3.2903502 -0.49307692 1.2057316
3.2910011 -0.45110476 1.2009877
3.2915549 -0.4133082 1.2005012
3.2922928 -0.36292696 1.1998527
3.29303 -0.31256241 1.1992044
3.2937679 -0.2622146 1.1985568
3.2945046 -0.2118835 1.1979088
3.2952423 -0.16156919 1.1972613
3.2959785 -0.11127159 1.196614
3.2967153 -0.060990706 1.1959668
3.2974517 -0.010726541 1.1953199
3.2981875 0.039520942 1.1946733
3.298923 0.089751706 1.1940268
3.2996585 0.13996585 1.1933805
3.3003936 0.19016331 1.1927345
3.3011291 0.24034403 1.1920887
3.3018637 0.29050812 1.191443
3.3025985 0.34065557 1.1907978
3.3033326 0.39078647 1.1901525
3.3040667 0.44090056 1.1895074
3.3048005 0.49099809 1.1888628
3.3055344 0.5410791 1.1882182
3.306267 0.59114337 1.1875739
3.3070002 0.64119112 1.1869298
3.3077335 0.69122219 1.186286
3.3084657 0.74123681 1.1856421
3.3091984 0.79123473 1.1849989
3.3099303 0.84121639 1.1843556
3.3106625 0.89118117 1.1837127
3.3113937 0.94112939 1.1830698
3.3121254 0.99106097 1.182427
3.3128567 1.0409765 1.1817849
3.313587 1.090875 1.1811427
3.3143179 1.1407572 1.1805006
3.3150487 1.1906229 1.1798588
3.3157783 1.2404722 1.1792173
3.3165088 1.2903048 1.1785759
3.3172383 1.3401209 1.1779348
3.3179679 1.3899208 1.1772939
3.318697 1.4397043 1.1766533
3.3194261 1.489471 1.1760129
3.3201547 1.539221 1.1753724
3.3208835 1.588955 1.1747323
3.3216116 1.6386725 1.1740925
3.3223393 1.6883734 1.1734527
3.3230674 1.7380583 1.1728133
3.3237944 1.7877262 1.1721741
3.3245218 1.837378 1.171535
3.3250673 1.8746066 1.1710559
3.2662599 -2.1105084 1.2730663
3.2670057 -2.0595572 1.272402
3.2677522 -2.0086229 1.2717382
3.2684979 -1.9577057 1.2710743
3.269244 -1.9068058 1.2704108
3.2699895 -1.8559227 1.2697476
3.2707345 -1.8050566 1.2690845
3.2714791 -1.7542075 1.2684214
3.2722237 -1.7033752 1.2677588
3.2729681 -1.6525601 1.2670963
3.2737124 -1.6017621 1.2664338
3.2744563 -1.5509809 1.2657719
3.2751999 -1.5002165 1.2651103
3.2759428 -1.4494693 1.2644485
3.2766867 -1.398739 1.2637874
3.2774293 -1.3480257 1.2631263
3.278172 -1.2973291 1.2624651
3.2789142 -1.2466495 1.2618046
3.2796564 -1.1959867 1.261144
3.2803981 -1.1453412 1.2604837
3.2811401 -1.0947124 1.2598242
3.2818811 -1.0441004 1.2591641
3.2826228 -0.99350536 1.2585045
3.2833636 -0.942927 1.2578453
3.2841041 -0.89236569 1.2571859
3.2848449 -0.84182119 1.2565271
3.2855847 -0.79129344 1.2558684
3.2863245 -0.74078262 1.2552098
3.287065 -0.69028854 1.2545518
3.2878036 -0.63981134 1.2538937
3.2885427 -0.58935088 1.2532358
3.2892823 -0.53890729 1.2525781
3.2900202 -0.48848051 1.2519207
3.2906814 -0.45077932 1.238817
3.290468 -0.45056242 1.2640389
3.2911284 -0.41287172 1.2509352
3.2918661 -0.36248684 1.2502782
3.2926044 -0.31211871 1.2496216
3.2933419 -0.26176733 1.2489655
3.2940793 -0.21143268 1.2483091
3.2948163 -0.1611148 1.2476531
3.295553 -0.11081363 1.2469974
3.2962899 -0.060529172 1.2463418
3.2970262 -0.010261461 1.2456864
3.2977626 0.039989576 1.2450316
3.2984979 0.090223983 1.2443764
3.2992337 0.14044161 1.2437218
3.2999692 0.19064261 1.2430675
3.300704 0.24082682 1.2424132
3.3014393 0.29099452 1.2417593
3.3021739 0.34114563 1.2411053
3.3029082 0.39127988 1.2404518
3.3036423 0.44139755 1.2397985
3.3043766 0.49149871 1.2391452
3.3051097 0.5415833 1.2384923
3.3058434 0.59165102 1.2378398
3.306577 0.64170241 1.2371873
3.3073096 0.69173688 1.2365348
3.3080423 0.74175513 1.2358829
3.3087745 0.79175657 1.235231
3.3095069 0.8417415 1.2345793
3.3102388 0.89170969 1.233928
3.3109708 0.94166166 1.2332767
3.3117023 0.99159694 1.2326258
3.3124337 1.0415158 1.2319752
3.3131649 1.0914179 1.2313246
3.3138955 1.1413037 1.2306743
3.3146257 1.1911727 1.2300242
3.3153563 1.2410254 1.2293743
3.3160868 1.2908618 1.2287247
3.3168166 1.3406817 1.2280751
3.3175457 1.3904847 1.2274258
3.3182757 1.4402716 1.226777
3.3190048 1.4900419 1.2261281
3.3197334 1.5397955 1.2254794
3.3204618 1.5895329 1.224831
3.3211906 1.6392539 1.2241827
3.3219185 1.6889584 1.2235348
3.3226459 1.7386466 1.222887
3.3233743 1.7883183 1.2222395
3.3241012 1.8379734 1.2215921
3.3246462 1.8752046 1.221107
3.2658293 -2.1101935 1.3237921
3.2665758 -2.0592384 1.323119
3.2673218 -2.0083003 1.3224466
3.2680683 -1.9573798 1.3217744
3.2688138 -1.9064759 1.3211024
3.2695591 -1.8555889 1.3204304
3.2703047 -1.8047192 1.3197588
3.2710493 -1.7538667 1.3190874
3.2717943 -1.7030308 1.3184162
3.2725387 -1.6522121 1.3177451
3.2732828 -1.6014102 1.3170743
3.2740269 -1.5506253 1.3164039
3.2747707 -1.4998575 1.3157336
3.2755139 -1.4491067 1.3150636
3.2762578 -1.3983728 1.3143938
3.2770009 -1.3476558 1.3137242
3.2777436 -1.2969555 1.3130547
3.278486 -1.2462726 1.3123856
3.2792282 -1.195606 1.3117166
3.2799706 -1.1449567 1.3110478
3.2807119 -1.0943244 1.3103791
3.2814538 -1.0437088 1.3097111
3.2821946 -0.99311006 1.309043
3.2829359 -0.94252813 1.3083752
3.2836764 -0.89196318 1.3077077
3.2844169 -0.84141511 1.3070402
3.2851574 -0.79088378 1.306373
3.2858973 -0.74036926 1.305706
3.2866371 -0.68987167 1.3050393
3.2873764 -0.63939089 1.3043729
3.2881167 -0.58892697 1.3037066
3.2888551 -0.53847975 1.3030406
3.2895942 -0.48804927 1.3023747
3.2902358 -0.44179988 1.3059686
3.2907989 -0.40827173 1.297117
3.2914398 -0.36204666 1.3007112
3.2921784 -0.31167495 1.3000461
3.2929156 -0.26131999 1.2993813
3.2936532 -0.2109818 1.2987167
3.2943904 -0.16066034 1.2980521
3.2951274 -0.1103556 1.2973881
3.2958641 -0.060067594 1.2967241
3.2966011 -0.0097963065 1.2960602
3.2973368 0.040458299 1.2953969
3.2980726 0.090696231 1.2947334
3.2988088 0.14091744 1.2940704
3.2995443 0.19112198 1.2934077
3.3002794 0.24130984 1.292745
3.3010147 0.29148099 1.2920827
3.3017492 0.34163547 1.2914203
3.3024838 0.39177346 1.2907583
3.3032181 0.44189471 1.2900966
3.303952 0.49199939 1.2894351
3.3046861 0.54208738 1.2887737
3.3054197 0.59215868 1.2881128
3.3061526 0.64221346 1.2874519
3.3068855 0.69225174 1.2867911
3.3076186 0.74227327 1.2861308
3.3083513 0.79227817 1.2854705
3.3090835 0.84226662 1.2848104
3.3098154 0.89223868 1.2841506
3.3105474 0.94219404 1.2834911
3.3112795 0.99213302 1.282832
3.3120108 1.0420555 1.2821729
3.3127418 1.0919609 1.2815139
3.313473 1.1418501 1.2808553
3.3142037 1.1917228 1.2801968
3.314934 1.2415791 1.2795385
3.3156643 1.2914187 1.2788805
3.3163946 1.3412418 1.2782227
3.3171241 1.3910487 1.2775652
3.3178532 1.4408389 1.276908
3.3185825 1.4906126 1.2762506
3.3193116 1.54037 1.2755938
3.3200405 1.5901108 1.2749368
3.3207688 1.6398352 1.2742804
3.3214974 1.6895432 1.2736242
3.3222251 1.7392347 1.2729681
3.3229527 1.78891 1.272312
3.3236804 1.8385684 1.2716568
3.3242257 1.8758025 1.2711649
3.2653987 -2.1098778 1.374525
3.266145 -2.0589192 1.3738438
3.2668917 -2.007978 1.3731626
3.2676377 -1.9570534 1.3724818
3.268384 -1.9061459 1.3718011
3.269129 -1.8552554 1.3711207
3.2698746 -1.804382 1.3704408
3.2706196 -1.7535255 1.3697606
3.2713642 -1.7026862 1.3690809
3.2721093 -1.6518639 1.3684014
3.2728534 -1.6010585 1.3677222
3.2735982 -1.55027 1.3670431
3.2743418 -1.4994985 1.3663644
3.2750847 -1.4487438 1.3656857
3.2758286 -1.3980064 1.3650075
3.276572 -1.3472856 1.3643295
3.2773147 -1.2965819 1.3636516
3.2780576 -1.2458951 1.3629738
3.2787998 -1.1952252 1.3622963
3.2795417 -1.1445721 1.3616191
3.2802835 -1.0939363 1.3609421
3.2810254 -1.0433168 1.3602653
3.2817669 -0.99271476 1.359589
3.2825081 -0.94212937 1.3589125
3.2832487 -0.89156073 1.3582366
3.2839894 -0.84100902 1.3575606
3.2847302 -0.79047406 1.3568851
3.2854702 -0.73995596 1.3562095
3.2862098 -0.68945479 1.3555344
3.2869499 -0.63897043 1.3548596
3.2876892 -0.58850276 1.3541849
3.2884285 -0.5380519 1.3535104
3.2891676 -0.48761803 1.352836
3.2899065 -0.43720084 1.3521619
3.2904599 -0.39939839 1.3516564
3.291014 -0.36160642 1.3511512
3.2917519 -0.31123114 1.3504776
3.29249 -0.26087266 1.3498044
3.293227 -0.21053086 1.3491315
3.2939649 -0.16020583 1.3484586
3.2947013 -0.10989749 1.3477861
3.295439 -0.059605956 1.3471135
3.2961752 -0.0093310773 1.3464415
3.2969115 0.040927082 1.3457695
3.297648 0.091168568 1.3450978
3.2983832 0.14139335 1.3444263
3.2991192 0.1916014 1.3437551
3.2998548 0.24179277 1.343084
3.30059 0.29196763 1.3424133
3.3013253 0.34212571 1.3417428
3.3020597 0.39226711 1.3410723
3.302794 0.44239181 1.3404022
3.3035281 0.49250013 1.3397322
3.3042624 0.54259157 1.3390625
3.3049955 0.59266657 1.338393
3.3057289 0.64272493 1.3377239
3.3064623 0.69276655 1.3370547
3.3071952 0.74279171 1.336386
3.3079278 0.79280019 1.3357172
3.3086603 0.84279233 1.3350488
3.3093927 0.89276773 1.3343806
3.3101246 0.94272643 1.3337129
3.3108563 0.99266881 1.3330451
3.311588 1.0425947 1.3323778
3.3123193 1.092504 1.3317106
3.3130505 1.1423966 1.3310434
3.3137815 1.1922727 1.3303765
3.3145115 1.2421325 1.32971
3.3152423 1.2919757 1.3290436
3.3159723 1.3418024 1.3283776
3.3167021 1.3916128 1.3277117
3.3174314 1.4414065 1.3270458
3.3181612 1.4911838 1.3263806
3.3188901 1.5409445 1.3257152
3.3196192 1.5906887 1.32505
3.3203473 1.6404167 1.324385
3.3210754 1.6901283 1.3237206
3.3218038 1.7398231 1.3230561
3.3225315 1.7895018 1.322392
3.3232594 1.8391639 1.3217281
3.3238049 1.8764006 1.3212303
3.2649677 -2.1095624 1.4252653
3.2657144 -2.0586002 1.4245756
3.2664614 -2.0076551 1.4238861
3.2672076 -1.956727 1.4231966
3.2679532 -1.9058158 1.4225072
3.2686989 -1.8549217 1.4218185
3.2694445 -1.8040446 1.4211298
3.27019 -1.7531849 1.4204415
3.2709348 -1.7023418 1.4197532
3.2716794 -1.6515155 1.4190651
3.272424 -1.6007065 1.4183774
3.2731681 -1.5499141 1.4176899
3.2739124 -1.4991395 1.4170024
3.2746561 -1.4483813 1.4163153
3.2753999 -1.3976399 1.4156284
3.2761431 -1.3469156 1.414942
3.2768862 -1.2962084 1.4142557
3.2776284 -1.245518 1.4135695
3.2783713 -1.1948442 1.4128835
3.2791135 -1.1441878 1.4121978
3.2798557 -1.0935482 1.4115124
3.2805972 -1.0429254 1.410827
3.2813392 -0.99231946 1.4101421
3.2820804 -0.94173026 1.4094576
3.2828217 -0.8911581 1.4087727
3.2835619 -0.84060276 1.4080884
3.2843025 -0.79006422 1.4074044
3.2850428 -0.7395426 1.4067204
3.2857831 -0.68903786 1.4060366
3.2865226 -0.63854986 1.4053532
3.2872622 -0.58807868 1.4046705
3.2880015 -0.5376243 1.4039873
3.2887404 -0.48718667 1.4033045
3.2894795 -0.43676585 1.4026221
3.2900341 -0.39896083 1.4021102
3.2905874 -0.36116618 1.4015987
3.2913253 -0.31078726 1.4009167
3.2920637 -0.26042521 1.4002349
3.2928016 -0.21007983 1.3995537
3.2935386 -0.15975122 1.3988723
3.2942762 -0.10943936 1.3981912
3.2950127 -0.059144214 1.3975104
3.2957497 -0.0088657737 1.3968298
3.2964866 0.041395929 1.3961496
3.2972224 0.091640949 1.3954694
3.2979586 0.14186925 1.3947895
3.2986941 0.19208093 1.3941101
3.2994294 0.24227585 1.3934302
3.3001652 0.29245424 1.3927512
3.3009002 0.34261584 1.3920722
3.301635 0.39276081 1.3913934
3.3023694 0.44288921 1.3907149
3.3031034 0.49300086 1.3900365
3.3038373 0.54309601 1.3893584
3.3045719 0.59317434 1.3886808
3.3053052 0.64323628 1.3880029
3.3060384 0.69328153 1.3873255
3.3067715 0.74331021 1.3866483
3.3075044 0.79332232 1.3859714
3.3082368 0.84331757 1.3852946
3.308969 0.89329678 1.384618
3.3097014 0.94325906 1.3839418
3.3104336 0.99320489 1.3832656
3.3111646 1.0431343 1.3825899
3.3118961 1.093047 1.3819143
3.3126273 1.1429431 1.3812388
3.3133583 1.1928228 1.3805637
3.3140891 1.242686 1.3798887
3.3148196 1.2925329 1.3792139
3.3155496 1.342363 1.3785396
3.3162799 1.392177 1.3778652
3.3170099 1.4419739 1.3771913
3.3177392 1.4917549 1.3765174
3.3184686 1.541519 1.3758438
3.3191969 1.591267 1.3751705
3.3199258 1.6409984 1.3744972
3.3206544 1.6907134 1.3738244
3.3213828 1.7404119 1.3731514
3.3221107 1.7900938 1.372479
3.3228383 1.8397599 1.3718066
3.3233838 1.8769983 1.3713026
3.2645369 -2.1092472 1.4760133
3.2652838 -2.0582812 1.4753149
3.2660306 -2.0073323 1.4746168
3.266777 -1.9564006 1.4739189
3.2675226 -1.9054859 1.4732212
3.2682688 -1.8545883 1.4725236
3.2690148 -1.8037074 1.4718264
3.2697599 -1.7528437 1.4711295
3.270505 -1.701997 1.4704326
3.2712495 -1.651167 1.4697362
3.2719941 -1.6003547 1.4690399
3.2727387 -1.549559 1.4683439
3.2734828 -1.49878 1.4676479
3.2742267 -1.4480184 1.4669524
3.2749705 -1.3972735 1.466257
3.2757142 -1.3465458 1.465562
3.2764573 -1.2958347 1.4648672
3.2772002 -1.2451407 1.4641724
3.2779424 -1.1944634 1.4634781
3.2786849 -1.1438032 1.4627839
3.2794275 -1.0931598 1.4620898
3.2801695 -1.0425335 1.461396
3.2809105 -0.99192405 1.4607027
3.281652 -0.94133139 1.4600096
3.2823932 -0.89075541 1.4593164
3.2831345 -0.84019649 1.4586236
3.283875 -0.78965443 1.457931
3.284615 -0.73912919 1.4572387
3.2853558 -0.68862081 1.4565467
3.2860954 -0.63812923 1.4558548
3.2868357 -0.58765447 1.4551631
3.287575 -0.53719652 1.4544716
3.2883141 -0.48675531 1.4537805
3.2890527 -0.43633091 1.4530896
3.2896068 -0.39852309 1.4525714
3.2903454 -0.34812808 1.4518808
3.2899761 -0.3733235 1.4522259
3.290899 -0.31034338 1.4513631
3.2916374 -0.2599777 1.4506729
3.2923753 -0.20962875 1.4499831
3.2931128 -0.15929657 1.4492934
3.2938502 -0.10898113 1.4486041
3.2945874 -0.058682397 1.4479148
3.2953241 -0.0084004179 1.4472257
3.2960603 0.04186485 1.446537
3.296797 0.092113435 1.4458482
3.297533 0.14234532 1.4451598
3.298269 0.19256051 1.444472
3.2990043 0.24275894 1.4437841
3.2997403 0.29294086 1.4430965
3.3004749 0.34310603 1.442409
3.3012104 0.39325458 1.4417217
3.3019445 0.44338655 1.4410349
3.3026791 0.49350172 1.4403481
3.3034134 0.54360038 1.4396616
3.3041472 0.59368235 1.4389755
3.3048811 0.64374775 1.4382894
3.3056142 0.69379658 1.4376036
3.3063476 0.74382871 1.4369179
3.3070807 0.7938444 1.4362327
3.3078129 0.84384334 1.4355475
3.3085458 0.89382583 1.4348624
3.3092778 0.94379163 1.4341779
3.3100097 0.99374104 1.4334934
3.3107417 1.0436739 1.4328092
3.3114734 1.0935901 1.4321251
3.3122046 1.14349 1.4314415
3.3129358 1.1933731 1.430758
3.3136668 1.2432399 1.4300747
3.3143971 1.29309 1.4293915
3.3151271 1.3429238 1.4287088
3.3158579 1.392741 1.4280263
3.3165882 1.4425416 1.427344
3.317317 1.4923261 1.4266617
3.3180466 1.5420939 1.4259799
3.3187754 1.591845 1.425298
3.3195045 1.6415801 1.4246162
3.3202329 1.6912985 1.4239352
3.3209612 1.7410004 1.4232541
3.3216896 1.7906861 1.4225734
3.3224175 1.840355 1.4218925
3.3229632 1.8775967 1.4213823
3.264106 -2.1089315 1.5267683
3.2648535 -2.0579624 1.5260617
3.2656 -2.0070097 1.525355
3.2663467 -1.9560742 1.5246484
3.2670927 -1.9051557 1.5239421
3.2678385 -1.8542544 1.5232363
3.2685845 -1.8033699 1.5225304
3.2693298 -1.7525028 1.5218248
3.2700751 -1.7016524 1.5211197
3.2708199 -1.6508189 1.5204146
3.2715647 -1.6000026 1.5197099
3.2723095 -1.5492034 1.5190054
3.2730536 -1.4984208 1.5183009
3.2737978 -1.4476557 1.5175968
3.2745414 -1.3969071 1.5168929
3.2752848 -1.3461753 1.5161895
3.2760286 -1.2954608 1.5154859
3.2767715 -1.2447631 1.5147829
3.277514 -1.1940823 1.5140799
3.2782567 -1.1434184 1.5133771
3.2789986 -1.0927716 1.5126748
3.2797406 -1.0421416 1.5119724
3.2804825 -0.99152839 1.5112706
3.2812245 -0.94093215 1.5105687
3.2819657 -0.89035285 1.5098675
3.2827065 -0.83979017 1.5091661
3.2834475 -0.78924453 1.5084648
3.284188 -0.73871565 1.5077641
3.2849281 -0.68820357 1.5070635
3.2856684 -0.63770849 1.5063633
3.2864082 -0.58723015 1.505663
3.287148 -0.53676867 1.5049636
3.2878869 -0.48632383 1.5042638
3.2886262 -0.43589586 1.5035642
3.2891803 -0.39808536 1.50304
3.2897339 -0.36028534 1.5025156
3.2904727 -0.30989939 1.5018167
3.2912109 -0.25953007 1.5011182
3.2919486 -0.20917757 1.5004197
3.2926869 -0.15884183 1.4997216
3.2934241 -0.10852283 1.4990238
3.2941616 -0.058220565 1.4983261
3.2948983 -0.0079349875 1.4976288
3.295635 0.042333819 1.4969313
3.2963719 0.092585944 1.4962343
3.2971077 0.14282143 1.4955376
3.2978439 0.19304021 1.4948412
3.2985797 0.24324226 1.494145
3.2993152 0.29342762 1.493449
3.3000507 0.34359634 1.492753
3.3007858 0.39374846 1.4920576
3.3015203 0.44388384 1.4913621
3.3022547 0.4940027 1.4906669
3.302989 0.54410481 1.489972
3.3037233 0.59419036 1.4892775
3.3044567 0.64425927 1.4885831
3.3051903 0.69431168 1.4878888
3.3059239 0.74434733 1.4871948
3.3066566 0.79436642 1.4865012
3.3073895 0.84436888 1.4858077
3.3081224 0.89435488 1.4851143
3.3088553 0.94432437 1.4844211
3.3095868 0.99427724 1.4837285
3.3103187 1.0442137 1.483036
3.3110502 1.0941334 1.4823434
3.3117821 1.1440367 1.4816514
3.3125131 1.1939234 1.4809594
3.3132439 1.2437935 1.480268
3.3139751 1.2936473 1.4795765
3.3147054 1.3434846 1.4788851
3.3154354 1.3933053 1.4781944
3.3161654 1.4431096 1.4775037
3.3168952 1.4928974 1.4768132
3.3176246 1.5426686 1.476123
3.3183541 1.5924234 1.4754328
3.3190825 1.6421616 1.4747429
3.3198116 1.6918836 1.474053
3.3205404 1.741589 1.4733639
3.3212683 1.7912784 1.4726748
3.3219962 1.8409508 1.4719859
3.3225424 1.8781952 1.4714693
3.2637827 -2.108695 1.5648395
3.2645297 -2.0577226 1.5641261
3.2652767 -2.0067675 1.5634129
3.2660236 -1.9558294 1.5627002
3.2667696 -1.9049082 1.5619875
3.2675161 -1.8540041 1.5612751
3.2682617 -1.8031169 1.5605632
3.2690072 -1.7522469 1.5598513
3.2697527 -1.7013935 1.5591396
3.2704978 -1.6505578 1.5584282
3.2712429 -1.5997386 1.5577168
3.2719874 -1.5489365 1.5570058
3.2727313 -1.4981514 1.556295
3.2734759 -1.4473834 1.5555848
3.2742198 -1.3966322 1.5548747
3.2749634 -1.3458978 1.5541646
3.2757063 -1.2951804 1.5534548
3.2764502 -1.2444803 1.5527452
3.2771926 -1.1937966 1.5520359
3.2779353 -1.1431301 1.551327
3.2786777 -1.0924804 1.5506181
3.2794197 -1.0418478 1.5499097
3.2801614 -0.99123192 1.5492011
3.2809036 -0.94063282 1.5484931
3.2816448 -0.89005083 1.547785
3.2823861 -0.83948553 1.5470775
3.2831268 -0.78893709 1.5463701
3.2838674 -0.73840553 1.5456628
3.2846081 -0.68789077 1.5449561
3.2853482 -0.63739294 1.5442494
3.286088 -0.58691186 1.5435429
3.2868278 -0.53644764 1.5428367
3.2875669 -0.48600018 1.5421307
3.2883065 -0.43556958 1.5414248
3.2888603 -0.39775705 1.5408957
3.2894144 -0.35995501 1.5403666
3.2901528 -0.30956638 1.5396615
3.2908912 -0.25919437 1.5389568
3.2916296 -0.20883922 1.5382521
3.2923667 -0.15850075 1.5375475
3.2931044 -0.10817905 1.5368433
3.2938423 -0.057874113 1.5361391
3.294579 -0.0075858906 1.5354356
3.295316 0.042685635 1.5347321
3.2960529 0.09294045 1.5340288
3.2967889 0.14317855 1.5333257
3.2975247 0.19340001 1.5326229
3.2982609 0.24360475 1.5319203
3.2989964 0.29379278 1.5312178
3.299732 0.34396416 1.5305157
3.300467 0.39411885 1.5298136
3.3012018 0.4442569 1.5291123
3.3019364 0.49437845 1.5284109
3.3026707 0.5444833 1.5277095
3.3034048 0.59457141 1.5270087
3.3041394 0.64464301 1.5263078
3.304873 0.6946981 1.5256075
3.3056059 0.74473643 1.5249071
3.3063393 0.79475814 1.5242072
3.3070724 0.84476328 1.5235074
3.3078046 0.89475191 1.5228077
3.3085372 0.9447242 1.5221084
3.3092694 0.99467933 1.5214093
3.3100014 1.0446184 1.5207105
3.3107333 1.094541 1.5200118
3.3114648 1.1444466 1.5193135
3.3121963 1.1943362 1.5186155
3.3129272 1.2442087 1.5179175
3.3136578 1.2940652 1.5172198
3.3143885 1.343905 1.516522
3.3151183 1.3937284 1.5158252
3.3158488 1.4435353 1.5151279
3.3165786 1.4933259 1.5144311
3.3173082 1.5430995 1.5137347
3.3180375 1.592857 1.5130384
3.3187666 1.642598 1.5123422
3.3194954 1.6923225 1.5116463
3.3202238 1.7420307 1.5109508
3.3209522 1.7917225 1.5102553
3.3216801 1.8413974 1.5095601
3.3222263 1.8786438 1.5090388
3.358459 1.4574751 -1.6058313
3.3598869 1.5123628 -1.6086868
3.3613198 1.5674261 -1.6115513
3.362397 1.6088331 -1.6137054
3.3634772 1.6503507 -1.6158653
3.3649211 1.7058553 -1.6187531
3.3663702 1.7615376 -1.6216497
3.3678234 1.817399 -1.6245558
3.3294845 0.34384775 -1.5478969
3.330822 0.39524317 -1.5505706
3.3321631 0.44679725 -1.5532526
3.3335085 0.49851078 -1.5559429
3.3348582 0.55038434 -1.5586414
3.3362119 0.60241872 -1.5613487
3.3375702 0.65461481 -1.5640641
3.3389323 0.70697337 -1.5667878
3.3402989 0.75949496 -1.5695202
3.34167 0.81218052 -1.5722612
3.343045 0.86503059 -1.5750105
3.3439789 0.90480804 -1.5640246
3.3445694 0.9313904 -1.5523319
3.3451641 0.94907022 -1.5706655
3.3464012 0.99791241 -1.5688325
3.3477907 1.051342 -1.5715913
3.3491852 1.1049395 -1.5743591
3.3505838 1.1587061 -1.5771353
3.3519871 1.2126424 -1.5799206
3.353395 1.2667491 -1.5827144
3.3544533 1.3074365 -1.5848157
3.3555148 1.3482311 -1.5869223
3.3569336 1.402768 -1.5897385
3.3582537 1.4574813 -1.5792956
3.3597329 1.5169425 -1.5734825
3.361011 1.5674154 -1.571623
3.3620877 1.6088148 -1.573729
3.3631673 1.6503247 -1.5758406
3.3646109 1.7058188 -1.5786635
3.3660588 1.7614911 -1.5814954
3.3675113 1.8173419 -1.5843365
3.3051515 -0.59135729 -1.4992441
3.3060987 -0.5549528 -1.5011379
3.3073647 -0.50629228 -1.5036696
3.3086345 -0.45748574 -1.5062088
3.3099082 -0.40853214 -1.5087553
3.3111858 -0.35943121 -1.5113096
3.3124676 -0.31018209 -1.5138719
3.3137527 -0.26078427 -1.5164417
3.3149469 -0.21113686 -1.5063987
3.3165638 -0.14898692 -1.509608
3.3181865 -0.086616859 -1.5128289
3.3194892 -0.036543623 -1.5154145
3.3207958 0.013682105 -1.518008
3.3221064 0.064061075 -1.5206096
3.323092 0.10194144 -1.5225658
3.3240802 0.13991846 -1.5245268
3.3254004 0.19068372 -1.5271482
3.3267252 0.24160467 -1.5297779
3.3280542 0.29268211 -1.5324153
3.3293359 0.34830689 -1.5138861
3.330529 0.395441 -1.5120065
3.3314364 0.43414384 -1.5011046
3.3320141 0.45126712 -1.5191367
3.3332148 0.4986909 -1.5172588
3.3345635 0.55055541 -1.519897
3.3359163 0.6025809 -1.5225435
3.3372738 0.65476781 -1.5251983
3.3386354 0.70711726 -1.5278612
3.3400013 0.75962973 -1.5305324
3.3413718 0.81230599 -1.5332119
3.3427455 0.86514676 -1.5358999
3.3436799 0.90491712 -1.5248709
3.3443696 0.93146008 -1.5262108
3.3449612 0.95807785 -1.5144851
3.3460002 0.99803597 -1.5164871
3.347389 1.0514525 -1.5191633
3.3487828 1.1050375 -1.5218478
3.3501804 1.1587909 -1.5245408
3.3515828 1.2127146 -1.5272423
3.352989 1.2668084 -1.5299523
3.3540466 1.3074858 -1.5319901
3.3551073 1.3482704 -1.5340334
3.3565249 1.402794 -1.536765
3.3579473 1.457491 -1.539505
3.3592207 1.5077821 -1.5375954
3.3607535 1.5719961 -1.5230657
3.3616757 1.6087906 -1.5204489
3.3627548 1.6502903 -1.5224961
3.364197 1.7057704 -1.5252328
3.365644 1.761429 -1.5279784
3.3670952 1.8172657 -1.5307326
3.6672037 -0.60494089 -1.4432943
3.304872 -0.59099519 -1.4618276
3.3594899 -0.601165 -1.4478678
3.4687841 -0.59612232 -1.443319
3.3055024 -0.56674165 -1.4630615
3.3061345 -0.54245168 -1.4642972
3.3070843 -0.50594401 -1.4661543
3.3083532 -0.45714521 -1.4686365
3.3096263 -0.40819973 -1.4711263
3.3109031 -0.35910684 -1.4736238
3.3121839 -0.30986577 -1.4761285
3.3134687 -0.26047611 -1.4786408
3.3147066 -0.20663632 -1.4603391
3.3158588 -0.16105302 -1.4584178
3.3174803 -0.09872818 -1.4615403
3.3191068 -0.036182269 -1.4646739
3.3204122 0.014032222 -1.4671896
3.3217223 0.064399943 -1.4697127
3.3227069 0.10227184 -1.4716102
3.3236947 0.14024031 -1.4735125
3.3250139 0.19099407 -1.4760551
3.3263378 0.24190351 -1.4786056
3.3276658 0.29296932 -1.481164
3.3288543 0.33993983 -1.4792379
3.3302829 0.39997041 -1.4651003
3.3311431 0.43433511 -1.4625138
3.3318141 0.46014148 -1.4637866
3.3328226 0.49893087 -1.4657004
3.3341706 0.55078357 -1.4682583
3.3355231 0.60279697 -1.470824
3.3368793 0.6549719 -1.4733976
3.3382397 0.70730895 -1.4759794
3.3396049 0.75980914 -1.4785693
3.3409739 0.81247312 -1.4811673
3.3423474 0.86530149 -1.4837732
3.3433797 0.90502602 -1.4857328
3.3440697 0.93156427 -1.4870418
3.344661 0.95817751 -1.4752885
3.3457482 1.002592 -1.46874
3.3469875 1.0515631 -1.4667604
3.3483799 1.1051352 -1.4693619
3.3497767 1.1588761 -1.4719714
3.3511779 1.2127864 -1.4745893
3.3525836 1.2668673 -1.4772153
3.3536401 1.3075349 -1.4791901
3.3547006 1.3483099 -1.4811703
3.3561168 1.4028201 -1.4838173
3.3571827 1.4438112 -1.4858079
3.3578939 1.4711967 -1.4871376
3.358964 1.5123615 -1.4891367
3.3602409 1.5627995 -1.4871515
3.361367 1.6087723 -1.4805051
3.3624969 1.6548729 -1.4738384
3.3637836 1.7057225 -1.4718285
3.3652296 1.7613671 -1.4744879
3.3666801 1.8171903 -1.4771556
3.3677714 1.8591701 -1.4791621
3.3687611 1.901238 -1.4677501
3.7981906 -0.59955007 -1.4381418
3.9390488 -0.59375304 -1.4326013
4.0379257 -0.6094901 -1.4377844
3.3957026 -0.5828619 -1.4387422
3.5074902 -0.57714677 -1.4338344
3.5471132 -0.55772191 -1.424125
3.5855675 -0.5907343 -1.438459
3.6270294 -0.57103556 -1.4285864
3.6695092 -0.55085385 -1.4184718
3.7328959 -0.57472444 -1.4281079
3.8008082 -0.54348606 -1.4124074
3.8449018 -0.57876891 -1.4276661
3.8928297 -0.55744678 -1.4169176
3.9420209 -0.53556222 -1.4058855
3.9894218 -0.57210094 -1.4216515
4.0411572 -0.54986358 -1.4104056
3.3157473 -0.55612344 -1.4305948
3.379267 -0.54222876 -1.4204661
3.4327457 -0.56413943 -1.4294072
3.4706461 -0.54498285 -1.4198558
3.5094366 -0.52537704 -1.4100808
3.5876861 -0.53783101 -1.4141825
3.6292434 -0.51745766 -1.4039991
3.713043 -0.53017098 -1.4081063
3.7576716 -0.50896817 -1.39748
3.8476365 -0.52194655 -1.4015819
3.3119366 -0.50636584 -1.4183502
3.3809426 -0.49228919 -1.3975561
3.4345319 -0.51345545 -1.4061543
3.4725142 -0.49367988 -1.3963177
3.5491476 -0.50530612 -1.4000735
3.3079782 -0.4566915 -1.4185598
3.3092506 -0.40775663 -1.4209737
3.3105266 -0.35867441 -1.4233949
3.3118064 -0.30944419 -1.4258236
3.3130901 -0.26006526 -1.4282593
3.3142829 -0.21043767 -1.4180876
3.3154793 -0.16066414 -1.4078941
3.3170989 -0.098353148 -1.4109201
3.3187244 -0.035821147 -1.4139566
3.3200293 0.014382187 -1.4163945
3.3213379 0.064738616 -1.4188398
3.3223217 0.10260206 -1.4206786
3.3233085 0.14056194 -1.4225217
3.3246279 0.19130431 -1.4249859
3.3259506 0.24220219 -1.4274576
3.3272774 0.29325643 -1.4299368
3.3286085 0.34446764 -1.4324236
3.3297999 0.3915711 -1.4304272
3.3307528 0.43458986 -1.4110799
3.331423 0.46039033 -1.4123129
3.3324306 0.4991709 -1.4141662
3.3337777 0.55101162 -1.416644
3.3351293 0.60301292 -1.419129
3.3364847 0.65517575 -1.4216219
3.3378444 0.7075007 -1.4241227
3.3392084 0.75998855 -1.4266311
3.3405766 0.81264001 -1.4291474
3.341949 0.86545622 -1.4316715
3.3429809 0.90517145 -1.4335696
3.3436708 0.93170327 -1.4348375
3.3443606 0.95827705 -1.4361074
3.3452504 0.99378788 -1.4334444
3.3467348 1.0561205 -1.4189543
3.3479774 1.1052331 -1.4169011
3.3493731 1.1589608 -1.4194278
3.3507733 1.2128584 -1.4219621
3.3521781 1.2669263 -1.4245043
3.3532343 1.3075839 -1.4264162
3.3542931 1.348349 -1.4283328
3.3557093 1.4028461 -1.4308954
3.3567739 1.4438275 -1.4328223
3.3574848 1.4712058 -1.4341098
3.3585541 1.5123609 -1.4360452
3.3599834 1.56738 -1.4386321
3.3610582 1.608754 -1.4405777
3.3619816 1.6456213 -1.4378685
3.3634732 1.7056862 -1.4317915
3.3648148 1.761305 -1.4210234
3.3662655 1.8171146 -1.423605
3.3673556 1.8590838 -1.4255463
3.3684483 1.901166 -1.4274926
3.369544 1.9433379 -1.4294435
3.3701713 1.9714842 -1.4173025
3.8956852 -0.49984521 -1.390474
3.992527 -0.51309282 -1.3945585
4.0444007 -0.49001479 -1.382925
3.5113895 -0.47343993 -1.3862503
3.589812 -0.48475307 -1.3898263
3.6314647 -0.46370047 -1.3793296
3.6718218 -0.49658376 -1.3935657
3.7154591 -0.47519064 -1.3828722
3.7601955 -0.45325899 -1.37191
3.8269081 -0.47607416 -1.380994
3.8985515 -0.44203651 -1.3639354
3.945004 -0.47715992 -1.3790725
3.9956431 -0.4538672 -1.3673657
4.0476565 -0.42994231 -1.3553413
3.3183951 -0.45800549 -1.3854387
3.364404 -0.45223606 -1.3795477
3.4185836 -0.4473815 -1.3762144
3.4743886 -0.44221276 -1.372704
3.5133476 -0.42133451 -1.3623424
3.5715666 -0.44210905 -1.3706661
3.6336927 -0.40976316 -1.3545771
3.6741426 -0.44212991 -1.3685747
3.7178831 -0.42002183 -1.3575521
3.762728 -0.39735627 -1.346251
3.806072 -0.43076777 -1.3606678
3.8531344 -0.40769559 -1.3491353
3.9479985 -0.41854489 -1.352162
3.3178637 -0.40106106 -1.3672371
3.3660529 -0.40228504 -1.3566332
3.4203441 -0.39660293 -1.3529184
3.4762673 -0.39058065 -1.3490145
3.5532353 -0.39995927 -1.3517342
3.3101497 -0.35824221 -1.3731894
3.3114285 -0.30902272 -1.3755418
3.3127122 -0.25965464 -1.3779012
3.3138599 -0.21423684 -1.3758667
3.3150992 -0.16027546 -1.3573941
3.3167179 -0.097978249 -1.3603235
3.3180163 -0.047989085 -1.3626741
3.3186677 -0.022931173 -1.3638524
3.3196459 0.014732018 -1.3656234
3.3209538 0.065077141 -1.3679905
3.3219376 0.1029321 -1.3697708
3.3229234 0.14088345 -1.3715553
3.3242414 0.19161436 -1.3739408
3.3255632 0.24250074 -1.3763337
3.3268895 0.2935434 -1.3787339
3.3282197 0.34474301 -1.3811412
3.3295538 0.39610028 -1.3835564
3.3306971 0.44774103 -1.3602618
3.3311296 0.46057689 -1.3737227
3.3320391 0.49941081 -1.3626566
3.3333855 0.55123949 -1.3650541
3.3347361 0.60322881 -1.3674587
3.3360903 0.65537947 -1.3698709
3.3374493 0.70769221 -1.3722905
3.3388119 0.76016784 -1.3747177
3.3401792 0.81280714 -1.3771526
3.3415508 0.86561078 -1.3795948
3.342582 0.90531659 -1.3814313
3.343468 0.94070917 -1.3787172
3.3440611 0.95837641 -1.396939
3.3449984 0.99834383 -1.3857342
3.3462358 1.0472822 -1.3836328
3.3476758 1.1053063 -1.3775716
3.3489699 1.1590458 -1.3669093
3.3503695 1.2129307 -1.3693602
3.351773 1.2669853 -1.3718188
3.3528283 1.3076333 -1.3736675
3.3538864 1.3483884 -1.3755213
3.3553011 1.4028723 -1.3779994
3.3563654 1.4438434 -1.3798629
3.3570759 1.4712154 -1.3811078
3.3581443 1.5123601 -1.3829794
3.3595729 1.5673661 -1.3854814
3.3606472 1.60873 -1.3873628
3.3617241 1.6502042 -1.3892492
3.3631632 1.7056503 -1.3917712
3.3645048 1.7612588 -1.3809417
3.3660057 1.8217021 -1.3747463
3.3669393 1.8589976 -1.3719569
3.3680322 1.9010688 -1.3738384
3.3691266 1.9432304 -1.3757236
3.369858 1.9713988 -1.3769833
3.3708003 2.0090213 -1.3741797
3.9014282 -0.38401967 -1.3373013
3.9987707 -0.39442283 -1.3400725
3.5153124 -0.36906016 -1.338357
3.615006 -0.36685687 -1.335306
3.6764708 -0.38749129 -1.3434991
3.7203157 -0.36466354 -1.3321446
3.765269 -0.34125894 -1.3205032
3.8087175 -0.37411129 -1.3346615
3.8558981 -0.35026503 -1.322772
3.9510031 -0.35971582 -1.3251532
4.0019102 -0.33475894 -1.3126786
3.3218515 -0.33447939 -1.3286265
3.3677056 -0.35217887 -1.3336473
3.4221108 -0.34566391 -1.3295488
3.4781525 -0.33878273 -1.325249
3.5172832 -0.31661594 -1.3142936
3.5552886 -0.34702653 -1.3274454
3.6172001 -0.31290275 -1.3105464
3.6788058 -0.33266693 -1.318338
3.7227557 -0.30911463 -1.3066497
3.811372 -0.31725532 -1.3085635
3.9043155 -0.32579356 -1.310571
3.9540195 -0.30067182 -1.2980456
3.3171687 -0.29677331 -1.3218133
3.3693643 -0.30191696 -1.31059
3.4060316 -0.28001928 -1.2998083
3.4608884 -0.29796338 -1.3069044
3.5573492 -0.29391992 -1.3030766
3.3123338 -0.2592442 -1.3275664
3.3136194 -0.20973767 -1.329856
3.3147197 -0.15988696 -1.3069175
3.3160124 -0.11008541 -1.3091829
3.3173099 -0.060132638 -1.3114549
3.318285 -0.022573113 -1.3131634
3.3192627 0.015081637 -1.314876
3.3202429 0.052812912 -1.3165923
3.3212254 0.090640083 -1.318313
3.3225384 0.14120486 -1.3206128
3.3238559 0.19192429 -1.32292
3.3251765 0.24279916 -1.3252337
3.3265021 0.29383025 -1.3275549
3.3278313 0.34501821 -1.3298833
3.3291643 0.39636374 -1.3322186
3.3303578 0.44358969 -1.3300805
3.3317924 0.50394166 -1.3156523
3.332993 0.55146724 -1.313489
3.334343 0.60344464 -1.3158131
3.3356957 0.6555832 -1.3181446
3.3370543 0.70788372 -1.3204832
3.3384159 0.76034707 -1.3228292
3.3397825 0.81297398 -1.3251826
3.3411531 0.86576527 -1.3275433
3.3421836 0.90546179 -1.3293183
3.3432169 0.94526166 -1.3310981
3.3445983 0.99846709 -1.3334771
3.3459842 1.0518395 -1.3358638
3.3473737 1.1053795 -1.3382578
3.3486679 1.1591096 -1.3275366
3.3499653 1.2130024 -1.3167838
3.3513675 1.2670443 -1.3191589
3.3524222 1.3076823 -1.3209447
3.3534799 1.3484277 -1.3227355
3.3548942 1.4028983 -1.3251293
3.3561594 1.4529819 -1.3229169
3.35677 1.4712225 -1.3413728
3.3577347 1.5123596 -1.3299398
3.3591623 1.5673518 -1.3323567
3.3602357 1.6087056 -1.3341742
3.3613122 1.6501694 -1.3359965
3.3627503 1.7056019 -1.3384326
3.3641942 1.7612125 -1.3408766
3.3654871 1.8123379 -1.3386639
3.3666279 1.858933 -1.3317816
3.3677192 1.9009966 -1.3336141
3.3690748 1.9572043 -1.3226388
3.3705389 2.0136173 -1.3250747
3.3720074 2.0702124 -1.3275186
3.3730073 2.112736 -1.3158709
3.8586714 -0.29262948 -1.2963146
4.0050607 -0.27487367 -1.285183
3.5192609 -0.26400125 -1.290152
3.5983834 -0.270675 -1.2915887
3.6811495 -0.27765608 -1.2930914
3.725204 -0.25337452 -1.2810665
3.767818 -0.28496629 -1.294665
3.8140357 -0.26019871 -1.2823733
3.8614533 -0.23478787 -1.2697622
3.907213 -0.26735681 -1.2837439
3.9570465 -0.24141143 -1.2708386
3.3123713 -0.24658062 -1.2903872
3.3538642 -0.23751359 -1.2814064
3.4077721 -0.22898872 -1.2763973
3.462745 -0.24615087 -1.2831327
3.521245 -0.21121509 -1.2659318
3.5594161 -0.24063833 -1.2786279
3.6005437 -0.2167096 -1.2668246
3.6404214 -0.24686135 -1.2798194
3.7055812 -0.20994984 -1.2615771
3.770376 -0.22847725 -1.2687368
3.8167083 -0.20294036 -1.2560904
3.9101193 -0.20870842 -1.2568194
4.0082231 -0.21476619 -1.2575848
3.3133795 -0.20524092 -1.2838494
3.3554983 -0.18716086 -1.2583079
3.409518 -0.17779712 -1.2529123
3.4453681 -0.20595767 -1.2650774
3.483845 -0.18238668 -1.2534924
3.5614896 -0.1871811 -1.2540983
3.6426795 -0.19219445 -1.254732
3.3144789 -0.15538825 -1.2608485
3.3156323 -0.10970813 -1.2586528
3.3169286 -0.059766382 -1.2608477
3.3179033 -0.022215255 -1.262498
3.3188801 0.015431102 -1.2641525
3.3198595 0.053153943 -1.2658104
3.3208416 0.090972684 -1.2674724
3.3221536 0.14152604 -1.2696942
3.3234699 0.19223407 -1.2719226
3.3247898 0.24309744 -1.274158
3.3261142 0.29411691 -1.2764002
3.3274424 0.34529316 -1.2786494
3.3287752 0.39662701 -1.2809055
3.3301115 0.44811916 -1.2831684
3.3313079 0.49547905 -1.2809589
3.3326008 0.55169493 -1.2619481
3.3339493 0.60366017 -1.264192
3.3353024 0.65578675 -1.2664429
3.3366592 0.70807511 -1.2687006
3.3380203 0.76052636 -1.2709655
3.339386 0.81314087 -1.2732375
3.340755 0.86591965 -1.2755165
3.3421295 0.91886348 -1.2778026
3.3431625 0.95867485 -1.2795217
3.3441978 0.99859005 -1.2812452
3.3455827 1.0519499 -1.2835493
3.3469722 1.1054773 -1.2858607
3.3483651 1.159173 -1.2881793
3.3496618 1.2130563 -1.2773675
3.3511138 1.2716073 -1.2710991
3.3520172 1.3077313 -1.2682475
3.3530736 1.3484668 -1.2699752
3.3544867 1.4029244 -1.272285
3.3559039 1.4575548 -1.2746019
3.357326 1.5123589 -1.276926
3.358752 1.5673376 -1.279258
3.3598249 1.6086813 -1.2810115
3.3609002 1.6501349 -1.2827697
3.3623378 1.7055539 -1.2851201
3.3637807 1.7611504 -1.2874781
3.3652277 1.8169254 -1.2898438
3.3663166 1.8588687 -1.2916229
3.3674073 1.900924 -1.2934065
3.368762 1.9571211 -1.2823693
3.3702257 2.0135236 -1.2847397
3.3715882 2.0700731 -1.2736554
3.3726921 2.1126237 -1.2754275
3.3736408 2.1505291 -1.2725065
3.960083 -0.18193348 -1.2435315
3.5232351 -0.15825662 -1.2416325
3.6027114 -0.16256417 -1.2419779
3.6858602 -0.16707079 -1.2423394
3.7729433 -0.17179066 -1.242718
3.8193901 -0.14547937 -1.2297144
3.8642457 -0.17673916 -1.2431148
3.9130366 -0.14984731 -1.2297972
4.0113964 -0.1544351 -1.2298844
3.3571377 -0.13665162 -1.2351375
3.4112692 -0.12644356 -1.229353
3.4471946 -0.15413526 -1.2413021
3.4857552 -0.1299178 -1.229419
3.5635707 -0.13354729 -1.2294878
3.6048856 -0.10823764 -1.2170482
3.6449449 -0.1373428 -1.2295599
3.6882277 -0.11149445 -1.2168331
3.7528226 -0.12811069 -1.2231215
3.822082 -0.087814569 -1.2032449
3.8670483 -0.11848231 -1.2163719
3.9159646 -0.090772271 -1.2026769
3.963131 -0.12223698 -1.2161238
4.0145812 -0.093879133 -1.2020804
3.3156705 -0.096960828 -1.2213032
3.3415139 -0.072674513 -1.2061516
3.3945382 -0.087111384 -1.2116787
3.4490263 -0.10214701 -1.2174503
3.4876709 -0.077279121 -1.2052675
3.5454452 -0.092430532 -1.2110248
3.6472178 -0.082305536 -1.2043025
3.7326002 -0.084995463 -1.2037861
3.3166871 -0.055263847 -1.2146533
3.3175211 -0.021857552 -1.2118561
3.3184211 0.011565316 -1.2175007
3.3192272 0.045138493 -1.2104709
3.3204575 0.091305099 -1.2166557
3.321769 0.14184712 -1.2187994
3.3230844 0.19254367 -1.2209495
3.3244033 0.24339561 -1.2231063
3.3257267 0.29440349 -1.2252696
3.3270543 0.34556824 -1.2274398
3.3283858 0.39689022 -1.2296164
3.3297215 0.44837058 -1.2317998
3.3310611 0.50000983 -1.23399
3.3323071 0.55186558 -1.2233077
3.3335569 0.60387588 -1.2125953
3.3349087 0.65599018 -1.2147657
3.3362641 0.70826638 -1.2169427
3.337625 0.76070529 -1.2191265
3.338989 0.81330752 -1.2213171
3.340358 0.86607409 -1.2235147
3.3417308 0.91900522 -1.2257189
3.3427629 0.95880723 -1.2273766
3.343353 0.98542887 -1.2154404
3.3439469 1.0031413 -1.2335712
3.3451817 1.0520601 -1.2312601
3.34657 1.1055747 -1.2334887
3.3479629 1.159258 -1.2357242
3.3493595 1.2131101 -1.2379671
3.35061 1.2626281 -1.2356431
3.3517132 1.3077683 -1.2287406
3.352819 1.3530325 -1.2218175
3.3540795 1.4029503 -1.2194662
3.3554959 1.4575677 -1.2216988
3.3569167 1.5123584 -1.2239382
3.3583419 1.5673238 -1.2261852
3.3594141 1.6086571 -1.2278749
3.3604884 1.6501007 -1.2295691
3.3619261 1.705506 -1.2318338
3.3633668 1.7610887 -1.2341058
3.3648133 1.8168497 -1.2363856
3.3661087 1.8681128 -1.2340187
3.3671474 1.9055116 -1.2444723
3.3684487 1.9570382 -1.2421161
3.3699117 2.0134299 -1.2444214
3.3712745 2.0699694 -1.2332748
3.3723776 2.1125109 -1.2349976
3.3735368 2.1598861 -1.2279212
3.3744869 2.1978745 -1.2249511
3.6070685 -0.053729229 -1.192035
3.6906033 -0.05572769 -1.1912395
3.7781043 -0.057820991 -1.1904063
3.8698604 -0.060016111 -1.1895326
3.9189034 -0.03148219 -1.175458
3.9661903 -0.06232062 -1.1886156
4.0177779 -0.033097215 -1.1741726
3.3431287 -0.022077486 -1.1829419
3.3962615 -0.035745397 -1.1881144
3.4508643 -0.04999236 -1.1935222
3.4895933 -0.024469838 -1.181038
3.5474946 -0.038783006 -1.1864088
3.6494982 -0.027081735 -1.1789598
3.692987 0.00023047626 -1.1655581
3.7350831 -0.028479666 -1.1778473
3.7806981 -0.00053581595 -1.1641126
3.8247831 -0.02994483 -1.1766813
3.872683 -0.0013394877 -1.1625971
3.9692612 -0.0021832362 -1.1610057
3.3313167 0.016081322 -1.1672919
3.3794243 0.0029699802 -1.1707249
3.4346328 0.015462689 -1.1638718
3.4915218 0.028510932 -1.1567296
3.5292459 0.0016610324 -1.1682563
3.589556 0.014692131 -1.161052
3.6517868 0.028329633 -1.1535305
3.7375741 0.028232582 -1.1518182
3.8274939 0.028130863 -1.1500231
3.318908 0.045423359 -1.1681985
3.381119 0.054343887 -1.1471577
3.3200736 0.09163741 -1.1658628
3.3213837 0.14216806 -1.1679285
3.3226986 0.19285318 -1.1700004
3.3240173 0.24369361 -1.1720786
3.3253393 0.29468995 -1.174163
3.3266659 0.34584296 -1.1762542
3.3279967 0.39715338 -1.1783516
3.3293316 0.44862187 -1.1804557
3.3302374 0.48738301 -1.1691895
3.3308144 0.504538 -1.1870246
3.3320131 0.55203623 -1.1846828
3.3332622 0.60403734 -1.1739132
3.3345151 0.65619349 -1.1631132
3.3358703 0.70845759 -1.1652095
3.337229 0.76088428 -1.1673125
3.338593 0.81347412 -1.1694218
3.3399603 0.86622816 -1.1715378
3.3413324 0.91914725 -1.1736605
3.3423636 0.95893973 -1.1752564
3.3430531 0.98552346 -1.1763228
3.3437436 1.0121489 -1.1773907
3.3447814 1.0521705 -1.178996
3.3461685 1.1056724 -1.1811421
3.3475595 1.1593425 -1.1832948
3.3489561 1.213182 -1.1854542
3.3503559 1.2671914 -1.1876206
3.3514092 1.3078051 -1.1892494
3.3523135 1.3439994 -1.1863072
3.3537745 1.40297 -1.1798682
3.3550875 1.4575803 -1.1688212
3.35605 1.4986423 -1.1572049
3.3566601 1.5169295 -1.1755672
3.3579319 1.5673096 -1.1731385
3.3590033 1.6086329 -1.1747642
3.3600774 1.6500663 -1.1763945
3.3615131 1.7054579 -1.1785736
3.3629537 1.7610269 -1.1807599
3.364399 1.816774 -1.1829535
3.3658488 1.8727006 -1.1851538
3.3669393 1.9147575 -1.1868085
3.3680322 1.9569278 -1.1884676
3.3690238 1.9991577 -1.1767054
3.3696506 2.0180211 -1.1953461
3.3709595 2.0698645 -1.192911
3.3720629 2.1123993 -1.1945845
3.3730099 2.1502905 -1.191579
3.3741705 2.197746 -1.1844422
3.695379 0.056381032 -1.1397884
3.7833018 0.056951009 -1.1377265
3.8755157 0.057548787 -1.1355643
3.9218519 0.028024089 -1.1481395
3.972343 0.058176398 -1.1332937
3.3463728 0.079589427 -1.136305
3.4364443 0.067712165 -1.1399008
3.4934566 0.081663892 -1.1323426
3.5312624 0.055317171 -1.1436367
3.5917082 0.069304079 -1.1359918
3.6540833 0.08392942 -1.1280149
3.7400734 0.085142247 -1.1256983
3.8302145 0.086413652 -1.12327
3.8783586 0.11664972 -1.1084337
3.9248123 0.087747864 -1.1207215
3.9754362 0.11875959 -1.1054791
3.3340578 0.11757921 -1.1205809
3.3828194 0.10587964 -1.1235157
3.438262 0.12012889 -1.1158532
3.4953973 0.13499007 -1.1078756
3.5332859 0.1091499 -1.1189364
3.5740778 0.13730109 -1.1052057
3.6350231 0.12530769 -1.1094514
3.6977792 0.11272498 -1.1139297
3.7425826 0.14225045 -1.0994877
3.7859142 0.11464053 -1.1112474
3.3211412 0.14667818 -1.1214818
3.3845253 0.15757798 -1.0997994
3.4582753 0.16030809 -1.0970386
3.3223138 0.19316253 -1.1190751
3.323631 0.24399145 -1.1210748
3.3249526 0.29497623 -1.1230808
3.3262782 0.34611762 -1.1250927
3.3276076 0.39741635 -1.1271111
3.3289413 0.44887304 -1.1291354
3.3299444 0.4875648 -1.1306577
3.3306146 0.51341236 -1.1316746
3.3316216 0.55226356 -1.1332033
3.332968 0.60419899 -1.1352465
3.3342202 0.65634596 -1.1243892
3.3354757 0.70864874 -1.1135011
3.336834 0.76106328 -1.1155229
3.3381963 0.81364107 -1.1175513
3.3395634 0.86638254 -1.1195859
3.340934 0.91928893 -1.1216269
3.3419654 0.95907217 -1.1231614
3.342654 0.98564947 -1.1241868
3.3433437 1.0122687 -1.1252137
3.3443806 1.0522808 -1.126757
3.3457668 1.1057698 -1.1288207
3.3471572 1.1594273 -1.1308904
3.3485525 1.2132537 -1.132967
3.3499515 1.2672501 -1.1350499
3.3510041 1.3078541 -1.1366161
3.3520591 1.3485649 -1.1381868
3.3534691 1.4029894 -1.1402861
3.3547821 1.45759 -1.1291795
3.3558459 1.4986435 -1.1307476
3.3564541 1.5260698 -1.118559
3.357522 1.5672956 -1.1201177
3.3589506 1.6224091 -1.1222016
3.3600245 1.6638545 -1.1237687
3.3611012 1.7054098 -1.1253397
3.3625405 1.7609652 -1.1274403
3.3639851 1.8166987 -1.1295477
3.3654339 1.8726108 -1.1316618
3.3665233 1.9146572 -1.1332514
3.3676155 1.9568166 -1.1348456
3.36871 1.9990671 -1.1364431
3.3694417 2.0272939 -1.1375104
3.3705411 2.0697258 -1.1391147
3.3716424 2.1122489 -1.1407224
3.3727474 2.1548874 -1.1423346
3.3738546 2.1976175 -1.1439502
3.8329449 0.14490455 -1.0964214
3.9277835 0.14769018 -1.0932029
3.4218957 0.18511963 -1.0864182
3.4973447 0.18849021 -1.0833291
3.5353153 0.16316001 -1.0941544
3.576201 0.19201292 -1.0801005
3.6158705 0.16614202 -1.0911387
3.6794438 0.18248084 -1.0823525
3.7450995 0.19955811 -1.0731851
3.7885354 0.17253388 -1.0846745
3.8356845 0.20360482 -1.0694764
3.8812118 0.17596459 -1.0812051
3.9307652 0.20785242 -1.0655837
3.9785414 0.17956755 -1.0775614
3.3359954 0.19398585 -1.0853786
3.3862367 0.20943974 -1.0760083
3.4797208 0.22773641 -1.0657127
3.5373516 0.21734844 -1.0692906
3.5783305 0.24690756 -1.0549115
3.6180899 0.22157392 -1.0657017
3.6610196 0.25186944 -1.050945
3.7026045 0.22599709 -1.0619447
3.7911665 0.23063205 -1.0580077
3.8840754 0.23549445 -1.0538779
3.3233871 0.24850538 -1.074501
3.3696151 0.24737421 -1.0589722
3.4236867 0.23762788 -1.0623294
3.4620166 0.2664786 -1.0483286
3.3245654 0.29526237 -1.0720222
3.3258901 0.34639215 -1.0739557
3.327219 0.39767921 -1.0758947
3.3285518 0.44912416 -1.0778397
3.3295536 0.48780698 -1.0793025
3.3302236 0.51364869 -1.0802796
3.3312299 0.55249101 -1.081748
3.3325753 0.60441417 -1.0837113
3.3339248 0.65649837 -1.0856807
3.33518 0.70879197 -1.074735
3.3364384 0.76124197 -1.0637584
3.3378003 0.81380737 -1.0657053
3.3391662 0.8665365 -1.0676588
3.3405364 0.91943055 -1.0696182
3.3415668 0.95920432 -1.0710915
3.3422549 0.98577547 -1.072076
3.3429444 1.0123883 -1.0730616
3.3439806 1.0523909 -1.0745435
3.3453655 1.1058673 -1.0765244
3.346755 1.1595119 -1.0785116
3.3481488 1.2133255 -1.080505
3.3495476 1.267309 -1.0825046
3.3509505 1.3214629 -1.0845108
3.3520052 1.3621856 -1.0860193
3.3530629 1.4030153 -1.0875317
3.3544767 1.4575994 -1.0895537
3.3555398 1.4986458 -1.0910741
3.3561478 1.5260668 -1.0788569
3.3572154 1.5672851 -1.0803683
3.3586931 1.6269828 -1.0737088
3.3596134 1.6638167 -1.0706247
3.3606896 1.7053621 -1.072132
3.362128 1.7609035 -1.074147
3.3635712 1.8166231 -1.0761682
3.3650179 1.8725212 -1.0781958
3.366107 1.9145573 -1.079721
3.3671987 1.9567059 -1.0812501
3.3682928 1.9989458 -1.0827825
3.3690238 2.0271654 -1.0838063
3.3701224 2.069587 -1.085345
3.371223 2.1120992 -1.0868872
3.3723269 2.1547263 -1.0884336
3.3734326 2.1974461 -1.0899835
3.7476254 0.2570664 -1.0467907
3.838434 0.26251549 -1.0424351
3.9337583 0.26823568 -1.0378625
3.9816575 0.24060151 -1.04954
3.5393949 0.27171606 -1.0443447
3.6203167 0.27719334 -1.0401788
3.7050295 0.28292727 -1.0358173
3.7938068 0.2889362 -1.0312464
3.8869488 0.29524052 -1.026451
3.9847856 0.30186272 -1.0214139
3.3246059 0.30823758 -1.0342115
3.3712986 0.29924574 -1.035177
3.425483 0.29030424 -1.0381631
3.4638965 0.31982189 -1.0238553
3.5213521 0.31113976 -1.0266556
3.580467 0.30198598 -1.0296379
3.622551 0.3330012 -1.0145692
3.6633472 0.30823287 -1.025079
3.707463 0.34005475 -1.0095991
3.7501612 0.31477624 -1.020304
3.818825 0.33454263 -1.0098433
3.9367614 0.32884103 -1.0100397
3.3256454 0.35090983 -1.027254
3.3545718 0.33654916 -1.0184321
3.409344 0.3545813 -1.0090504
3.4657824 0.37333834 -0.99930257
3.5032248 0.35004294 -1.0092065
3.5826116 0.35724896 -1.00428
3.3268306 0.39794189 -1.0247025
3.3281627 0.44937503 -1.0265684
3.3293548 0.49668056 -1.0240039
3.3299308 0.51382565 -1.0417483
3.3308389 0.55271816 -1.0303174
3.3321831 0.6046294 -1.0322006
3.3335319 0.65670156 -1.0340896
3.3348839 0.70893526 -1.0359845
3.3361428 0.76137602 -1.0249504
3.3374043 0.81397372 -1.0138845
3.3387697 0.8666907 -1.0157567
3.3401382 0.91957206 -1.0176344
3.3411679 0.95933652 -1.0190465
3.3422003 0.99920464 -1.0204623
3.4145985 1.0337255 -1.0027846
3.34358 1.052501 -1.0223548
3.4166422 1.0748818 -1.0044742
3.5116415 1.0899674 -1.0042814
3.3449645 1.1059647 -1.0242535
3.4186914 1.1161456 -1.0061682
3.5138915 1.1324069 -1.0060225
3.6136706 1.1350151 -1.0052707
3.3463533 1.1595964 -1.0261579
3.4207475 1.157544 -1.0078677
3.5161469 1.1749603 -1.007768
3.6161442 1.1787596 -1.007064
3.7218812 1.1827773 -1.0063193
3.8358564 1.2180144 -1.0067987
3.3477461 1.2133973 -1.0280684
3.4234982 1.2129227 -1.0101411
3.51841 1.2176564 -1.0095196
3.6186264 1.2226551 -1.0088633
3.7246034 1.2279408 -1.0081693
3.837851 1.2490649 -1.0080696
3.3491437 1.2673676 -1.0299851
3.4262586 1.2685193 -1.0124235
3.5214384 1.2747772 -1.0118629
3.6219475 1.2813853 -1.0112708
3.7282467 1.2883741 -1.0106446
3.840852 1.2957772 -1.0099814
3.3505456 1.3215085 -1.0319076
3.4290309 1.3243351 -1.0147147
3.5244782 1.3321288 -1.0142155
3.625282 1.3403599 -1.0136883
3.730989 1.3338606 -1.0125077
3.8438618 1.3426273 -1.0118988
3.3515995 1.3622212 -1.0333534
3.4311163 1.3663346 -1.0164391
3.5267663 1.375288 -1.0159862
3.6277924 1.3847444 -1.0155078
3.733741 1.3795097 -1.0143777
3.8468828 1.3896496 -1.0138233
3.3526559 1.4030415 -1.0348029
3.4332092 1.4084725 -1.0181689
3.5290623 1.4185932 -1.0177627
3.6303108 1.4292834 -1.0173336
3.7374234 1.4405932 -1.0168797
3.850925 1.4525771 -1.0163987
3.354069 1.4576122 -1.0367408
3.4360082 1.4648421 -1.020483
3.5321331 1.4765295 -1.0201393
3.6336801 1.4888762 -1.0197765
3.7401948 1.4865699 -1.0187629
3.8539681 1.4999471 -1.0183372
3.3551314 1.4986484 -1.038198
3.3558416 1.5260638 -1.0391716
3.4388185 1.5214354 -1.0228063
3.535217 1.5347022 -1.0225259
3.6362169 1.5337268 -1.0216151
3.6941731 1.5577199 -1.0086753
3.7429769 1.532712 -1.0206529
