# .PCD v0.7 - Point Cloud Data file format
VERSION 0.7
FIELDS x y z
SIZE 4 4 4
TYPE F F F
COUNT 1 1 1
WIDTH 1521
HEIGHT 1
VIEWPOINT 0 0 0 1 0 0 0
POINTS 1521
DATA ascii
3.3614321 0.40394592 0.37253129
3.3593283 0.45399654 0.37235227
3.3572257 0.50403064 0.3721734
3.3551235 0.554048 0.3719945
3.3530219 0.60404903 0.37181568
3.3509214 0.65403324 0.37163699
3.3488212 0.70400113 0.37145826
3.3467221 0.75395226 0.37127966
3.3446233 0.80388701 0.37110108
3.3425255 0.85380507 0.37092254
3.3404281 0.90370667 0.37074411
3.3384411 0.94944894 0.37475502
3.336041 1.0035017 0.38290915
3.4773171 1.0256819 0.37380025
3.333946 1.0533547 0.38272882
3.4630358 1.0734202 0.37224552
3.3318515 1.1031914 0.38254854
3.4453304 1.1326036 0.37031806
3.4523911 1.1090008 0.37108675
3.7452266 1.1301279 0.37593374
3.7535222 1.104432 0.37678188
3.3297572 1.1530113 0.3823683
3.4347911 1.1678324 0.36917076
3.732851 1.1684645 0.37466842
3.3276644 1.2028148 0.38218811
3.4208255 1.2145138 0.36765042
3.7164609 1.2192371 0.37299266
3.3255718 1.2526019 0.38200799
3.4069633 1.2608514 0.36614129
3.6961539 1.2821429 0.3709164
3.7042503 1.2570615 0.37174425
4.0447412 1.2937568 0.37705213
3.3234804 1.3023726 0.38182798
3.3897755 1.318305 0.36427018
3.3966305 1.2953912 0.36501646
3.6840732 1.3195651 0.36968127
4.0303755 1.3347079 0.37568006
3.3213892 1.3521268 0.38164791
3.3761489 1.3638535 0.36278674
3.6680727 1.3691301 0.36804533
4.0113845 1.3889228 0.37386635
3.3192985 1.4018643 0.38146797
3.3592396 1.4203744 0.36094597
3.6522028 1.4183043 0.3664228
3.9878728 1.4560469 0.37162089
3.9972448 1.4292904 0.37251595
3.317209 1.4515857 0.38128814
3.3458273 1.4652083 0.35948583
3.6364815 1.4671005 0.3648155
3.9785423 1.4826883 0.37072974
3.3202648 1.5037069 0.36916915
3.5822091 1.5113331 0.35914615
3.6247704 1.5034595 0.36361825
3.9547172 1.518187 0.3684305
3.3132267 1.5509281 0.36842957
3.3111391 1.6005993 0.36825198
3.3090522 1.650254 0.36807436
3.3069658 1.6998925 0.36789683
3.3043594 1.7619166 0.36767507
3.3017533 1.8239168 0.36745334
3.2996695 1.8734977 0.36727601
3.2975864 1.9230626 0.36709878
3.2955039 1.972611 0.36692157
3.4613819 -1.9927773 0.43169147
3.4592447 -1.9419255 0.43150118
3.4571087 -1.8910905 0.43131095
3.4549727 -1.8402727 0.43112075
3.4528377 -1.7894715 0.43093061
3.4507036 -1.7386876 0.43074057
3.44857 -1.6879205 0.43055058
3.4464376 -1.6371703 0.4303607
3.4443052 -1.5864375 0.43017083
3.4421737 -1.5357212 0.42998102
3.4400432 -1.4850218 0.4297913
3.4379132 -1.4343394 0.42960164
3.4357839 -1.3836738 0.42941201
3.4336553 -1.3330253 0.42922246
3.4315274 -1.2823935 0.42903298
3.4294004 -1.2317786 0.42884356
3.4272738 -1.1811806 0.42865422
3.4251482 -1.1305996 0.42846495
3.4230232 -1.0800353 0.42827573
3.4208987 -1.0294877 0.42808649
3.4187756 -0.9789573 0.42789742
3.4275606 -0.94364762 0.42911264
3.5110159 -0.93871677 0.45314255
3.5162792 -0.93990177 0.42783543
3.6098869 -0.93595052 0.42646995
3.7058678 -0.93115455 0.43841699
3.8072879 -0.92608684 0.45104113
3.9211404 -0.92202193 0.43609643
4.0353012 -0.91636634 0.44943044
3.3922906 -0.34874249 0.42553905
3.3901768 -0.29843837 0.42535076
3.3880632 -0.248151 0.42516258
3.3859503 -0.19788031 0.42497444
3.3838387 -0.14762633 0.42478636
3.3817272 -0.097389065 0.42459837
3.3796167 -0.047168463 0.42441043
3.377507 0.0030354559 0.42422253
3.3753974 0.053222716 0.42403468
3.3732891 0.10339333 0.42384699
3.3711808 0.15354724 0.42365927
3.3690743 0.20368461 0.4234716
3.3669679 0.25380528 0.42328408
3.3648622 0.3039093 0.42309657
3.3627574 0.35399669 0.42290914
3.3606529 0.40406758 0.42272174
3.3585494 0.45412183 0.42253441
3.3564465 0.50415945 0.42234716
3.3543444 0.5541805 0.42215994
3.3522432 0.60418499 0.42197284
3.3501422 0.6541729 0.42178574
3.3480422 0.70414424 0.42159873
3.3459427 0.75409907 0.42141178
3.3438439 0.80403733 0.42122492
3.3417461 0.85395896 0.42103806
3.3396487 0.90386415 0.42085132
3.3375525 0.95375288 0.4206647
3.3354566 1.0036253 0.42047808
3.3333616 1.0534809 0.42029145
3.3312666 1.10332 0.42010495
3.3291731 1.1531427 0.41991848
3.32708 1.2029492 0.41973212
3.3249874 1.2527388 0.41954577
3.3228958 1.3025119 0.41935956
3.3208046 1.3522689 0.41917333
3.3187146 1.4020096 0.41898713
3.3166246 1.4517334 0.41880107
3.3145356 1.5014406 0.41861507
3.3124471 1.551132 0.41842911
3.3103597 1.6008065 0.4182432
3.3082726 1.6504648 0.41805738
3.3061864 1.7001069 0.41787156
3.304101 1.7497324 0.41768587
3.3014953 1.8117404 0.4174538
3.2988904 1.8737245 0.41722184
3.2968071 1.9232929 0.41703635
3.2947245 1.9728444 0.41685089
3.4606042 -1.9928294 0.48228833
3.458467 -1.9419738 0.48208955
3.4563303 -1.8911351 0.48189083
3.454195 -1.8403136 0.48169222
3.4520597 -1.7895086 0.48149362
3.4499257 -1.738721 0.48129514
3.4477921 -1.6879504 0.48109666
3.4456589 -1.6371964 0.48089829
3.4435272 -1.5864596 0.48069999
3.4413953 -1.5357395 0.48050174
3.4392653 -1.4850366 0.48030359
3.437135 -1.4343504 0.48010543
3.4350057 -1.3836813 0.47990742
3.4328771 -1.333029 0.47970942
3.4307492 -1.2823936 0.47951153
3.428622 -1.231775 0.47931367
3.4264953 -1.1811733 0.47911587
3.4243696 -1.1305887 0.47891816
3.4222445 -1.0800208 0.47872052
3.4201205 -1.0294697 0.47852293
3.4179966 -0.97893542 0.4783254
3.4171376 -0.93291098 0.48251089
3.4976699 -0.92277664 0.47724923
3.6015787 -0.93413347 0.46545854
3.69712 -0.92929792 0.47845149
3.7154596 -0.9061572 0.48098841
3.9113677 -0.92007518 0.47853187
3.9641228 -0.90201277 0.48532721
3.4135573 -0.8779102 0.49053431
3.4955518 -0.88385242 0.4770295
3.7139151 -0.8785364 0.48083174
3.9624212 -0.87248641 0.48515886
3.4114358 -0.82742542 0.49033487
3.4934354 -0.84495157 0.47680989
3.7115998 -0.8371262 0.48059693
3.9598701 -0.82822102 0.48490652
3.4093151 -0.77695763 0.49013555
3.4906151 -0.79311454 0.47651732
3.7077441 -0.76815832 0.48020583
3.7092857 -0.79573697 0.48036218
3.9564714 -0.76924032 0.48457029
3.4071951 -0.72650653 0.48993623
3.4877968 -0.74131441 0.4762249
3.7054322 -0.72681093 0.47997135
3.9530756 -0.71030766 0.4842343
3.4045458 -0.6634658 0.48968726
3.4056051 -0.6886788 0.48978683
3.4849806 -0.68955135 0.47593272
3.7023516 -0.67171621 0.4796589
3.9505303 -0.66613805 0.48398247
3.4029567 -0.62565482 0.48953789
3.4821665 -0.63782519 0.47564074
3.6992733 -0.61666322 0.47934666
3.9479866 -0.62199831 0.48373082
3.4008391 -0.57525402 0.48933885
3.4793541 -0.58613592 0.47534898
3.6969666 -0.57539964 0.47911268
3.9445975 -0.56318504 0.48339555
3.3987217 -0.5248701 0.48913977
3.4765441 -0.53448349 0.47505739
3.6946607 -0.5341621 0.47887883
3.9420571 -0.51910496 0.48314419
3.3966053 -0.47450286 0.48894086
3.4737356 -0.4828679 0.47476608
3.6915884 -0.47921354 0.47856718
3.9395108 -0.47505391 0.48289204
3.3944893 -0.42415243 0.48874193
3.4709296 -0.43128908 0.47447491
3.6885128 -0.42430615 0.47825509
3.9369648 -0.4310267 0.48263991
3.3929029 -0.38640004 0.48859283
3.4688253 -0.39262778 0.47425658
3.3915117 -0.34867495 0.47586206
3.3893971 -0.29836726 0.47566539
3.3872843 -0.24807626 0.47546887
3.3851714 -0.19780195 0.47527233
3.3830595 -0.14754437 0.47507593
3.3809481 -0.097303458 0.47487953
3.3788373 -0.047079243 0.47468325
3.3767276 0.0031282902 0.47448698
3.3746185 0.053319156 0.47429082
3.37251 0.10349338 0.47409469
3.3704023 0.15365092 0.47389865
3.368295 0.20379181 0.47370267
3.366189 0.25391608 0.47350678
3.3640831 0.3040238 0.47331092
3.3619781 0.35411477 0.47311518
3.359874 0.40418923 0.47291943
3.3577704 0.45424718 0.47272378
3.3556678 0.50428838 0.47252822
3.3535655 0.55431294 0.47233269
3.351464 0.604321 0.47213724
3.3493629 0.65431249 0.47194183
3.3472629 0.70428741 0.47174653
3.3451636 0.75424588 0.47155124
3.3430648 0.80418766 0.47135603
3.3409669 0.85411298 0.47116089
3.3388698 0.90402174 0.47096586
3.3367732 0.95391405 0.47077084
3.334677 1.0037899 0.47057593
3.3325818 1.0536492 0.47038102
3.3304877 1.1034918 0.47018626
3.3283937 1.153318 0.46999151
3.3263006 1.2031277 0.46979684
3.324208 1.2529213 0.4696022
3.3221164 1.3026983 0.46940768
3.320025 1.3524586 0.46921316
3.3179348 1.4022024 0.4690187
3.315845 1.4519299 0.46882436
3.313756 1.5016409 0.46863008
3.3116679 1.5513358 0.46843585
3.3095801 1.601014 0.46824163
3.3074932 1.650676 0.46804753
3.3054068 1.7003213 0.46785346
3.3033214 1.7499503 0.4676595
3.300715 1.8119625 0.46741712
3.29811 1.8739512 0.46717483
3.2960269 1.9235229 0.46698108
3.2939446 1.9730785 0.4667874
3.4598262 -1.9928813 0.53289253
3.457689 -1.942022 0.53268528
3.4555526 -1.8911796 0.53247815
3.4534166 -1.8403541 0.53227103
3.4512818 -1.7895458 0.53206402
3.4491475 -1.7387544 0.53185701
3.4470141 -1.6879799 0.53165013
3.4448812 -1.6372224 0.5314433
3.4427488 -1.5864818 0.53123659
3.4406176 -1.5357583 0.53102982
3.4384866 -1.4850514 0.53082323
3.4363568 -1.4343618 0.5306167
3.4342275 -1.3836888 0.53041023
3.4320989 -1.3330328 0.53020376
3.4299707 -1.2823937 0.52999741
3.4278438 -1.2317715 0.52979112
3.4257176 -1.1811663 0.52958494
3.4235914 -1.1305778 0.52937883
3.4214661 -1.0800062 0.52917272
3.419342 -1.0294514 0.52896678
3.4172182 -0.97891349 0.52876079
3.4150956 -0.92839247 0.52855492
3.4129734 -0.87788826 0.5283491
3.410852 -0.82740086 0.52814347
3.4087312 -0.77693027 0.52793771
3.406611 -0.72647643 0.52773219
3.4041564 -0.66344351 0.51487869
3.4046035 -0.68023813 0.53174269
3.4023728 -0.62561917 0.52732122
3.4002552 -0.5752157 0.52711582
3.3981378 -0.52482903 0.52691048
3.3960214 -0.47445911 0.52670532
3.3939054 -0.42410588 0.52650011
3.3917899 -0.37376946 0.52629501
3.3902042 -0.33602756 0.52614117
3.3886187 -0.29829612 0.52598739
3.3865051 -0.24800152 0.52578247
3.3843927 -0.19772357 0.5255776
3.3822803 -0.14746237 0.5253728
3.3801692 -0.097217843 0.52516812
3.3780587 -0.046990015 0.52496344
3.3759487 0.0032211542 0.52475876
3.3738394 0.053415626 0.52455425
3.3717308 0.10359345 0.52434981
3.3696232 0.15375464 0.52414542
3.3675163 0.20389913 0.5239411
3.3654096 0.25402701 0.52373677
3.3633039 0.30413824 0.52353263
3.3611994 0.35423297 0.52332854
3.3590946 0.40431094 0.52312446
3.3569913 0.45437241 0.52292049
3.3548884 0.50441718 0.52271652
3.3527861 0.55444539 0.52251267
3.3506846 0.60445708 0.52230889
3.3485839 0.65445209 0.52210516
3.3464837 0.70443076 0.52190149
3.3443842 0.75439268 0.52169794
3.3422854 0.80433804 0.52149439
3.3401873 0.854267 0.52129096
3.3380902 0.90417933 0.52108759
3.3359938 0.9540751 0.52088428
3.3338978 1.0039544 0.52068102
3.3318024 1.0538174 0.52047789
3.3297081 1.1036638 0.52027476
3.3276143 1.1534936 0.52007174
3.3255212 1.203307 0.51986879
3.3234291 1.2531037 0.51966584
3.3213367 1.3028842 0.519463
3.3192458 1.3526483 0.51926023
3.3171551 1.4023956 0.51905745
3.3150654 1.4521265 0.5188548
3.3129764 1.5018413 0.51865226
3.3108883 1.5515395 0.51844978
3.3088009 1.6012214 0.51824737
3.3067136 1.6508867 0.51804495
3.3046274 1.7005358 0.51784265
3.3025417 1.7501682 0.51764035
3.3001833 1.8072137 0.51490939
3.2976041 1.866751 0.51966387
3.2952473 1.9237533 0.51693302
3.2931645 1.9733121 0.51673114
3.4590483 -1.992933 0.58350414
3.4569108 -1.94207 0.58328849
3.4547744 -1.891224 0.58307284
3.4526386 -1.840395 0.58285719
3.4505038 -1.7895828 0.58264166
3.4483695 -1.7387877 0.58242631
3.4462359 -1.6880096 0.5822109
3.4441025 -1.6372483 0.58199561
3.4419703 -1.5865042 0.58178043
3.4398391 -1.5357767 0.58156526
3.4377084 -1.4850664 0.58135021
3.4355781 -1.4343729 0.58113521
3.433449 -1.3836964 0.58092028
3.4313202 -1.3330368 0.58070546
3.4291923 -1.2823939 0.58049065
3.4270651 -1.2317679 0.58027595
3.4249389 -1.1811591 0.58006132
3.4228132 -1.1305671 0.57984674
3.4206874 -1.0799916 0.57963222
3.4185636 -1.0294333 0.57941777
3.4164398 -0.97889167 0.57920343
3.4143169 -0.92836684 0.57898921
3.412195 -0.87785912 0.57877505
3.4100733 -0.82736796 0.57856089
3.4079521 -0.77689379 0.57834673
3.4058325 -0.72643626 0.57813281
3.4037127 -0.67599559 0.57791883
3.4015939 -0.62557167 0.57770497
3.3994763 -0.57516456 0.57749128
3.3973591 -0.52477425 0.5772776
3.3952422 -0.4744007 0.57706386
3.3931265 -0.42404383 0.5768503
3.391011 -0.37370378 0.57663679
3.3894255 -0.3359592 0.57647669
3.3878398 -0.29822502 0.57631665
3.3857262 -0.24792674 0.57610339
3.3836133 -0.1976452 0.57589012
3.3815014 -0.14738037 0.57567692
3.37939 -0.097132221 0.57546383
3.3772798 -0.046900757 0.5752508
3.3751698 0.0033140182 0.57503778
3.3730602 0.053512096 0.57482487
3.3709517 0.10369356 0.57461214
3.368844 0.15385832 0.57439929
3.3667369 0.20400645 0.57418668
3.3646302 0.25413793 0.57397407
3.3625247 0.30425274 0.57376152
3.3604198 0.35435098 0.57354897
3.3583155 0.40443259 0.57333666
3.3562119 0.45449769 0.57312435
3.3541088 0.50454617 0.57291204
3.3520067 0.55457795 0.57269984
3.349905 0.60459322 0.57248777
3.3478045 0.6545918 0.5722757
3.3457046 0.70457399 0.5720638
3.3436048 0.75453949 0.57185185
3.341506 0.80448854 0.57164007
3.3394082 0.8544209 0.57142824
3.3373108 0.90433693 0.57121658
3.3352139 0.95423615 0.57100493
3.333118 1.0041192 0.57079333
3.331023 1.0539857 0.57058185
3.3289285 1.1038355 0.57037055
3.3268347 1.1536691 0.5701592
3.3247411 1.203486 0.5699479
3.3226492 1.2532864 0.5697366
3.3205571 1.3030703 0.56952554
3.3184662 1.3528378 0.56931448
3.3163755 1.4025887 0.56910348
3.3142858 1.4523234 0.56889254
3.312197 1.5020416 0.56868166
3.3101087 1.5517436 0.5684709
3.3080206 1.6014286 0.56826025
3.3059332 1.6510975 0.56804949
3.3038476 1.70075 0.56783891
3.3017616 1.7503862 0.56762838
3.2996767 1.800006 0.56741798
3.2970719 1.8620069 0.567155
3.2944672 1.9239836 0.56689209
3.2923849 1.9735463 0.56668198
3.4582698 -1.9929851 0.63412309
3.4561327 -1.9421182 0.63389897
3.4539962 -1.8912685 0.6336748
3.4518604 -1.8404356 0.63345069
3.4497252 -1.7896197 0.63322681
3.4475908 -1.738821 0.63300288
3.4454572 -1.6880392 0.63277906
3.4433246 -1.637274 0.63255531
3.4411924 -1.5865265 0.63233167
3.4390607 -1.5357955 0.63210809
3.4369302 -1.4850816 0.63188463
3.4348001 -1.434384 0.63166112
3.4326704 -1.3837038 0.63143766
3.430542 -1.3330405 0.6312145
3.4284139 -1.2823941 0.63099122
3.4262867 -1.2317646 0.63076806
3.42416 -1.181152 0.63054502
3.422034 -1.130556 0.63032198
3.4199092 -1.0799769 0.630099
3.4177845 -1.029415 0.6298762
3.4156616 -0.97886986 0.62965345
3.4135382 -0.92834145 0.62943071
3.4114161 -0.87782985 0.62920815
3.4092948 -0.82733512 0.62898558
3.4071734 -0.77685714 0.62876302
3.4050534 -0.72639614 0.62854069
3.4029341 -0.67595184 0.62831837
3.4002855 -0.61291945 0.62804055
3.401345 -0.63812906 0.62815166
3.3986976 -0.57511353 0.6278739
3.39658 -0.52471954 0.62765187
3.3944633 -0.47434229 0.62742984
3.3923473 -0.42398179 0.62720782
3.3902323 -0.37363809 0.62698597
3.3886461 -0.33589074 0.62681955
3.3870606 -0.29815388 0.62665325
3.3849471 -0.24785201 0.62643158
3.3828342 -0.19756681 0.62620991
3.3807223 -0.14729834 0.62598836
3.3786111 -0.097046576 0.62576693
3.3765004 -0.046811499 0.6255455
3.3743904 0.0034068823 0.62532413
3.3722811 0.053608596 0.62510288
3.3701727 0.10379367 0.62488174
3.3680646 0.15396203 0.62466055
3.3659577 0.2041138 0.6244396
3.3638513 0.25424892 0.62421864
3.3617456 0.3043673 0.62399763
3.3596404 0.35446918 0.62377691
3.3575358 0.40455437 0.62355614
3.3554325 0.45462298 0.62333554
3.3533297 0.50467497 0.62311488
3.3512275 0.55471045 0.62289435
3.3491259 0.60472929 0.62267387
3.3470249 0.65473151 0.62245345
3.3449247 0.70471722 0.62223321
3.3428252 0.75468647 0.62201297
3.3407264 0.80463904 0.62179279
3.3386285 0.85457504 0.62157267
3.3365312 0.90449452 0.62135273
3.3344345 0.95439744 0.62113273
3.3323386 1.004284 0.62091297
3.3302436 1.054154 0.62069315
3.3281486 1.1040074 0.62047344
3.326055 1.1538444 0.6202538
3.323962 1.2036648 0.62003422
3.3218691 1.2534689 0.61981475
3.3197777 1.3032565 0.61959529
3.3176863 1.3530275 0.61937594
3.3155956 1.4027821 0.6191566
3.3135059 1.4525203 0.61893743
3.3114169 1.502242 0.61871827
3.3093286 1.5519474 0.61849916
3.3072405 1.6016362 0.61828017
3.3051536 1.6513084 0.6180613
3.3030672 1.7009646 0.61784232
3.3009818 1.7506044 0.61762363
3.2988966 1.8002275 0.61740488
3.2962916 1.8622329 0.61713165
3.2936876 1.9242139 0.61685848
3.291605 1.9737797 0.61663997
3.4574912 -1.993037 0.68474942
3.4553545 -1.9421662 0.68451679
3.4532175 -1.891313 0.68428415
3.451082 -1.8404765 0.68405169
3.448947 -1.7896571 0.68381923
3.4468126 -1.7388544 0.68358684
3.4446788 -1.688069 0.68335456
3.4425459 -1.6373003 0.6831224
3.4404137 -1.5865487 0.68289018
3.438282 -1.5358138 0.6826582
3.4361515 -1.4850961 0.68242621
3.434021 -1.4343953 0.68219429
3.4318917 -1.3837115 0.68196255
3.4297633 -1.3330443 0.68173075
3.4276354 -1.2823942 0.68149912
3.425508 -1.231761 0.6812675
3.4233816 -1.1811446 0.68103606
3.4212556 -1.1305451 0.68080455
3.4191303 -1.0799626 0.68057323
3.417006 -1.0293968 0.6803419
3.4148824 -0.97884792 0.68011075
3.4127593 -0.92831588 0.67987967
3.4106369 -0.87780064 0.67964858
3.4085155 -0.82730222 0.67941761
3.406395 -0.77682072 0.6791867
3.4042742 -0.72635597 0.67895585
3.4021552 -0.67590791 0.67872518
3.4000363 -0.62547672 0.67849463
3.3979187 -0.57506239 0.67826396
3.3958008 -0.5246647 0.67803341
3.3936841 -0.47428387 0.67780304
3.3915684 -0.42391974 0.67757267
3.3894532 -0.37357244 0.67734241
3.3878672 -0.33582234 0.67716974
3.3862817 -0.29808274 0.67699713
3.3841679 -0.24777721 0.67676705
3.3820555 -0.19748843 0.67653698
3.3799431 -0.14721632 0.67630708
3.3778322 -0.096960917 0.67607725
3.3757215 -0.046722218 0.67584741
3.3736112 0.003499791 0.67561775
3.3715019 0.053705111 0.67538816
3.3693931 0.10389374 0.67515856
3.3672855 0.15406577 0.67492908
3.3651783 0.20422111 0.67469966
3.3630719 0.25435984 0.67447037
3.360966 0.30448186 0.67424113
3.3588612 0.35458732 0.67401195
3.3567569 0.40467614 0.67378289
3.3546529 0.45474839 0.67355394
3.35255 0.50480402 0.67332494
3.3504481 0.55484307 0.67309606
3.3483462 0.60486543 0.67286736
3.3462455 0.65487134 0.6726386
3.3441453 0.70486063 0.67240989
3.342046 0.75483328 0.67218143
3.3399467 0.80478942 0.6719529
3.3378489 0.85472906 0.67172444
3.3357515 0.90465224 0.67149621
3.3336549 0.95455873 0.67126781
3.3315589 1.0044488 0.6710397
3.3294635 1.0543221 0.67081159
3.327369 1.1041794 0.67058367
3.3252749 1.1540198 0.67035568
3.3231819 1.203844 0.67012781
3.3210895 1.2536516 0.66989994
3.3189976 1.3034425 0.66967219
3.3169065 1.3532172 0.66944462
3.314816 1.4029753 0.66921705
3.3127263 1.4527171 0.66898948
3.3106368 1.5024422 0.66876203
3.3085482 1.5521512 0.6685347
3.3064609 1.6018436 0.66830742
3.3043737 1.6515194 0.66808021
3.3022873 1.7011791 0.66785306
3.3002017 1.7508223 0.66762608
3.2981167 1.8004491 0.66739899
3.2957592 1.8574877 0.66463894
3.2931807 1.9170184 0.66936505
3.2908247 1.9740138 0.66660523
3.4567132 -1.993089 0.73538309
3.4545758 -1.9422145 0.73514199
3.4524391 -1.8913574 0.73490095
3.4503033 -1.8405173 0.73465991
3.4481685 -1.7896941 0.73441899
3.446034 -1.7388878 0.73417819
3.4439001 -1.6880984 0.73393738
3.4417675 -1.6373261 0.73369682
3.439635 -1.5865709 0.73345608
3.4375033 -1.5358324 0.73321575
3.4353726 -1.485111 0.73297518
3.4332423 -1.4344064 0.73273486
3.4311132 -1.3837188 0.73249465
3.4289844 -1.3330482 0.73225445
3.4268568 -1.2823944 0.73201436
3.4247293 -1.2317575 0.73177433
3.4226024 -1.1811373 0.73153436
3.4204764 -1.1305343 0.73129451
3.4183517 -1.0799481 0.73105466
3.4162269 -1.0293785 0.73081499
3.4141035 -0.97882605 0.73057544
3.4119804 -0.92829037 0.73033577
3.4098585 -0.87777144 0.73009634
3.4077363 -0.82726943 0.72985691
3.4056158 -0.77678412 0.72961771
3.4034956 -0.7263158 0.72937846
3.401376 -0.67586416 0.72913933
3.3992574 -0.62542927 0.72890025
3.39661 -0.56240875 0.72860157
3.3976686 -0.5876137 0.72872108
3.3950217 -0.52460992 0.7284224
3.3929052 -0.47422546 0.72818357
3.390789 -0.42385769 0.72794479
3.388674 -0.37350667 0.72770613
3.3870881 -0.33575392 0.72752714
3.3855026 -0.2980116 0.72734827
3.383389 -0.24770243 0.72710985
3.3812761 -0.19740999 0.72687137
3.3791642 -0.14713427 0.72663307
3.3770525 -0.09687525 0.72639489
3.3749421 -0.046632931 0.72615665
3.3728318 0.0035926998 0.72591865
3.3707225 0.053801626 0.72568059
3.3686142 0.10399391 0.72544271
3.3665061 0.15416951 0.72520489
3.364399 0.20432849 0.72496718
3.3622921 0.25447083 0.72472942
3.3601866 0.30459642 0.72449178
3.3580816 0.35470545 0.72425431
3.3559771 0.40479785 0.72401685
3.3538735 0.45487374 0.7237795
3.3517704 0.504933 0.72354227
3.3496685 0.55497569 0.72330505
3.3475666 0.60500163 0.72306788
3.3454659 0.655011 0.72283083
3.3433657 0.70500386 0.72259396
3.3412657 0.75498021 0.72235698
3.3391674 0.80493993 0.72212023
3.3370688 0.85488307 0.72188348
3.3349714 0.90480983 0.72164679
3.3328748 0.95471966 0.72141021
3.3307788 1.0046135 0.7211737
3.3286836 1.0544904 0.72093731
3.3265889 1.1043513 0.72070092
3.3244953 1.1541954 0.72046477
3.3224022 1.2040231 0.72022861
3.3203094 1.2538342 0.71999246
3.3182175 1.3036289 0.71975648
3.3161263 1.353407 0.71952051
3.3140359 1.4031686 0.71928459
3.3119457 1.4529138 0.7190488
3.3098569 1.5026426 0.71881306
3.3077683 1.5523551 0.71857744
3.3056808 1.602051 0.71834189
3.3035936 1.6517305 0.71810639
3.3015072 1.7013937 0.71787101
3.2994218 1.7510406 0.71763563
3.2973368 1.8006706 0.71740037
3.2952526 1.8502848 0.71716529
3.2926483 1.9122782 0.71687132
3.2900445 1.9742479 0.71657759
3.4559348 -1.9931407 0.78602421
3.4537969 -1.9422628 0.78577459
3.4516604 -1.8914019 0.78552496
3.4495249 -1.8405581 0.78527558
3.4473896 -1.7897311 0.78502619
3.4452555 -1.7389213 0.78477687
3.4431214 -1.6881282 0.78452772
3.4409885 -1.6373523 0.78427845
3.4388564 -1.5865933 0.78402948
3.4367244 -1.535851 0.78378052
3.4345942 -1.485126 0.78353155
3.4324639 -1.4344177 0.78328282
3.4303343 -1.3837264 0.78303415
3.4282055 -1.333052 0.78278548
3.4260776 -1.2823945 0.78253692
3.4239502 -1.2317539 0.78228843
3.4218233 -1.1811302 0.78203994
3.4196978 -1.1305233 0.78179163
3.4175725 -1.0799333 0.78154361
3.415448 -1.0293603 0.78129536
3.4133246 -0.97880411 0.78104734
3.4112012 -0.9282648 0.78079939
3.4090793 -0.87774229 0.78055143
3.4069576 -0.82723647 0.78030366
3.4048364 -0.7767477 0.78005594
3.4027164 -0.72627556 0.77980828
3.4005969 -0.67582017 0.7795608
3.3984783 -0.62538177 0.77931339
3.3963602 -0.57496011 0.77906591
3.3942425 -0.52455515 0.77881861
3.3921258 -0.47416705 0.77857143
3.3900099 -0.42379558 0.77832419
3.3878946 -0.37344098 0.77807719
3.3863084 -0.33568549 0.77789193
3.3847229 -0.29794043 0.77770668
3.3826094 -0.24762762 0.7774598
3.3804965 -0.19733158 0.77721316
3.3783844 -0.14705223 0.77696633
3.3762732 -0.096789576 0.77671975
3.3741624 -0.046543635 0.77647316
3.3720524 0.0036856234 0.77622682
3.3699429 0.053898171 0.77598035
3.3678343 0.10409407 0.77573413
3.3657265 0.15427329 0.77548802
3.3636191 0.20443587 0.77524179
3.3615127 0.25458181 0.7749958
3.3594069 0.30471104 0.77474976
3.3573017 0.35482365 0.77450395
3.3551972 0.40491962 0.77425808
3.3530934 0.45499903 0.77401239
3.3509905 0.50506192 0.77376676
3.3488882 0.55510807 0.77352124
3.3467867 0.60513771 0.77327579
3.3446856 0.65515083 0.7730304
3.3425856 0.70514727 0.77278513
3.340486 0.75512713 0.77253991
3.3383875 0.80509049 0.7722947
3.3362894 0.85503721 0.77204961
3.3341918 0.90496743 0.77180469
3.3320951 0.95488119 0.77155972
3.329999 1.0047785 0.77131498
3.3279035 1.0546589 0.77107018
3.3258088 1.1045229 0.77082562
3.323715 1.1543708 0.77058107
3.3216219 1.2042019 0.77033657
3.3195295 1.2540169 0.77009219
3.3174376 1.3038151 0.76984781
3.3153462 1.3535966 0.76960361
3.3132555 1.403362 0.76935947
3.3111658 1.4531107 0.76911533
3.3090763 1.5028429 0.76887125
3.3069882 1.5525591 0.76862735
3.3049004 1.6022586 0.76838356
3.3028138 1.6519417 0.76813972
3.3007271 1.7016084 0.76789612
3.2986412 1.7512584 0.76765239
3.2965562 1.8008924 0.76740885
3.2944722 1.8505099 0.76716548
3.2918675 1.912508 0.76686126
3.2892642 1.9744823 0.76655716
3.4551556 -1.9931927 0.83667266
3.4530187 -1.9423112 0.83641458
3.450882 -1.8914465 0.83615655
3.4487462 -1.8405988 0.83589858
3.4466107 -1.7897682 0.83564073
3.4444766 -1.7389545 0.835383
3.4423425 -1.6881578 0.83512521
3.4402096 -1.6373782 0.8348676
3.4380774 -1.5866156 0.8346101
3.4359457 -1.5358698 0.83435261
3.433815 -1.4851408 0.83409542
3.431685 -1.4344288 0.83383811
3.4295554 -1.383734 0.83358103
3.4274266 -1.333056 0.8333239
3.4252987 -1.2823948 0.83306682
3.423171 -1.2317502 0.83280993
3.4210443 -1.181123 0.83255297
3.4189188 -1.1305122 0.83229631
3.4167936 -1.079919 0.83203965
3.414669 -1.0293422 0.83178324
3.4125452 -0.97878224 0.83152658
3.4104218 -0.92823917 0.83127022
3.4082997 -0.87771291 0.83101386
3.4061782 -0.82720363 0.83075768
3.4040568 -0.77671111 0.83050162
3.4019372 -0.72623533 0.83024555
3.3998177 -0.67577642 0.82998955
3.3976986 -0.62533426 0.82973367
3.3955808 -0.57490885 0.82947785
3.3933516 -0.5203048 0.82499993
3.3937976 -0.5370869 0.84188831
3.3913467 -0.47410858 0.82896656
3.3892305 -0.42373359 0.82871097
3.387115 -0.37337527 0.82845545
3.385529 -0.33561704 0.82826394
3.3839436 -0.29786927 0.82807249
3.3818297 -0.24755284 0.82781726
3.3797169 -0.19725311 0.82756209
3.3776045 -0.14697017 0.82730687
3.3754935 -0.09670388 0.82705194
3.3733828 -0.046454325 0.82679701
3.3712726 0.0037785321 0.8265422
3.3691635 0.053994745 0.82628751
3.3670547 0.10419424 0.82603288
3.3649468 0.15437706 0.82577825
3.3628392 0.20454325 0.82552379
3.3607328 0.25469273 0.82526934
3.3586273 0.30482566 0.82501501
3.3565221 0.35494184 0.82476074
3.3544176 0.40504152 0.82450664
3.3523138 0.45512456 0.82425261
3.3502107 0.50519091 0.82399857
3.3481081 0.55524069 0.82374471
3.3460069 0.60527384 0.82349086
3.3439059 0.6552906 0.82323712
3.3418057 0.70529062 0.82298356
3.3397064 0.75527412 0.82272995
3.3376071 0.80524093 0.82247657
3.3355093 0.85519135 0.82222307
3.3334115 0.90512514 0.82196987
3.331315 0.95504236 0.82171661
3.3292189 1.0049433 0.82146353
3.3271236 1.0548273 0.82121038
3.3250289 1.1046951 0.82095736
3.3229349 1.1545463 0.82070458
3.3208418 1.2043811 0.8204518
3.318749 1.2541993 0.82019907
3.3166573 1.3040011 0.81994647
3.3145659 1.3537863 0.81969392
3.3124754 1.4035553 0.8194415
3.3103859 1.4533076 0.81918913
3.3082962 1.5030435 0.81893665
3.3062077 1.552763 0.81868446
3.3041201 1.6024661 0.81843239
3.3020332 1.6521525 0.81818026
3.2999465 1.7018229 0.81792837
3.2978606 1.7514766 0.81767642
3.2957759 1.8011138 0.81742465
3.2936914 1.8507352 0.81717288
3.2916081 1.9003398 0.81692123
3.2890048 1.9623218 0.81660688
3.4543769 -1.9932446 0.88732839
3.4522395 -1.9423594 0.88706189
3.4501035 -1.8914911 0.8867954
3.4479675 -1.8406398 0.88652903
3.4458323 -1.7898055 0.88626266
3.4436977 -1.7389879 0.88599634
3.4415641 -1.6881875 0.88573027
3.439431 -1.6374042 0.88546413
3.4372983 -1.5866377 0.88519818
3.4351666 -1.5358882 0.88493222
3.4330356 -1.4851557 0.88466644
3.4309058 -1.4344401 0.88440073
3.4287763 -1.3837414 0.88413513
3.4266474 -1.3330598 0.88386953
3.4245193 -1.2823949 0.88360411
3.4223921 -1.2317468 0.88333869
3.4202652 -1.1811157 0.88307345
3.4181395 -1.1305016 0.88280827
3.4160142 -1.0799043 0.88254321
3.4138899 -1.0293238 0.88227814
3.4117656 -0.97876036 0.88201326
3.4096429 -0.92821366 0.88174844
3.4075205 -0.87768388 0.88148367
3.4053988 -0.82717079 0.88121909
3.4032781 -0.77667445 0.8809545
3.4011576 -0.7261951 0.8806901
3.3990383 -0.67573261 0.88042563
3.3969195 -0.6252867 0.88016135
3.3948009 -0.57485777 0.87989706
3.3923492 -0.51185852 0.86696386
3.3927951 -0.52864128 0.883856
3.3905666 -0.4740501 0.87936884
3.3884509 -0.42367142 0.87910503
3.3863356 -0.37330952 0.8788411
3.3847497 -0.33554852 0.87864333
3.3831642 -0.2977981 0.87844551
3.3810503 -0.24747801 0.87818182
3.3789375 -0.19717467 0.8779183
3.3768253 -0.14688809 0.87765485
3.3747137 -0.09661819 0.87739152
3.3726032 -0.046365008 0.87712806
3.3704929 0.0038714856 0.87686497
3.3683836 0.05409129 0.87660176
3.3662751 0.10429443 0.87633878
3.364167 0.15448086 0.8760758
3.3620594 0.20465066 0.87581295
3.3599534 0.25480384 0.87555021
3.3578472 0.30494028 0.87528759
3.3557422 0.3550601 0.87502491
3.3536375 0.40516335 0.87476248
3.3515341 0.45524997 0.87450004
3.3494308 0.50532001 0.87423778
3.3473284 0.55537331 0.87397546
3.3452265 0.6054101 0.8737132
3.3431261 0.65543032 0.87345129
3.3410258 0.70543402 0.87318921
3.3389263 0.75542104 0.87292737
3.3368275 0.80539161 0.87266552
3.3347292 0.85534561 0.87240386
3.3326316 0.90528286 0.87214214
3.3305347 0.95520377 0.87188059
3.3284385 1.005108 0.87161922
3.3263435 1.0549958 0.8713578
3.3242483 1.1048671 0.87109643
3.3221548 1.154722 0.8708353
3.320061 1.2045602 0.8705743
3.3179688 1.254382 0.87031329
3.3158767 1.3041874 0.87005228
3.3137858 1.3539764 0.86979139
3.3116951 1.4037486 0.86953062
3.3096056 1.4535047 0.86926991
3.3075161 1.5032439 0.86900938
3.3054276 1.552967 0.86874878
3.3033397 1.6026735 0.86848843
3.3012524 1.6523638 0.86822808
3.2991664 1.7020375 0.8679679
3.2970803 1.7516948 0.86770755
3.2949953 1.8013358 0.86744756
3.2929111 1.8509603 0.8671875
3.290827 1.9005682 0.86692762
3.2882235 1.9625547 0.8666029
3.4535985 -1.9932966 0.9379918
3.4514608 -1.9424077 0.93771678
3.4493241 -1.8915355 0.93744165
3.4471881 -1.8406805 0.93716675
3.4450531 -1.7898424 0.93689185
3.4429185 -1.7390213 0.93661714
3.4407849 -1.6882173 0.93634254
3.4386513 -1.6374302 0.936068
3.4365191 -1.58666 0.93579346
3.4343877 -1.5359068 0.93551916
3.4322569 -1.4851707 0.93524486
3.4301267 -1.4344513 0.93497074
3.4279971 -1.3837489 0.93469656
3.425868 -1.3330636 0.93442261
3.4237401 -1.282395 0.93414879
3.4216127 -1.2317432 0.93387491
3.4194858 -1.1811086 0.93360114
3.4173603 -1.1304907 0.93332762
3.415235 -1.0798897 0.93305397
3.41311 -1.0293056 0.93278062
3.4109869 -0.97873849 0.93250716
3.4088633 -0.92818809 0.93223393
3.4067411 -0.87765449 0.93196076
3.4046195 -0.82713789 0.93168777
3.4024985 -0.77663803 0.93141478
3.400378 -0.72615492 0.93114191
3.3982584 -0.67568868 0.93086898
3.3961399 -0.62523919 0.93059629
3.3940215 -0.57480663 0.93032366
3.3919041 -0.52439076 0.93005121
3.3896761 -0.46979725 0.92555475
3.3901217 -0.48657501 0.9424507
3.387671 -0.42360932 0.9295063
3.385556 -0.37324381 0.92923409
3.3839698 -0.33548009 0.92902994
3.3823843 -0.2977269 0.92882586
3.3802705 -0.24740317 0.92855376
3.3781579 -0.19709623 0.92828184
3.3760457 -0.14680599 0.92800999
3.373934 -0.096532479 0.92773825
3.3718231 -0.04627566 0.92746651
3.3697133 0.0039644688 0.92719501
3.3676038 0.054187864 0.92692345
3.365495 0.10439463 0.92665207
3.3633873 0.15458469 0.92638069
3.3612797 0.20475803 0.92610943
3.3591733 0.25491482 0.92583835
3.3570671 0.3050549 0.92556733
3.3549623 0.3551783 0.92529631
3.3528578 0.40528512 0.92502552
3.3507538 0.45537537 0.92475468
3.3486507 0.50544894 0.92448401
3.3465483 0.55550599 0.92421341
3.3444467 0.60554641 0.92394292
3.3423457 0.65557015 0.92367244
3.3402455 0.70557731 0.92340219
3.3381457 0.75556809 0.923132
3.3360472 0.80554217 0.92286181
3.3339489 0.85549951 0.92259175
3.3318512 0.90544057 0.9223218
3.3297546 0.95536494 0.92205191
3.3276582 1.0052729 0.92178214
3.325563 1.0551642 0.92151237
3.323468 1.105039 0.92124277
3.3213742 1.1548975 0.9209733
3.3192809 1.2047393 0.92070389
3.3171883 1.2545648 0.92043459
3.3150964 1.3043736 0.92016536
3.3130057 1.3541659 0.9198963
3.3109148 1.4039419 0.91962713
3.3088248 1.4537014 0.91935807
3.3067355 1.5034447 0.9190892
3.304647 1.553171 0.91882038
3.3025591 1.6028812 0.9185518
3.300472 1.6525749 0.91828299
3.2983856 1.7022521 0.91801447
3.2962999 1.7519131 0.91774607
3.2942147 1.8015574 0.91747773
3.2921305 1.8511858 0.91720945
3.2900465 1.9007971 0.91694123
3.2876899 1.9578178 0.91413265
3.2862067 1.9876375 0.92897272
3.4528191 -1.9933488 0.98866236
3.4506819 -1.9424558 0.9883787
3.448545 -1.8915801 0.98809522
3.446409 -1.8407212 0.9878118
3.4442737 -1.7898796 0.9875285
3.4421394 -1.7390547 0.98724538
3.4400058 -1.6882471 0.98696214
3.4378726 -1.6374563 0.98667926
3.4357402 -1.5866824 0.98639625
3.4336083 -1.5359254 0.98611349
3.4314775 -1.4851855 0.98583078
3.4293473 -1.4344625 0.98554808
3.427218 -1.3837566 0.98526555
3.4250889 -1.3330674 0.98498303
3.4229608 -1.282395 0.98470062
3.4208333 -1.2317398 0.98441833
3.4187067 -1.1811014 0.98413616
3.4165804 -1.1304798 0.98385417
3.4144557 -1.0798752 0.98357219
3.4123306 -1.0292875 0.98329026
3.410207 -0.97871661 0.9830085
3.4080842 -0.92816257 0.98272687
3.4059615 -0.87762535 0.98244524
3.4038401 -0.82710499 0.98216373
3.4017189 -0.77660143 0.98188233
3.3995986 -0.72611475 0.98160094
3.3974791 -0.67564481 0.98131973
3.39536 -0.62519169 0.98103857
3.3932419 -0.57475543 0.98075759
3.3911242 -0.52433592 0.98047662
3.3884785 -0.46133459 0.98012555
3.3895369 -0.48653179 0.98026592
3.3868916 -0.42354727 0.9799149
3.3847759 -0.37317801 0.97963423
3.3831897 -0.33541161 0.97942388
3.381604 -0.29765564 0.97921342
3.3794906 -0.24732834 0.97893298
3.377378 -0.19701774 0.97865278
3.3752656 -0.1467239 0.97837245
3.3731542 -0.096446738 0.97809225
3.3710434 -0.046186306 0.97781223
3.3689334 0.0040574521 0.97753233
3.3668239 0.054284468 0.9772523
3.3647151 0.10449485 0.97697258
3.362607 0.15468849 0.9766928
3.3604999 0.20486553 0.97641325
3.3583932 0.25502586 0.97613376
3.356287 0.30516958 0.97585434
3.354182 0.35529661 0.97557509
3.3520777 0.40540707 0.97529578
3.3499737 0.45550084 0.97501665
3.3478703 0.50557804 0.97473758
3.345768 0.55563867 0.97445869
3.3436666 0.60568255 0.9741798
3.3415654 0.65571004 0.97390109
3.3394651 0.70572084 0.97362244
3.3373656 0.75571513 0.97334391
3.3352668 0.80569273 0.97306532
3.3331687 0.85565376 0.97278702
3.3310709 0.9055984 0.97250861
3.328974 0.95552635 0.97223043
3.3268783 1.0054379 0.97195238
3.3247824 1.0553328 0.97167438
3.3226879 1.1052113 0.97139639
3.3205934 1.1550732 0.97111851
3.3185003 1.2049186 0.97084081
3.3164077 1.2547476 0.97056323
3.314316 1.3045601 0.97028571
3.3122249 1.3543559 0.97000825
3.3101339 1.4041355 0.96973079
3.308044 1.4538984 0.96945351
3.3059549 1.5036451 0.96917635
3.3038661 1.5533751 0.96889907
3.3017783 1.6030886 0.96862209
3.2996912 1.6527859 0.96834522
3.2976053 1.702467 0.96806848
3.2955191 1.7521313 0.96779162
3.2934341 1.8017795 0.96751499
3.2913494 1.8514109 0.96723843
3.2892659 1.9010262 0.96696198
3.2871828 1.9506249 0.96668559
3.2856209 1.9878137 0.96647841
3.45204 -1.9934006 1.0393403
3.4499025 -1.9425039 1.0390482
3.4477663 -1.8916246 1.0387563
3.4456301 -1.840762 1.0384643
3.443495 -1.7899166 1.0381725
3.44136 -1.7390882 1.0378809
3.4392264 -1.6882766 1.0375892
3.4370933 -1.6374822 1.0372977
3.4349608 -1.5867046 1.0370064
3.4328291 -1.5359439 1.036715
3.4306982 -1.4852004 1.0364238
3.4285676 -1.4344739 1.0361328
3.4264386 -1.3837639 1.0358417
3.4243093 -1.3330712 1.0355507
3.4221811 -1.2823951 1.0352598
3.420054 -1.2317363 1.0349692
3.4179273 -1.1810941 1.0346786
3.4158013 -1.1304688 1.0343881
3.413676 -1.0798606 1.0340977
3.4115517 -1.0292692 1.0338073
3.4094276 -0.97869468 1.0335171
3.407304 -0.92813694 1.033227
3.4051821 -0.87759602 1.0329368
3.4030604 -0.82707202 1.032647
3.400939 -0.77656478 1.0323571
3.3988187 -0.7260744 1.0320674
3.3966992 -0.67560101 1.0317777
3.3945801 -0.62514418 1.0314882
3.392462 -0.57470423 1.0311986
3.3903446 -0.52428108 1.0309093
3.3882275 -0.47387469 1.03062
3.3861117 -0.42348516 1.0303309
3.3839962 -0.37311232 1.0300418
3.3824103 -0.33534312 1.029825
3.3808246 -0.29758447 1.0296085
3.3787107 -0.24725348 1.0293195
3.3765979 -0.19693927 1.0290308
3.374486 -0.14664178 1.0287421
3.3723741 -0.096361004 1.0284535
3.3702633 -0.046096943 1.028165
3.3681531 0.0041504204 1.0278767
3.3660438 0.054381087 1.0275885
3.363935 0.10459505 1.0273004
3.3618269 0.15479235 1.0270122
3.3597195 0.204973 1.0267243
3.3576128 0.25513691 1.0264363
3.3555069 0.30528426 1.0261487
3.3534017 0.35541493 1.0258609
3.3512971 0.4055289 1.0255733
3.3491933 0.45562631 1.0252858
3.3470902 0.5057072 1.0249984
3.3449879 0.55577129 1.0247111
3.3428857 0.60581887 1.024424
3.3407848 0.65584987 1.0241368
3.3386848 0.70586431 1.0238498
3.336585 0.75586206 1.0235628
3.3344865 0.80584335 1.0232761
3.3323879 0.85580814 1.0229894
3.3302906 0.90575612 1.0227027
3.3281937 0.95568776 1.0224162
3.3260975 1.0056028 1.0221298
3.3240023 1.0555013 1.0218433
3.3219068 1.1053833 1.0215572
3.3198133 1.1552488 1.021271
3.3177199 1.2050977 1.0209849
3.3156271 1.2549304 1.020699
3.3135355 1.3047463 1.020413
3.3114438 1.3545458 1.0201273
3.3093534 1.4043291 1.0198417
3.3072634 1.4540956 1.019556
3.3051744 1.5038456 1.0192707
3.3030856 1.5535791 1.018985
3.3009977 1.6032966 1.0186999
3.2989106 1.6529973 1.0184146
3.2968242 1.7026817 1.0181295
3.2947381 1.7523496 1.0178443
3.2926531 1.8020011 1.0175594
3.2905688 1.8516362 1.0172745
3.2884848 1.9012551 1.0169898
3.2864022 1.9508576 1.0167053
3.2848399 1.9880493 1.0164918
3.4512608 -1.9934525 1.0900255
3.4491231 -1.9425523 1.0897251
3.4469869 -1.891669 1.0894246
3.4448507 -1.8408029 1.0891241
3.4427156 -1.7899538 1.0888239
3.4405811 -1.7391217 1.0885239
3.438447 -1.6883063 1.0882237
3.4363141 -1.6375083 1.0879236
3.4341815 -1.586727 1.0876238
3.4320498 -1.5359628 1.087324
3.4299188 -1.4852154 1.0870243
3.4277887 -1.434485 1.0867248
3.4256589 -1.3837715 1.0864253
3.4235296 -1.333075 1.0861259
3.4214015 -1.2823954 1.0858265
3.4192746 -1.2317328 1.0855275
3.4171479 -1.1810869 1.0852283
3.4150217 -1.1304581 1.0849292
3.4128964 -1.0798463 1.0846305
3.4107716 -1.0292509 1.0843318
3.408648 -0.97867274 1.084033
3.4065247 -0.92811137 1.0837345
3.4044023 -0.87756687 1.083436
3.4022803 -0.82703924 1.0831378
3.4001594 -0.7765283 1.0828393
3.3980389 -0.72603428 1.0825412
3.3959193 -0.67555702 1.0822432
3.3938003 -0.62509656 1.0819452
3.3916819 -0.57465303 1.0816473
3.3895648 -0.52422625 1.0813495
3.3874481 -0.47381622 1.0810517
3.3848028 -0.41082674 1.0806798
3.3858607 -0.43601918 1.0808285
3.3832161 -0.37304655 1.0804566
3.3816302 -0.33527464 1.0802336
3.3800445 -0.29751322 1.0800105
3.3779309 -0.24717864 1.0797133
3.375818 -0.19686078 1.0794163
3.3737056 -0.14655966 1.0791192
3.3715937 -0.096275255 1.0788223
3.3694832 -0.046007559 1.0785254
3.367373 0.0042434186 1.0782287
3.3652635 0.054477707 1.0779321
3.3631546 0.10469528 1.0776355
3.3610466 0.15489618 1.0773391
3.3589394 0.20508049 1.0770426
3.356833 0.25524807 1.0767463
3.3547268 0.30539894 1.0764503
3.3526216 0.35553318 1.0761542
3.350517 0.40565085 1.0758582
3.3484132 0.4557519 1.0755624
3.3463099 0.50583625 1.0752666
3.3442073 0.55590397 1.0749708
3.3421056 0.60595518 1.0746752
3.3400047 0.65598983 1.0743799
3.3379042 0.70600766 1.0740845
3.3358045 0.7560091 1.0737891
3.3337057 0.80599391 1.0734941
3.3316071 0.8559624 1.0731992
3.32951 0.90591395 1.072904
3.3274131 0.95584905 1.0726092
3.3253167 1.0057677 1.0723144
3.3232212 1.0556698 1.0720197
3.3211267 1.1055553 1.0717251
3.3190324 1.1554245 1.0714307
3.3169389 1.2052771 1.0711364
3.3148463 1.255113 1.070842
3.3127546 1.3049327 1.0705478
3.310663 1.3547357 1.0702538
3.3085728 1.4045224 1.0699598
3.3064826 1.4542924 1.0696658
3.3043935 1.5040462 1.0693721
3.3023045 1.5537834 1.0690783
3.3002169 1.6035041 1.0687846
3.2981296 1.6532085 1.0684911
3.2960429 1.7028964 1.0681977
3.2939575 1.752568 1.0679045
3.291872 1.8022231 1.0676112
3.2897875 1.8518617 1.0673181
3.2877038 1.901484 1.0670249
3.2856207 1.9510899 1.066732
3.2840588 1.9882839 1.0665125
3.4504817 -1.9935045 1.1407185
3.4483442 -1.9426006 1.1404095
3.4462075 -1.8917137 1.1401004
3.4440715 -1.8408437 1.1397915
3.441936 -1.7899909 1.1394827
3.4398015 -1.7391549 1.1391741
3.4376674 -1.688336 1.1388656
3.4355345 -1.6375343 1.1385571
3.4334021 -1.5867491 1.1382487
3.4312704 -1.5359812 1.1379403
3.4291396 -1.4852302 1.1376323
3.4270091 -1.4344962 1.1373242
3.4248791 -1.3837789 1.1370161
3.42275 -1.3330787 1.1367083
3.4206221 -1.2823955 1.1364006
3.4184947 -1.2317293 1.1360928
3.416368 -1.1810797 1.1357855
3.4142416 -1.1304471 1.135478
3.4121165 -1.0798315 1.1351707
3.4099917 -1.0292327 1.1348636
3.4078679 -0.97865087 1.1345563
3.405745 -0.92808574 1.1342494
3.4036222 -0.87753761 1.1339424
3.4015005 -0.82700622 1.1336356
3.3993793 -0.7764917 1.1333289
3.397259 -0.72599399 1.1330221
3.3951392 -0.67551315 1.1327157
3.3930202 -0.62504905 1.1324093
3.390902 -0.57460177 1.132103
3.3887846 -0.52417141 1.131797
3.386668 -0.47375774 1.1314908
3.3845515 -0.42336088 1.1311846
3.3824363 -0.37298074 1.1308789
3.3808501 -0.33520615 1.1306496
3.3792641 -0.29744196 1.1304201
3.3771508 -0.24710378 1.1301146
3.3750379 -0.19678228 1.1298091
3.3729253 -0.14647751 1.1295035
3.3708138 -0.096189477 1.1291982
3.3687027 -0.045918174 1.128893
3.3665924 0.0043364316 1.1285877
3.3644834 0.054574326 1.1282828
3.3623745 0.10479553 1.127978
3.3602664 0.15500008 1.1276729
3.3581588 0.20518793 1.1273682
3.3560524 0.25535911 1.1270635
3.353946 0.30551362 1.1267592
3.3518407 0.3556515 1.1264547
3.3497367 0.40577275 1.1261504
3.3476324 0.4558773 1.1258461
3.3455291 0.50596535 1.1255418
3.3434267 0.55603671 1.1252379
3.341325 0.6060915 1.1249341
3.3392236 0.6561296 1.1246301
3.3371236 0.70615119 1.1243265
3.3350241 0.75615615 1.1240227
3.3329248 0.8061446 1.1237193
3.3308265 0.85611641 1.1234158
3.3287289 0.9060719 1.1231126
3.3266323 0.95601046 1.1228094
3.3245363 1.0059327 1.1225064
3.3224404 1.0558383 1.1222034
3.3203459 1.1057276 1.1219004
3.3182516 1.1556002 1.1215976
3.3161585 1.2054564 1.1212949
3.3140655 1.255296 1.1209923
3.3119736 1.305119 1.1206897
3.3098824 1.3549256 1.1203873
3.3077917 1.404716 1.120085
3.305702 1.4544896 1.1197829
3.3036127 1.504247 1.1194807
3.3015239 1.5539876 1.1191788
3.2994354 1.6037117 1.1188768
3.2973483 1.6534196 1.118575
3.2952616 1.7031112 1.1182731
3.2931762 1.7527862 1.1179717
3.2910912 1.8024449 1.1176702
3.2890065 1.8520873 1.1173687
3.2869229 1.9017129 1.1170675
3.2848396 1.9513226 1.1167662
3.2832775 1.9885192 1.1165402
3.449702 -1.9935565 1.1914185
3.4475646 -1.9426489 1.191101
3.4454277 -1.8917582 1.1907836
3.4432917 -1.8408847 1.1904662
3.4411566 -1.7900281 1.1901488
3.4390218 -1.7391884 1.1898317
3.436888 -1.6883658 1.1895146
3.4347546 -1.6375602 1.1891975
3.4326224 -1.5867716 1.188881
3.4304905 -1.5359999 1.1885641
3.4283595 -1.4852451 1.1882474
3.4262292 -1.4345074 1.1879311
3.4240992 -1.3837866 1.1876144
3.4219704 -1.3330827 1.1872982
3.4198422 -1.2823956 1.1869819
3.4177148 -1.2317257 1.186666
3.4155884 -1.1810725 1.1863499
3.4134622 -1.1304363 1.1860341
3.4113367 -1.0798169 1.1857183
3.4092121 -1.0292145 1.1854026
3.407088 -0.97862887 1.1850871
3.4049647 -0.92806023 1.1847717
3.4028418 -0.87750834 1.184456
3.4007204 -0.82697338 1.1841409
3.3985994 -0.77645516 1.1838257
3.3964789 -0.72595382 1.1835107
3.3943594 -0.67546928 1.1831958
3.3922403 -0.62500155 1.1828809
3.3901219 -0.57455063 1.1825662
3.3880045 -0.52411658 1.1822515
3.3858876 -0.47369927 1.181937
3.3837714 -0.42329872 1.1816225
3.3815446 -0.36872244 1.1770792
3.38199 -0.38549259 1.1939957
3.3800697 -0.33513761 1.1810727
3.378484 -0.29737073 1.180837
3.3763702 -0.24702889 1.1805229
3.3742571 -0.19670376 1.180209
3.3721447 -0.14639537 1.1798952
3.3700333 -0.096103713 1.1795814
3.3679225 -0.045828767 1.1792679
3.3658121 0.0044294596 1.1789544
3.363703 0.05467099 1.1786408
3.361594 0.10489582 1.1783274
3.3594861 0.15510397 1.1780145
3.3573785 0.20529546 1.1777011
3.3552721 0.25547028 1.1773881
3.3531659 0.30562836 1.1770753
3.3510604 0.35576981 1.1767625
3.3489561 0.4058947 1.1764497
3.3468516 0.45600289 1.1761371
3.3447487 0.50609457 1.1758248
3.3426464 0.55616945 1.1755122
3.3405445 0.60622776 1.1752001
3.338443 0.65626967 1.1748878
3.3363428 0.70629472 1.1745757
3.3342433 0.75630331 1.1742637
3.3321443 0.80629522 1.173952
3.3300459 0.85627067 1.17364
3.3279486 0.90622962 1.1733285
3.3258512 0.95617199 1.1730169
3.323755 1.0060977 1.1727054
3.3216593 1.0560069 1.1723942
3.3195648 1.1058996 1.1720829
3.3174708 1.1557759 1.1717718
3.3153772 1.2056355 1.1714606
3.3132844 1.2554786 1.1711497
3.3111923 1.3053054 1.1708388
3.3091009 1.3551154 1.1705284
3.3070109 1.4049095 1.1702178
3.3049207 1.4546866 1.1699071
3.3028312 1.5044475 1.1695966
3.3007426 1.5541917 1.1692865
3.2986548 1.6039195 1.1689761
3.2965672 1.653631 1.168666
3.2944808 1.7033259 1.1683559
3.2923949 1.7530047 1.1680461
3.2903099 1.8026668 1.1677362
3.2882254 1.8523126 1.1674267
3.2861416 1.9019418 1.1671169
3.2840583 1.9515548 1.1668073
3.2824967 1.9887543 1.1665754
3.4489229 -1.9936086 1.2421261
3.446785 -1.942697 1.2418001
3.4446483 -1.8918028 1.241474
3.4425123 -1.8409256 1.241148
3.440377 -1.7900653 1.2408226
3.4382424 -1.7392217 1.2404969
3.4361081 -1.6883954 1.2401712
3.433975 -1.6375861 1.2398458
3.4318426 -1.5867938 1.2395205
3.4297106 -1.5360185 1.2391952
3.4275799 -1.4852601 1.2388703
3.4254491 -1.4345187 1.2385452
3.4233196 -1.3837941 1.2382201
3.4211905 -1.3330865 1.2378955
3.4190624 -1.2823957 1.2375708
3.416935 -1.2317221 1.2372463
3.414808 -1.1810653 1.2369217
3.4126825 -1.1304253 1.2365974
3.4105563 -1.0798024 1.2362733
3.4084318 -1.0291961 1.235949
3.4063084 -0.978607 1.2356249
3.4041846 -0.9280346 1.2353011
3.4020622 -0.87747908 1.2349772
3.3999405 -0.8269403 1.2346536
3.397819 -0.77641857 1.2343301
3.395699 -0.72591347 1.2340065
3.3935788 -0.67542529 1.2336831
3.3914602 -0.62495393 1.2333598
3.3893421 -0.57449943 1.2330366
3.3872242 -0.52406168 1.2327136
3.3851073 -0.47364074 1.2323908
3.3829906 -0.42323655 1.2320677
3.3805418 -0.3602711 1.2190548
3.3809867 -0.37704185 1.2359751
3.3792894 -0.33506912 1.2315032
3.3777037 -0.29729947 1.2312613
3.3755901 -0.24695396 1.2309388
3.3734767 -0.19662523 1.2306163
3.3713646 -0.14631322 1.2302942
3.3692527 -0.096017919 1.2299719
3.3671422 -0.045739353 1.22965
3.3650315 0.0045224875 1.229328
3.3629222 0.054767653 1.2290062
3.3608136 0.1049961 1.2286844
3.3587053 0.15520786 1.2283629
3.3565977 0.20540293 1.2280414
3.354491 0.25558138 1.22772
3.3523848 0.30574316 1.2273986
3.3502798 0.35588825 1.2270775
3.348175 0.40601665 1.2267563
3.3460712 0.45612848 1.2264355
3.3439679 0.50622374 1.2261146
3.3418655 0.55630225 1.2257937
3.3397636 0.60636413 1.2254733
3.3376627 0.65640956 1.2251527
3.335562 0.70643824 1.2248322
3.333462 0.75645047 1.2245119
3.3313634 0.80644602 1.2241917
3.3292649 0.85642505 1.2238715
3.3271675 0.90638745 1.2235516
3.3250704 0.95633352 1.2232318
3.3229744 1.0062628 1.2229121
3.3208785 1.0561756 1.2225924
3.318784 1.1060717 1.2222726
3.3166897 1.1559516 1.2219533
3.3145959 1.2058148 1.2216339
3.3125033 1.2556615 1.2213145
3.3104115 1.3054918 1.2209954
3.3083196 1.3553057 1.2206764
3.3062294 1.4051028 1.2203574
3.3041391 1.4548836 1.2200385
3.3020501 1.5046481 1.2197199
3.2999613 1.5543962 1.2194014
3.2978735 1.6041274 1.2190828
3.2957861 1.6538422 1.2187642
3.2936997 1.7035409 1.2184459
3.2916138 1.7532229 1.2181277
3.2895284 1.8028886 1.2178096
3.2874441 1.8525381 1.2174915
3.2853599 1.9021707 1.2171737
3.2832768 1.9517872 1.2168558
3.2817152 1.9889894 1.2166176
3.448143 -1.9936604 1.2928411
3.4460049 -1.9427454 1.2925065
3.4438684 -1.8918474 1.2921721
3.4417322 -1.8409662 1.2918376
3.4395971 -1.7901022 1.2915033
3.4374626 -1.7392553 1.2911694
3.4353287 -1.6884253 1.2908353
3.4331951 -1.6376122 1.2905012
3.4310625 -1.5868161 1.2901676
3.4289308 -1.5360371 1.2898338
3.4267998 -1.485275 1.2895
3.4246693 -1.4345299 1.2891666
3.4225395 -1.3838015 1.2888333
3.4204104 -1.3330903 1.2884998
3.4182825 -1.2823961 1.2881669
3.4161549 -1.2317187 1.2878339
3.4140282 -1.181058 1.2875007
3.4119017 -1.1304145 1.287168
3.4097764 -1.0797876 1.2868353
3.4076517 -1.029178 1.2865027
3.4055278 -0.97858512 1.2861705
3.4034042 -0.92800903 1.2858379
3.4012818 -0.87744981 1.2855057
3.3991601 -0.82690746 1.2851737
3.3970387 -0.77638197 1.2848414
3.3949187 -0.72587329 1.2845095
3.3927984 -0.67538148 1.2841779
3.3906796 -0.62490642 1.283846
3.3885617 -0.57444817 1.2835145
3.3864436 -0.52400684 1.2831831
3.3843267 -0.47358215 1.2828516
3.3822107 -0.42317438 1.2825203
3.3800948 -0.37278336 1.2821891
3.3787041 -0.33501768 1.2693306
3.3783138 -0.33498341 1.2945513
3.3769231 -0.29722822 1.2816927
3.3748093 -0.24687907 1.2813618
3.3726964 -0.19654667 1.2810311
3.370584 -0.14623104 1.2807006
3.3684723 -0.095932119 1.2803699
3.3663614 -0.045649923 1.2800394
3.3642511 0.0046155602 1.2797091
3.3621416 0.054864332 1.2793789
3.3600328 0.10509638 1.2790487
3.3579247 0.15531178 1.2787189
3.3558168 0.20551051 1.2783889
