# .PCD v0.7 - Point Cloud Data file format
VERSION 0.7
FIELDS x y z
SIZE 4 4 4
TYPE F F F
COUNT 1 1 1
WIDTH 1530
HEIGHT 1
VIEWPOINT 0 0 0 1 0 0 0
POINTS 1530
DATA ascii
3.0455523 -1.1060791 0.79374915
3.0496132 -1.054059 0.7922731
3.0534637 -1.0048735 0.7936244
3.0577211 -0.95075428 0.80031502
3.0609293 -0.90966403 0.79913026
3.0633283 -0.87893534 0.79824424
2.7687519 -4.6486559 0.83086503
2.7708952 -4.6212001 0.83014929
2.774102 -4.5801258 0.82907879
2.7783632 -4.5255423 0.82765597
2.782608 -4.4711761 0.82623887
2.7868354 -4.4170246 0.82482737
2.7910469 -4.3630886 0.82342148
2.7952409 -4.3093657 0.82202113
2.7983763 -4.269206 0.82097429
2.8015015 -4.2291784 0.81993091
2.8056548 -4.1759825 0.81854433
2.8098807 -4.1231132 0.84204197
2.8140013 -4.0703335 0.84061742
2.8181057 -4.0177603 0.83919865
2.8221941 -3.9653928 0.83778524
2.8262663 -3.913229 0.83637732
2.830323 -3.861268 0.834975
2.8343637 -3.8095086 0.83357799
2.8383892 -3.7579498 0.83218652
2.8423986 -3.7065902 0.83080029
2.8453965 -3.6681948 0.82976407
2.8493793 -3.6171813 0.82838744
2.8473899 -3.6426635 0.8290751
2.8523564 -3.5790563 0.8273586
2.8563125 -3.5283852 0.82599103
2.8602531 -3.4779081 0.82462865
2.8641787 -3.4276245 0.82327157
2.8681331 -3.3775878 0.83401489
2.8718512 -3.3301985 0.83753979
2.8759527 -3.2780294 0.84332931
2.8827088 -3.1914816 0.84091347
2.8798184 -3.2285066 0.84194702
2.8855901 -3.1545734 0.83988333
2.8894198 -3.1055176 0.83851403
2.893235 -3.0566468 0.83714992
2.8970358 -3.0079598 0.83579093
2.9008222 -2.9594557 0.83443701
2.9045944 -2.9111335 0.83308822
2.9083526 -2.862992 0.83174449
2.912097 -2.8150306 0.83040571
2.9158273 -2.7672482 0.829072
2.9195435 -2.7196431 0.82774323
2.9234564 -2.6698794 0.83341175
2.9278967 -2.6132383 0.83651394
2.9325273 -2.5545154 0.84656131
2.9361818 -2.5076983 0.84521133
2.9398234 -2.4610536 0.84386623
2.9434509 -2.4145803 0.84252614
2.9470656 -2.3682778 0.84119105
2.9515646 -2.310647 0.83952916
2.956044 -2.2532616 0.83787435
2.9596124 -2.2075486 0.83655614
2.9631679 -2.1620021 0.83524287
2.9667106 -2.1166213 0.83393419
2.9711206 -2.0601349 0.83230537
2.9755111 -2.0038869 0.83068347
2.9790506 -1.9591272 0.84083146
2.9825356 -1.9144797 0.83952349
2.9866676 -1.8616887 0.84082234
2.9912353 -1.8036103 0.84764212
2.9946771 -1.7595212 0.84633005
2.9981062 -1.7155896 0.84502268
3.0023746 -1.6609039 0.84339529
3.0066259 -1.6064451 0.84177452
3.0108573 -1.5522313 0.84016114
3.0091674 -1.5738859 0.84080565
3.0142283 -1.5090497 0.83887613
3.0184274 -1.4552641 0.83727556
3.0217719 -1.4124126 0.83600032
3.0259354 -1.3590684 0.83441281
3.0301228 -1.3059895 0.84397024
3.033427 -1.2636633 0.84269112
3.03754 -1.2109714 0.84109885
3.0414884 -1.1606066 0.84400237
3.0457532 -1.1063068 0.84898055
3.049814 -1.0542854 0.84738439
3.0538554 -1.0025049 0.84579563
3.0578806 -0.95093381 0.84421319
3.0610881 -0.90984309 0.84295255
3.0634875 -0.87911367 0.84200978
2.7689331 -4.6488996 0.881594
2.7710764 -4.6214433 0.88082749
2.7742834 -4.580368 0.87968111
2.7785442 -4.5257835 0.87815738
2.7827885 -4.4714155 0.87663984
2.7870159 -4.417264 0.87512839
2.7912266 -4.363327 0.87362278
2.7954204 -4.3096027 0.87212324
2.7985559 -4.2694426 0.8710022
2.8016808 -4.229414 0.86988485
2.8060677 -4.1735983 0.87580073
2.8100593 -4.1233473 0.89180028
2.8141794 -4.0705667 0.89027828
2.8182838 -4.0179925 0.88876224
2.8223715 -3.9656239 0.88725221
2.8264434 -3.9134588 0.88574791
2.8305001 -3.8614969 0.88424945
2.8345406 -3.8097367 0.88275683
2.8385653 -3.7581768 0.88127005
2.8425748 -3.7068164 0.87978917
2.8455727 -3.6684203 0.87868208
2.8495555 -3.6174061 0.87721121
2.8475661 -3.6428888 0.87794596
2.8525324 -3.5792804 0.87611187
2.8564873 -3.5286083 0.87465066
2.8604279 -3.4781303 0.87319499
2.8645754 -3.4253693 0.87894034
2.8683505 -3.3778629 0.89449114
2.8722456 -3.3279605 0.89300615
2.8761263 -3.2782483 0.89152664
2.8828819 -3.1916986 0.88895094
2.879992 -3.2287242 0.89005286
2.8857629 -3.1547899 0.88785255
2.8895924 -3.1057334 0.88639265
2.8934071 -3.0568614 0.88493824
2.8972075 -3.0081737 0.88348931
2.9009938 -2.9596686 0.88204587
2.9047658 -2.9113457 0.88060778
2.9085238 -2.8632035 0.87917507
2.9122677 -2.8152413 0.87774765
2.9159975 -2.7674577 0.87632561
2.9197564 -2.7199044 0.88670069
2.9232907 -2.6748631 0.89004439
2.9281089 -2.613497 0.89522564
2.9326966 -2.5547216 0.89342237
2.9363508 -2.5079036 0.89198577
2.9399917 -2.4612579 0.89055461
2.9436193 -2.4147842 0.88912868
2.9472337 -2.3684807 0.88770789
2.9517319 -2.3108487 0.8859396
2.9562116 -2.2534626 0.88417882
2.9597795 -2.2077489 0.8827762
2.9633348 -2.1622014 0.88137865
2.9668772 -2.1168199 0.87998623
2.9713278 -2.0603819 0.88974011
2.9757185 -2.0041327 0.88798821
2.9792576 -1.9593722 0.89803302
2.9827418 -1.914724 0.89662176
2.9870799 -1.8591474 0.89486527
2.9914 -1.8038038 0.89311606
2.9948413 -1.759714 0.89172262
2.9982703 -1.7157817 0.89033401
3.0025384 -1.6610948 0.88860548
3.0067892 -1.6066351 0.88688427
3.0110209 -1.5524205 0.8851707
3.0093305 -1.5740757 0.8858552
3.0143912 -1.5092385 0.88380593
3.0186303 -1.4554986 0.89331365
3.0219748 -1.4126463 0.89193958
3.0261385 -1.3593013 0.89022881
3.0303252 -1.3062212 0.89966387
3.0336289 -1.2638938 0.898287
3.0377412 -1.2112012 0.89657277
3.041837 -1.1587231 0.89486569
3.0459137 -1.1064889 0.89316654
3.0499742 -1.0544666 0.89147425
3.0540152 -1.0026853 0.8897897
3.0580401 -0.95111334 0.88811213
3.0612476 -0.91002214 0.88677549
3.0636859 -0.87933683 0.89671761
2.769115 -4.6491432 0.93232381
2.7712581 -4.621686 0.93150669
2.7744644 -4.5806103 0.93028432
2.7787256 -4.5260248 0.92865986
2.782969 -4.4716558 0.92704183
2.7871962 -4.4175034 0.92543024
2.7914066 -4.3635654 0.92382509
2.7956002 -4.3098402 0.92222631
2.7987351 -4.2696791 0.921031
2.8018599 -4.2296495 0.9198398
2.8060572 -4.1765108 0.93071491
2.8102384 -4.1235809 0.94155949
2.8143578 -4.0707994 0.93993998
2.8184617 -4.0182242 0.93832684
2.8225491 -3.9658546 0.93671995
2.8266211 -3.9136891 0.93511939
2.830677 -3.861726 0.93352497
2.8347175 -3.8099647 0.93193668
2.8387418 -3.7584043 0.93035477
2.8427513 -3.7070427 0.92877895
2.8457489 -3.6686461 0.92760098
2.8497314 -3.617631 0.92603576
2.8477423 -3.6431141 0.92681766
2.8527076 -3.5795045 0.9248659
2.8566625 -3.5288315 0.92331105
2.8608255 -3.4758668 0.92896658
2.8643928 -3.430654 0.93726134
2.8685246 -3.3780835 0.94287342
2.8724196 -3.3281803 0.94129622
2.8762996 -3.2784667 0.93972492
2.883055 -3.191916 0.93698925
2.8801653 -3.2289422 0.93815947
2.8859358 -3.1550064 0.93582267
2.8897648 -3.1059489 0.93427223
2.8935795 -3.0570762 0.93272746
2.8973799 -3.0083876 0.93118858
2.9011655 -2.9598818 0.92965549
2.9049375 -2.9115579 0.92812818
2.908695 -2.863415 0.92660648
2.9126511 -2.8130896 0.93211311
2.9162114 -2.76772 0.93539417
2.9199688 -2.7201653 0.94565922
2.923671 -2.6727355 0.94411635
2.9282782 -2.6137042 0.94219607
2.9328659 -2.5549276 0.94028413
2.9365201 -2.5081089 0.93876117
2.9401603 -2.4614625 0.9372437
2.9437881 -2.4149878 0.93573189
2.9474018 -2.3686838 0.93422556
2.9519002 -2.3110509 0.93235087
2.9563792 -2.2536635 0.930484
2.9601502 -2.2056975 0.93585277
2.9635439 -2.1624508 0.9390496
2.9670856 -2.1170681 0.93755233
2.9715362 -2.0606291 0.94717592
2.9759257 -2.0043788 0.94529414
2.9794233 -1.9595683 0.94379514
2.982908 -1.9149191 0.94230145
2.9872453 -1.8593419 0.9404422
2.991565 -1.8039973 0.93859082
2.9950058 -1.7599066 0.93711579
2.9984343 -1.7159736 0.93564606
3.0027025 -1.6612861 0.93381661
3.0071471 -1.6046807 0.93868572
3.0112247 -1.5526571 0.94143379
3.0095351 -1.5743127 0.9421683
3.014595 -1.5094743 0.9399693
3.0188336 -1.4557331 0.94935304
3.0221782 -1.4128799 0.94787979
3.026341 -1.3595339 0.94604594
3.0304871 -1.3064065 0.94421959
3.0337903 -1.2640785 0.94276446
3.0379026 -1.2113848 0.94095308
3.0419979 -1.158906 0.9391489
3.0460739 -1.1066709 0.93735325
3.0501342 -1.054648 0.93556488
3.0542154 -1.002911 0.94478363
3.0582399 -0.95133793 0.94298679
3.0614467 -0.9102459 0.94155526
3.0638847 -0.87956011 0.95142663
2.7692966 -4.6493869 0.9830547
2.7714396 -4.6219292 0.98218685
2.7746458 -4.580853 0.98088861
2.7789063 -4.5262661 0.97916323
2.78315 -4.4718962 0.97744483
2.7873769 -4.4177427 0.97573328
2.7915866 -4.3638039 0.97402835
2.7957799 -4.3100772 0.97233033
2.7989149 -4.2699156 0.97106081
2.8020391 -4.2298851 0.9697957
2.8062363 -4.1767459 0.98057276
2.8104165 -4.1238146 0.9913196
2.8145363 -4.071032 0.98960268
2.8186395 -4.0184565 0.98789239
2.822727 -3.9660857 0.98618877
2.8267982 -3.913919 0.98449165
2.8308542 -3.8619552 0.98280144
2.8348939 -3.8101931 0.98111755
2.8389184 -3.7586312 0.97944021
2.8429277 -3.7072694 0.97776973
2.8459253 -3.6688719 0.97652072
2.8499072 -3.6178555 0.97486126
2.8479185 -3.6433392 0.97569025
2.8528829 -3.5797281 0.97362095
2.8570611 -3.5265589 0.97918618
2.8606417 -3.4811716 0.98741019
2.8647892 -3.4283991 0.9929325
2.8686988 -3.378304 0.99125659
2.8725934 -3.3283997 0.98958707
2.8764729 -3.2786853 0.98792398
2.8832278 -3.1921329 0.98502845
2.8803382 -3.2291598 0.98626715
2.8861086 -3.1552229 0.98379368
2.8899376 -3.1061645 0.98215252
2.8937519 -3.057291 0.98051763
2.8975515 -3.0086014 0.97888869
2.9013371 -2.9600949 0.97726607
2.9051089 -2.9117703 0.97564942
2.9089088 -2.8636794 0.98589706
2.9124823 -2.8181298 0.98908377
2.9164243 -2.767982 0.99446374
2.9201396 -2.7203743 0.99282718
2.923841 -2.6729436 0.99119669
2.928448 -2.6139112 0.98916733
2.9330349 -2.5551338 0.98714668
2.9366889 -2.5083141 0.98553717
2.9403293 -2.4616671 0.98393363
2.9439564 -2.4151917 0.98233593
2.9475698 -2.3688867 0.98074418
2.952342 -2.3079889 0.98361826
2.9565883 -2.2539148 0.98836672
2.9599946 -2.210501 0.99147367
2.9637525 -2.1627002 0.99672174
2.9672937 -2.1173165 0.99511969
2.9717021 -2.0608268 0.99312562
2.9760919 -2.0045757 0.99113989
2.979589 -1.9597644 0.9895581
2.9830732 -1.9151144 0.98798198
2.9874105 -1.8595363 0.98602003
2.9917293 -1.8041909 0.98406631
2.9951701 -1.7600994 0.98250997
2.9987943 -1.7140019 0.98767555
3.0029073 -1.6615248 0.99033165
3.007004 -1.6092556 0.99297088
3.0114291 -1.552894 0.99769801
3.0097396 -1.5745497 0.99848247
3.0147986 -1.50971 0.99613369
3.0189962 -1.4559211 0.99418533
3.0223405 -1.4130672 0.99263299
3.0265031 -1.3597199 0.9907006
3.0306487 -1.3065917 0.98877615
3.033952 -1.2642632 0.98724276
3.038064 -1.2115686 0.98533392
3.0421996 -1.1591346 0.99450403
3.0462754 -1.1068987 0.99258769
3.0503349 -1.0548745 0.9906792
3.054415 -1.0031364 0.99977857
3.0584397 -0.9515624 0.99786264
3.0616462 -0.91046965 0.99633616
3.064044 -0.87973869 0.99519461
2.7694783 -4.6496301 1.0337865
2.7716212 -4.6221724 1.0328681
2.7748272 -4.5810947 1.0314939
2.7790873 -4.5265074 1.0296676
2.7833304 -4.4721365 1.0278487
2.7875569 -4.4179816 1.0260371
2.7917666 -4.3640413 1.0242327
2.7959599 -4.3103147 1.0224353
2.7990942 -4.2701521 1.0210917
2.8022187 -4.2301211 1.0197525
2.8064148 -4.1769805 1.0304316
2.810595 -4.1240482 1.0410808
2.8147144 -4.0712652 1.0392663
2.8188179 -4.0186882 1.0374588
2.8229048 -3.9663167 1.0356585
2.8269758 -3.9141488 1.0338651
2.8310313 -3.8621843 1.0320787
2.8350708 -3.810421 1.0302993
2.8390954 -3.7588587 1.0285269
2.8431044 -3.7074957 1.0267615
2.8461013 -3.6690974 1.0254415
2.8500824 -3.6180801 1.0236876
2.8480935 -3.6435642 1.0245637
2.8530579 -3.5799522 1.0223768
2.8568766 -3.5318844 1.0377527
2.8610394 -3.4789081 1.0431843
2.8649633 -3.4286201 1.041409
2.8688729 -3.3785243 1.0396405
2.872767 -3.328619 1.0378789
2.8766465 -3.278904 1.036124
2.8834007 -3.1923501 1.0330684
2.8805118 -3.2293775 1.0343757
2.8862817 -3.1554394 1.0317656
2.89011 -3.10638 1.0300338
2.893924 -3.0575058 1.0283086
2.8977234 -3.0088155 1.0265898
2.9017236 -2.9579191 1.0319304
2.905323 -2.9120355 1.0350522
2.9091227 -2.8639436 1.045189
2.9128661 -2.8159783 1.0434514
2.9165947 -2.7681918 1.0417204
2.9203098 -2.7205834 1.0399959
2.924011 -2.6731517 1.0382779
2.9286175 -2.6141183 1.0361394
2.9332042 -2.5553398 1.0340102
2.9368579 -2.5085194 1.0323143
2.9404979 -2.4618716 1.0306245
2.9441247 -2.4153953 1.0289409
2.9477801 -2.3691401 1.0388936
2.9520636 -2.3143926 1.039783
2.9567976 -2.2541659 1.0462507
2.9603646 -2.2084496 1.0445524
2.9639194 -2.1628997 1.0428606
2.9674606 -2.1175153 1.0411745
2.9718685 -2.0610247 1.0390761
2.9762578 -2.0047724 1.0369865
2.9797549 -1.9599605 1.0353221
2.9832389 -1.9153099 1.0336634
2.9875755 -1.8597307 1.0315986
2.9919357 -1.8044326 1.040912
2.9953759 -1.7603405 1.0392537
2.9986491 -1.7186177 1.0422132
3.0031118 -1.6617639 1.0468478
3.0073619 -1.607301 1.0447745
3.0115921 -1.5530832 1.0427103
3.0099027 -1.5747393 1.0435349
3.014962 -1.5098984 1.0410663
3.0191591 -1.4561088 1.0390185
3.0225029 -1.4132543 1.0373871
3.0266652 -1.3599062 1.035356
3.0310006 -1.3046848 1.0399333
3.0341539 -1.2644939 1.0428419
3.0382655 -1.2117983 1.0408112
3.0424001 -1.1593633 1.0498602
3.0464759 -1.1071261 1.0478233
3.050535 -1.055101 1.0457947
3.0545752 -1.0033169 1.0437754
3.058599 -0.95174193 1.0417643
3.0618057 -0.91064847 1.040162
3.0642033 -0.87991703 1.0389634
2.76966 -4.6498737 1.0845195
2.7718027 -4.6224151 1.0835503
2.7750084 -4.581337 1.0821002
2.779268 -4.5267482 1.0801731
2.7835112 -4.4723768 1.0782536
2.7877374 -4.418221 1.0763421
2.7919466 -4.3642797 1.0744379
2.7961395 -4.3105516 1.0725414
2.7992737 -4.2703886 1.0711235
2.8023975 -4.2303572 1.0697105
2.8065939 -4.1772156 1.0802913
2.8107738 -4.1242819 1.0908428
2.8148928 -4.0714979 1.088931
2.818996 -4.0189199 1.0870264
2.8230822 -3.9665475 1.0851293
2.8271532 -3.9143791 1.0832394
2.8312082 -3.8624134 1.081357
2.8352475 -3.8106494 1.079482
2.839272 -3.7590861 1.0776144
2.8432806 -3.7077222 1.0757539
2.8462772 -3.6693232 1.074363
2.8502581 -3.618305 1.0725149
2.8482695 -3.6437893 1.073438
2.8534577 -3.5776711 1.0783519
2.857275 -3.5296121 1.09363
2.8612144 -3.4791303 1.0917546
2.8651381 -3.4288416 1.0898867
2.8690469 -3.3787446 1.0880256
2.8729413 -3.3288388 1.0861717
2.8768203 -3.2791228 1.0843247
2.8835742 -3.1925673 1.0811096
2.8806849 -3.2295954 1.0824851
2.8864546 -3.1556559 1.0797384
2.8902824 -3.1065958 1.0779159
2.8940964 -3.0577207 1.0761005
2.8981113 -3.0066316 1.0813535
2.9015522 -2.9630165 1.0892431
2.9055376 -2.9123008 1.0944563
2.9092941 -2.8641551 1.0926234
2.9130368 -2.8161888 1.0907973
2.9167652 -2.7684016 1.0889781
2.9204798 -2.7207923 1.0871655
2.9241812 -2.6733599 1.0853597
2.9287875 -2.6143255 1.0831125
2.9333735 -2.555546 1.0808744
2.937027 -2.5087249 1.0790919
2.9408736 -2.4597785 1.084228
2.9443352 -2.4156499 1.0871983
2.9479904 -2.3693941 1.0970442
2.9524875 -2.3117576 1.0947968
2.956965 -2.2543669 1.0925589
2.9605322 -2.2086499 1.0907762
2.9640861 -2.1630993 1.0889999
2.9676273 -2.1177139 1.0872301
2.9720349 -2.0612223 1.0850275
2.976424 -2.0049694 1.0828339
2.9799201 -1.9601566 1.0810864
2.9834456 -1.9155539 1.090766
2.987782 -1.8599737 1.0885729
2.9921412 -1.8046745 1.0977585
2.9955816 -1.7605813 1.0959986
2.9990094 -1.7166457 1.0942447
3.0032766 -1.6619549 1.0920616
3.0075252 -1.6074911 1.0898876
3.0117557 -1.5532725 1.0877234
3.010066 -1.574929 1.0885879
3.0151248 -1.5100873 1.0859996
3.0193217 -1.4562966 1.0838523
3.0227056 -1.413488 1.0933305
3.0268679 -1.3601389 1.0911763
3.0308638 -1.3091474 1.0935705
3.0343559 -1.2647247 1.0984418
3.0384667 -1.2120283 1.0962896
3.0425613 -1.1595461 1.094146
3.0466361 -1.1073084 1.0920128
3.0506954 -1.0552825 1.0898879
3.0547349 -1.0034971 1.0877728
3.0589435 -0.94989014 1.0921649
3.0620048 -0.91087222 1.0949448
3.0644019 -0.88014019 1.0936755
2.7698417 -4.6501169 1.1352533
2.7719846 -4.6226583 1.1342334
2.7751896 -4.5815792 1.1327072
2.779449 -4.5269899 1.1306792
2.7836916 -4.4726171 1.1286596
2.7879179 -4.4184604 1.1266479
2.7921269 -4.3645182 1.124644
2.796319 -4.3107891 1.1226482
2.7994533 -4.2706251 1.1211563
2.8025765 -4.2305927 1.1196691
2.8067727 -4.1774502 1.130152
2.8109522 -4.1245155 1.1406058
2.8150709 -4.0717306 1.1385964
2.8191736 -4.0191517 1.1365947
2.8232601 -3.9667783 1.1346008
2.8273304 -3.914609 1.1326146
2.8313856 -3.8626423 1.1306362
2.8354247 -3.8108776 1.1286657
2.8394487 -3.7593136 1.1267029
2.843457 -3.7079487 1.1247473
2.846453 -3.6695485 1.1232855
2.8504338 -3.6185298 1.1213433
2.8484454 -3.6440144 1.1223135
2.853272 -3.5830173 1.1370522
2.85745 -3.5298352 1.1422945
2.8613892 -3.4793525 1.1403261
2.8653128 -3.4290628 1.1383649
2.869221 -3.3789651 1.1364114
2.8731146 -3.3290582 1.1344652
2.8769939 -3.2793415 1.1325268
2.8837473 -3.1927843 1.1291515
2.8808584 -3.2298131 1.1305953
2.8866272 -3.1558723 1.1277119
2.8904552 -3.1068115 1.1257989
2.894485 -3.0555286 1.1309636
2.8979387 -3.0117483 1.1387843
2.9019382 -2.9608409 1.1439098
2.9057088 -2.9125133 1.1419806
2.9094653 -2.8643665 1.1400588
2.9132073 -2.8163996 1.1381439
2.9169359 -2.7686114 1.1362364
2.9206505 -2.7210014 1.134336
2.924351 -2.673568 1.1324426
2.9289567 -2.6145325 1.1300861
2.9335432 -2.555752 1.1277398
2.9372382 -2.5089815 1.1375654
2.9407127 -2.4646804 1.140443
2.9445455 -2.4159045 1.1454569
2.9481585 -2.369597 1.1435657
2.9526551 -2.3119597 1.1412116
2.9571331 -2.2545681 1.1388677
2.9606993 -2.2088501 1.1370007
2.9642529 -2.1632986 1.1351403
2.9677939 -2.1179125 1.1332866
2.9722011 -2.0614202 1.1309794
2.9766316 -2.0052154 1.1401442
2.9801278 -1.9604015 1.1382933
2.9836526 -1.9157982 1.1478701
2.9879882 -1.8602167 1.1455487
2.992306 -1.804868 1.1432369
2.9957461 -1.760774 1.1413954
2.9991739 -1.7168378 1.1395605
3.0034404 -1.6621461 1.1372763
3.0076892 -1.6076815 1.1350017
3.011919 -1.553462 1.132737
3.0102296 -1.575119 1.1336417
3.0153291 -1.510323 1.1421672
3.0195248 -1.4565313 1.1398959
3.0229087 -1.4137218 1.1492752
3.0270705 -1.3603717 1.1469978
3.0312152 -1.3072402 1.1447296
3.0345173 -1.2649095 1.1429228
3.0386283 -1.2122118 1.1406733
3.042722 -1.159729 1.1384329
3.046797 -1.1074903 1.1362027
3.0508957 -1.0555091 1.1450055
3.0549352 -1.0037229 1.142771
3.0588138 -0.95422244 1.1450225
3.0622041 -0.91109574 1.1497291
3.0646014 -0.88036323 1.1483889
2.7700233 -4.6503601 1.1859882
2.772166 -4.6229014 1.1849173
2.7753711 -4.5818214 1.1833154
2.7796304 -4.5272307 1.1811867
2.7838728 -4.4728575 1.1790665
2.7880979 -4.4186993 1.1769546
2.7923067 -4.3647561 1.1748511
2.796499 -4.3110266 1.1727561
2.7996328 -4.2708616 1.1711899
2.8027561 -4.2308283 1.1696289
2.8069518 -4.1776848 1.1800135
2.811131 -4.1247501 1.19037
2.8152494 -4.0719638 1.1882628
2.8193512 -4.0193839 1.186164
2.8234377 -3.9670095 1.1840731
2.8275077 -3.914839 1.1819909
2.8315623 -3.8628716 1.1799163
2.835602 -3.8111062 1.1778502
2.8396256 -3.759541 1.175792
2.8436327 -3.7081747 1.1737417
2.8466291 -3.6697741 1.1722089
2.8506529 -3.6188104 1.1823797
2.8486214 -3.6442399 1.1711895
2.8536716 -3.5807362 1.1930298
2.8576252 -3.5300584 1.1909599
2.8615634 -3.4795747 1.1888982
2.8654871 -3.4292841 1.1868442
2.8693955 -3.3791857 1.1847982
2.8732884 -3.3292778 1.1827598
2.8771677 -3.2795601 1.1807293
2.8839207 -3.1930017 1.1771942
2.8810318 -3.230031 1.1787065
2.8868003 -3.1560891 1.1756867
2.8908446 -3.1046109 1.1807621
2.8943112 -3.0606647 1.1885132
2.8983254 -3.0095644 1.1935502
2.9021101 -2.9610538 1.1915243
2.9058802 -2.9127254 1.1895058
2.9096363 -2.8645778 1.1874949
2.9133787 -2.8166101 1.1854917
2.9171066 -2.7688212 1.1834956
2.9208207 -2.7212102 1.1815072
2.924521 -2.6737761 1.1795263
2.9294076 -2.6113968 1.1819484
2.9337547 -2.5560098 1.1863223
2.9374495 -2.5092382 1.1960402
2.9410887 -2.4625874 1.1940489
2.9447141 -2.4161084 1.1920648
2.9483266 -2.3697999 1.1900878
2.9528232 -2.3121614 1.1876274
2.9573002 -2.2547691 1.1851774
2.9608669 -2.2090504 1.1832258
2.9644201 -2.1634979 1.1812813
2.9681623 -2.115876 1.1861528
2.9724092 -2.0616674 1.1884208
2.9768391 -2.0054615 1.1974558
2.9803345 -1.9606466 1.1955012
2.9838176 -1.9159935 1.1935539
2.9881535 -1.860411 1.1911298
2.9924707 -1.8050613 1.1887161
2.9959104 -1.7609669 1.186793
2.9993379 -1.7170298 1.1848768
3.003865 -1.6592398 1.1871959
3.0078938 -1.6079192 1.1913953
3.0121229 -1.5536987 1.1890055
3.0104337 -1.575356 1.1899601
3.0155327 -1.5105588 1.1983361
3.0197284 -1.4567659 1.1959404
3.0230715 -1.413909 1.1940317
3.0272324 -1.360558 1.1916559
3.0313768 -1.3074257 1.1892897
3.0346789 -1.265094 1.1874043
3.0390413 -1.2094109 1.1896749
3.0429235 -1.1599579 1.1937921
3.046998 -1.1077179 1.1914415
3.0510962 -1.0557356 1.2001243
3.055135 -1.0039486 1.1977699
3.0591578 -0.95237076 1.1954253
3.0623634 -0.91127479 1.1935573
3.0647607 -0.88054156 1.1921601
2.770205 -4.6506038 1.2367238
2.7723475 -4.6231441 1.2356024
2.7755523 -4.5820637 1.2339247
2.7798111 -4.5274725 1.2316951
2.7840531 -4.4730978 1.2294743
2.7882781 -4.4189386 1.2272625
2.7924869 -4.364994 1.2250592
2.7966785 -4.311264 1.2228651
2.7998123 -4.2710981 1.2212245
2.8029356 -4.2310643 1.2195894
2.8071308 -4.1779194 1.2298762
2.8113093 -4.1249838 1.240135
2.8154278 -4.0721965 1.2379301
2.8195295 -4.0196161 1.235734
2.8236153 -3.9672403 1.2335469
2.8276854 -3.9150691 1.2313678
2.8317399 -3.8631008 1.2291975
2.835779 -3.8113344 1.2270358
2.8398015 -3.7597682 1.2248822
2.8438091 -3.7084012 1.222737
2.8468046 -3.6699996 1.2211331
2.8508725 -3.6190913 1.2434176
2.848841 -3.6445212 1.2322861
2.853847 -3.5809603 1.2417897
2.8578005 -3.5302815 1.2396263
2.8617382 -3.4797969 1.2374712
2.8656614 -3.4295053 1.2353245
2.8695695 -3.379406 1.2331856
2.8734629 -3.3294973 1.2310553
2.8773415 -3.279779 1.2289327
2.8840938 -3.1932187 1.2252377
2.8812051 -3.2302489 1.2268186
2.8871908 -3.1538801 1.2307502
2.8906698 -3.109767 1.2384309
2.8946998 -3.0584724 1.2433788
2.8984978 -3.0097783 1.2412552
2.902282 -2.961267 1.2391394
2.9060516 -2.9129376 1.2370318
2.9098072 -2.8647892 1.2349321
2.9135492 -2.8168206 1.2328401
2.9172769 -2.769031 1.2307559
2.9209909 -2.7214193 1.2286795
2.9249012 -2.671648 1.233567
2.9291196 -2.6179562 1.2388432
2.9339659 -2.5562675 1.2449063
2.9376187 -2.5094435 1.242821
2.9412572 -2.4627919 1.2407433
2.9448829 -2.4163122 1.2386733
2.9484947 -2.3700027 1.2366109
2.9529908 -2.3123636 1.234044
2.9574676 -2.2549701 1.2314881
2.9610341 -2.2092507 1.2294519
2.9646285 -2.1637473 1.238959
2.9680088 -2.1206448 1.2416223
2.9726171 -2.0619147 1.2458631
2.9770048 -2.0056581 1.2433058
2.9805005 -1.9608427 1.2412686
2.9839833 -1.9161887 1.2392387
2.9883187 -1.8606055 1.236712
2.992636 -1.8052549 1.2341959
2.9960749 -1.7611595 1.2321914
2.9995434 -1.7172699 1.2415237
3.0036066 -1.6653162 1.2419608
3.0080981 -1.6081569 1.24779
3.012327 -1.5539353 1.2452751
3.0106378 -1.5755931 1.2462796
3.0156958 -1.5107477 1.2432722
3.0198913 -1.4569538 1.240777
3.0232337 -1.414096 1.2387891
3.0273948 -1.3607441 1.2363147
3.0317287 -1.3055184 1.2404332
3.0348809 -1.2653248 1.2430075
3.0387959 -1.2152655 1.2434338
3.0431247 -1.1601865 1.2491525
3.047199 -1.1079457 1.2466811
3.0512562 -1.0559169 1.24422
3.0552952 -1.0041286 1.2417701
3.0593176 -0.95255017 1.2393302
3.0625226 -0.91145372 1.2373861
3.0649595 -0.88076472 1.2468754
2.7703869 -4.6508474 1.2874607
2.7725289 -4.6233873 1.2862884
2.7757337 -4.5823059 1.2845348
2.7799919 -4.5277133 1.2822044
2.7842338 -4.4733377 1.279883
2.7884588 -4.419178 1.2775711
2.7926667 -4.3652325 1.2752683
2.7968585 -4.311501 1.2729746
2.7999916 -4.2713346 1.27126
2.8031147 -4.2313004 1.269551
2.8071206 -4.1808329 1.2848444
2.8114882 -4.1252174 1.2899007
2.8156061 -4.0724297 1.2875985
2.8197076 -4.0198479 1.2853055
2.8237934 -3.9674714 1.2830212
2.827863 -3.9152992 1.2807459
2.8319173 -3.8633299 1.2784796
2.8359556 -3.8115625 1.2762223
2.8399785 -3.7599952 1.2739733
2.8439851 -3.7086275 1.2717329
2.8470247 -3.6702816 1.2822897
2.851048 -3.6193161 1.2922488
2.8490603 -3.6448026 1.293384
2.8540225 -3.5811841 1.2905507
2.8579752 -3.5305045 1.2882935
2.861913 -3.4800191 1.2860453
2.8658357 -3.4297268 1.2838054
2.8697436 -3.3796263 1.2815742
2.8736367 -3.3297172 1.2793515
2.8775146 -3.2799973 1.2771373
2.88431 -3.1934905 1.2852936
2.8813782 -3.2304666 1.2749314
2.8870151 -3.1590557 1.2885387
2.8910594 -3.1075664 1.2933966
2.8948717 -3.0586872 1.2911744
2.8986697 -3.0099921 1.2889611
2.9024534 -2.9614801 1.2867557
2.9062231 -2.9131498 1.2845587
2.9099789 -2.8650007 1.2823699
2.9137199 -2.8170314 1.2801894
2.9174476 -2.7692409 1.2780168
2.9213722 -2.7192833 1.2828172
2.9247363 -2.6766326 1.2902827
2.9295509 -2.6152577 1.2945007
2.9341354 -2.5564735 1.2917744
2.9377878 -2.5096488 1.2896025
2.9414263 -2.4629965 1.2874386
2.9450512 -2.4165158 1.2852827
2.9486632 -2.3702059 1.2831351
2.9531589 -2.3125656 1.2804614
2.9576774 -2.2552214 1.2893773
2.9612429 -2.2095008 1.2872356
2.9648373 -2.1639967 1.2966377
2.9683774 -2.1186082 1.2944906
2.9727833 -2.0621123 1.2918181
2.9771709 -2.0058551 1.2891569
2.9806664 -1.9610388 1.2870368
2.9841487 -1.916384 1.2849245
2.9884839 -1.8607998 1.2822951
2.9928417 -1.8054969 1.291047
2.9962807 -1.7614005 1.2889407
2.9997485 -1.7175099 1.2981715
3.004014 -1.662815 1.2955337
3.0082617 -1.6083474 1.2929068
3.0124907 -1.5541247 1.2902915
3.0108013 -1.5757828 1.2913362
3.0158587 -1.5109361 1.2882086
3.0200539 -1.4571414 1.2856144
3.0235875 -1.4121718 1.2901549
3.0275974 -1.3609767 1.2921393
3.0315921 -1.3099817 1.2941096
3.0350831 -1.2655556 1.2986118
3.0391927 -1.2128552 1.2960216
3.0432854 -1.1603694 1.2934418
3.047359 -1.1081276 1.2908739
3.0514166 -1.0560981 1.2883167
3.0557029 -1.0013759 1.2903361
3.0595174 -0.95277452 1.2942122
3.062722 -0.91167748 1.2921733
3.0651586 -0.880988 1.3015916
2.7705684 -4.6510911 1.3381985
2.7727103 -4.62363 1.3369753
2.7759149 -4.5825481 1.3351461
2.7801733 -4.5279546 1.3327147
2.7844143 -4.4735775 1.3302928
2.7886391 -4.4194174 1.327881
2.7928469 -4.3654709 1.3254784
2.7970381 -4.311738 1.3230854
2.8001709 -4.2715712 1.3212966
2.8032937 -4.2315359 1.3195137
2.807533 -4.1784477 1.3420765
2.8116672 -4.1254516 1.3396676
2.8157845 -4.0726624 1.3372679
2.8198857 -4.0200796 1.3348775
2.8239708 -3.9677024 1.3324964
2.8280404 -3.9155297 1.330125
2.8320949 -3.8635592 1.3277628
2.8361325 -3.8117907 1.3254095
2.8401549 -3.7602224 1.3230653
2.8443873 -3.7063241 1.3279598
2.847244 -3.6705637 1.3434477
2.8512235 -3.6195405 1.3410811
2.8492362 -3.6450276 1.3422633
2.8541973 -3.581408 1.3393126
2.8581502 -3.5307276 1.3369619
2.862088 -3.4802413 1.33462
2.8660102 -3.4299479 1.3322873
2.8699181 -3.3798468 1.3299638
2.8738108 -3.3299365 1.3276488
2.8776884 -3.2802162 1.3253425
2.8845263 -3.1937618 1.3453506
2.8817704 -3.2282453 1.3301445
2.8874054 -3.156847 1.3436044
2.891232 -3.1077819 1.3412836
2.8950441 -3.0589023 1.3389711
2.8988419 -3.0102062 1.3366677
2.9026256 -2.9616933 1.3343726
2.906395 -2.9133623 1.3320864
2.9101498 -2.8652122 1.3298087
2.9138911 -2.8172419 1.3275396
2.9178295 -2.767097 1.3322519
2.9212058 -2.7242866 1.3396487
2.9251163 -2.6745048 1.3443258
2.9297204 -2.6154647 1.3414785
2.9343047 -2.5566797 1.3386433
2.9379566 -2.5098541 1.3363849
2.9415948 -2.463201 1.3341351
2.9452193 -2.4167197 1.3318932
2.9488316 -2.3704088 1.3296597
2.9533684 -2.3128181 1.3384846
2.9578862 -2.2554724 1.3472679
2.961452 -2.2097511 1.3450208
2.9650044 -2.1641963 1.3427817
2.9685438 -2.1188068 1.3405507
2.9729497 -2.06231 1.3377737
2.9773371 -2.0060518 1.3350086
2.9808316 -1.9612348 1.3328058
2.9845128 -1.9143801 1.3373514
2.9886904 -1.861043 1.3392748
2.9930475 -1.8057386 1.3478991
2.9964864 -1.7616415 1.345691
2.9999127 -1.7177019 1.3434906
3.004178 -1.6630062 1.3407516
3.0084255 -1.6085374 1.3380243
3.0126536 -1.554314 1.3353091
3.0109646 -1.5759726 1.3363935
3.016279 -1.5080655 1.3378028
3.020257 -1.4573762 1.3416622
3.0234489 -1.4166747 1.3440782
3.0278001 -1.3612096 1.3479651
3.0319433 -1.3080745 1.3452551
3.0352445 -1.2657402 1.3430963
3.0393541 -1.2130389 1.3404087
3.0434465 -1.1605523 1.3377317
3.0475197 -1.1083097 1.3350673
3.0515769 -1.0562793 1.3324139
3.0548096 -1.0148237 1.3302996
3.0588734 -0.96325862 1.338649
3.0628815 -0.91185641 1.3360037
3.0652778 -0.88112164 1.3344221
2.7707503 -4.6513348 1.3889372
2.772892 -4.6238728 1.3876635
2.7760956 -4.5827904 1.385758
2.780354 -4.5281954 1.3832258
2.784595 -4.4738183 1.3807036
2.7888196 -4.4196568 1.3781916
2.7930269 -4.3657093 1.3756894
2.7972176 -4.3119755 1.3731972
2.8003504 -4.2718077 1.3713341
2.803473 -4.2317715 1.3694773
2.8077123 -4.1786833 1.3919423
2.8118455 -4.1256852 1.3894352
2.8159628 -4.0728951 1.3869381
2.8200636 -4.0203118 1.3844506
2.8241489 -3.9679337 1.3819727
2.8282182 -3.9157596 1.379505
2.8322721 -3.8637886 1.3770466
2.8363094 -3.8120189 1.3745977
2.8403313 -3.7604499 1.3721582
2.8441992 -3.7117229 1.3869977
2.8474202 -3.6707892 1.3923751
2.8513994 -3.6197653 1.3899145
2.849412 -3.6452527 1.3911437
2.8543732 -3.5816321 1.3880752
2.8583255 -3.5309508 1.385631
2.8622625 -3.4804633 1.383196
2.8661852 -3.4301696 1.3807704
2.8700922 -3.3800673 1.3783541
2.8739846 -3.3301563 1.3759468
2.877862 -3.2804348 1.3735489
2.8846993 -3.1939788 1.3933975
2.8815928 -3.2334507 1.3881185
2.8875782 -3.1570635 1.3915828
2.8914046 -3.1079977 1.3891714
2.8952165 -3.0591168 1.3867688
2.8990138 -3.0104203 1.3843752
2.902797 -2.9619064 1.3819907
2.9065659 -2.9135747 1.3796149
2.910321 -2.8654237 1.3772483
2.914274 -2.8150899 1.3818722
2.9176626 -2.772119 1.3891997
2.921587 -2.7221508 1.3937888
2.9252861 -2.6747127 1.3914132
2.9298902 -2.6156721 1.3884568
2.9344742 -2.556886 1.3855131
2.9381256 -2.5100596 1.3831681
2.9417636 -2.4634056 1.3808321
2.9453883 -2.4169235 1.3785044
2.9490418 -2.3706625 1.3878169
2.9535782 -2.3130705 1.3965087
2.9580538 -2.2556736 1.3935815
2.9616191 -2.2099514 1.3912497
2.9651713 -2.1643958 1.3889264
2.9687107 -2.1190057 1.3866116
2.9731166 -2.0625081 1.3837303
2.9775028 -2.0062487 1.380861
2.9809976 -1.9614309 1.3785756
2.9842036 -1.9205056 1.3802933
2.9888551 -1.8612374 1.3848594
2.9931715 -1.8058839 1.3820109
2.9966097 -1.7617861 1.3797417
3.0000362 -1.7178459 1.3774805
3.0043011 -1.6631495 1.374666
3.008548 -1.6086801 1.3718629
3.0127761 -1.554456 1.3690724
3.0110872 -1.5761148 1.370187
3.0153034 -1.5220445 1.3674045
2.770932 -4.6515779 1.4396769
2.7730734 -4.6241159 1.4383526
2.7762775 -4.5830326 1.4363712
2.7805352 -4.5284367 1.4337381
2.784776 -4.4740582 1.4311154
2.7889998 -4.4198956 1.4285033
2.7932065 -4.3659477 1.4259013
2.7973974 -4.3122125 1.4233098
2.8005297 -4.2720442 1.4213725
2.8036525 -4.232008 1.4194416
2.8078914 -4.1789179 1.4418089
2.8120244 -4.1259193 1.439204
2.8161409 -4.0731282 1.4366093
2.8202415 -4.0205436 1.4340245
2.8243268 -3.9681644 1.4314504
2.8283961 -3.9159899 1.4288859
2.8324492 -3.8640177 1.4263314
2.8364856 -3.8122468 1.4237869
2.8405077 -3.7606769 1.421252
2.8446014 -3.7094193 1.4432267
2.8475959 -3.671015 1.4413037
2.8515749 -3.6199901 1.4387485
2.849587 -3.6454778 1.4400247
2.8545487 -3.5818563 1.4368389
2.8585005 -3.5311737 1.4343008
2.8624372 -3.4806857 1.4317727
2.8663595 -3.4303908 1.4292542
2.8702667 -3.3802879 1.4267451
2.8741586 -3.3303757 1.4242458
2.8780787 -3.2807083 1.433808
2.8848727 -3.1941962 1.441445
2.8819852 -3.2312293 1.4433337
2.8877509 -3.15728 1.4395623
2.8915772 -3.1082134 1.43706
2.8953886 -3.0593319 1.4345672
2.8991859 -3.0106342 1.4320836
2.9029686 -2.9621196 1.4296093
2.9067376 -2.9137869 1.4271445
2.9104922 -2.8656352 1.4246887
2.9139359 -2.821671 1.4263901
2.9180021 -2.7699227 1.431621
2.921715 -2.7223074 1.4291706
2.9254136 -2.6748691 1.4267293
2.9300172 -2.6158273 1.423691
2.9346013 -2.5570405 1.4206659
2.9382522 -2.5102134 1.418256
2.94189 -2.4635592 1.4158553
2.9455147 -2.4170763 1.4134631
2.7711134 -4.6518216 1.4904177
2.7732551 -4.6243591 1.4890426
2.776459 -4.5832753 1.4869852
2.7807162 -4.5286779 1.4842511
2.7849567 -4.4742985 1.4815282
2.78918 -4.4201345 1.4788158
2.7933872 -4.3661857 1.4761143
2.7975774 -4.3124499 1.4734235
2.80071 -4.2722807 1.4714121
2.8038318 -4.2322435 1.469407
2.8080702 -4.1791525 1.4916766
2.8122027 -4.126153 1.4889736
2.8163192 -4.0733614 1.4862812
2.8204195 -4.0207758 1.4835995
2.8245046 -3.9683957 1.4809285
2.8285735 -3.9162202 1.4782677
2.8326261 -3.8642468 1.4756172
2.8366628 -3.8124752 1.4729767
2.8406839 -3.7609041 1.4703466
2.8447337 -3.709589 1.4799768
2.847728 -3.6711843 1.4780004
2.8517067 -3.6201584 1.4753747
2.849719 -3.6456466 1.4766864
2.8546801 -3.5820241 1.4734122
2.8586318 -3.5313411 1.4708041
2.8625684 -3.4808521 1.4682058
2.8664906 -3.4305568 1.4656177
2.8703971 -3.3804531 1.463039
2.8742888 -3.3305404 1.4604706
2.7712498 -4.6520042 1.5284737
2.7733912 -4.6245413 1.5270606
2.7765949 -4.583457 1.5249465
2.7808518 -4.5288591 1.5221367
2.7850919 -4.4744787 1.5193381
2.7893155 -4.4203143 1.5165509
2.7935221 -4.3663645 1.5137746
2.7977121 -4.3126278 1.5110093
2.8008444 -4.2724581 1.5089421
2.8039663 -4.23242 1.5068817
2.8964636 -2.9037094 -1.3686287
2.9003975 -2.8531654 -1.3728261
2.905093 -2.7932842 -1.3693552
2.9032178 -2.8172007 -1.3707415
2.9078987 -2.7574983 -1.3672808
2.9116285 -2.7099314 -1.3645238
2.9153445 -2.6625414 -1.3617769
2.9199691 -2.6035597 -1.3583583
2.9245732 -2.5448325 -1.3549541
2.928241 -2.4980528 -1.3522427
2.9315774 -2.4553053 -1.3536516
2.9354944 -2.4049587 -1.3584902
2.939122 -2.3586934 -1.3557872
2.9436374 -2.3011084 -1.3524228
2.948133 -2.2437689 -1.3490728
2.9517145 -2.1980925 -1.3464041
2.9552827 -2.1525822 -1.3437454
2.9588377 -2.1072371 -1.3410959
2.9632635 -2.0507956 -1.3377982
3.1882274 -5.0289817 -1.3068509
3.2293069 -5.0323372 -1.3210238
3.2920859 -5.0369968 -1.3126867
3.3566873 -5.041791 -1.3039957
2.8970468 -2.8991446 -1.3113807
2.9006116 -2.8534293 -1.3135877
2.9052637 -2.7934942 -1.3220751
2.9033887 -2.8174114 -1.3234173
2.9080696 -2.7577078 -1.320067
2.9117985 -2.7101402 -1.3173977
2.915514 -2.6627493 -1.3147383
2.9201381 -2.6037667 -1.3114284
2.9247425 -2.5450385 -1.3081326
2.9284101 -2.4982581 -1.3055077
2.9322209 -2.4492931 -1.3097558
2.9356627 -2.4051623 -1.3119271
2.9392478 -2.3588452 -1.3209291
2.9437628 -2.3012598 -1.3176444
2.9482586 -2.2439196 -1.3143736
2.9518394 -2.1982424 -1.3117682
2.9554079 -2.1527317 -1.3091724
2.9589627 -2.1073861 -1.3065857
2.963388 -2.0509439 -1.3033663
2.9677532 -1.9946904 -1.3116118
2.9712634 -1.9499167 -1.3090372
2.9747202 -1.9052554 -1.3178821
2.9790745 -1.8497239 -1.3146633
2.9834099 -1.7944248 -1.311458
2.9868641 -1.7503701 -1.3089044
2.9903061 -1.7064731 -1.3063601
2.9945903 -1.65183 -1.3031927
2.9988573 -1.5974138 -1.3000386
3.0031044 -1.5432422 -1.2968987
3.0014076 -1.5648801 -1.2981529
3.0060444 -1.5054579 -1.3003188
3.0106609 -1.4463034 -1.3024808
3.0140181 -1.4034853 -1.2999792
3.0181971 -1.3501827 -1.2968652
3.0223598 -1.2970986 -1.2937635
3.025676 -1.2548051 -1.2912925
3.0298045 -1.2021542 -1.2882166
3.0347362 -1.1392548 -1.2845417
3.0330954 -1.1601806 -1.2857642
3.0363739 -1.1183655 -1.2833211
3.1876278 -5.0284781 -1.2774448
3.2422624 -5.0326262 -1.2761009
3.3125544 -5.037962 -1.274371
3.3560245 -5.0412621 -1.2732992
2.8970115 -2.9017451 -1.2687846
2.9380367 -2.9013219 -1.2613397
3.0163431 -2.9239602 -1.2697886
3.1476467 -2.9353313 -1.2707283
2.9022946 -2.8541045 -1.2549691
2.982316 -2.8888876 -1.2535634
3.0277593 -2.8761263 -1.2455828
3.0628216 -2.9115028 -1.2619216
3.1105552 -2.8987088 -1.2538424
3.159595 -2.8855648 -1.245542
3.1978545 -2.9225197 -1.2625513
3.2494743 -2.909348 -1.2541444
3.290035 -2.9476619 -1.2717472
3.3444514 -2.9344802 -1.2632351
3.4449735 -2.9610794 -1.2728562
3.6141977 -2.9757342 -1.2740673
2.9054768 -2.793757 -1.2629739
2.9036021 -2.8176746 -1.264261
3.3025661 -2.8958004 -1.2454977
3.4004653 -2.9209116 -1.2544729
3.4581463 -2.906939 -1.2454499
3.5041654 -2.9475107 -1.2639799
3.5651722 -2.9335256 -1.2548311
3.6788375 -2.9617617 -1.2647945
2.9082396 -2.7579174 -1.2728522
3.6280804 -2.9191051 -1.2453976
3.7455544 -2.9473403 -1.2552235
2.9119687 -2.7103491 -1.2702707
2.915684 -2.6629572 -1.2676988
2.9203081 -2.6039739 -1.2644978
2.9249117 -2.5452442 -1.2613103
2.9285789 -2.4984632 -1.2587717
2.9322329 -2.4518542 -1.2562422
2.9358728 -2.4054167 -1.253722
2.9394581 -2.3590989 -1.2628309
2.9436913 -2.3047678 -1.2664807
2.948426 -2.2441204 -1.2681074
2.9520068 -2.1984425 -1.2655865
2.9555745 -2.152931 -1.2630744
2.9591293 -2.1075847 -1.2605714
2.9635544 -2.0511415 -1.2574563
2.9679604 -1.9949362 -1.2543541
2.9714706 -1.9501616 -1.2518828
2.9749269 -1.9054993 -1.2608308
2.9790084 -1.8531065 -1.2644191
2.9835746 -1.794618 -1.2660217
2.9870288 -1.7505628 -1.2635496
2.9904704 -1.706665 -1.2610861
2.9947541 -1.6520209 -1.2580196
2.9990206 -1.5976038 -1.254966
3.0032675 -1.5434315 -1.2519259
3.0015712 -1.5650697 -1.2531403
3.0068312 -1.4975538 -1.2577673
3.0108232 -1.446491 -1.2576872
3.0139968 -1.4057907 -1.259855
3.0183189 -1.3503222 -1.2634028
3.0224812 -1.2972374 -1.2603749
3.0257971 -1.2549434 -1.2579626
3.0299253 -1.202292 -1.2549591
3.034857 -1.1393917 -1.2513715
3.033216 -1.1603177 -1.2525651
3.0383029 -1.095022 -1.257117
3.0421641 -1.0456345 -1.2570398
3.0460088 -0.99646318 -1.256958
3.0502212 -0.94231665 -1.2620672
3.0534408 -0.90125751 -1.2596874
3.0558484 -0.87055159 -1.2579076
3.1867287 -5.0277233 -1.2333601
3.2481143 -5.0322571 -1.2237149
3.3115857 -5.0371795 -1.2288489
3.3550308 -5.0404701 -1.2272815
2.9491253 -2.8546786 -1.2377374
2.9056475 -2.7939672 -1.2156922
2.9167418 -2.8213029 -1.2222965
2.9768972 -2.824811 -1.2218812
3.0391853 -2.828243 -1.2213514
3.0744143 -2.8630247 -1.2373891
3.122329 -2.8495693 -1.2289742
3.171556 -2.8357456 -1.2203289
3.2099953 -2.872056 -1.2370112
3.2618144 -2.8581672 -1.2282406
3.3571947 -2.881861 -1.2366011
2.9086227 -2.7557755 -1.2184324
2.92769 -2.7751658 -1.198951
2.9880853 -2.777792 -1.1980883
3.0506227 -2.7803111 -1.1970954
3.0860171 -2.8144965 -1.2128308
3.1341143 -2.8003786 -1.2040799
3.1835289 -2.7858737 -1.1950891
3.2221496 -2.821538 -1.2114437
3.2741673 -2.8069305 -1.2023083
3.3151114 -2.8438818 -1.2192194
3.369952 -2.8291831 -1.2099373
3.4134266 -2.8675122 -1.2274431
3.4713349 -2.852736 -1.2180121
3.5175719 -2.8925438 -1.2361542
3.5788209 -2.877707 -1.226573
3.6929798 -2.904228 -1.2356654
2.9121389 -2.7105577 -1.2231429
3.3276706 -2.7919059 -1.192912
3.4264033 -2.8140523 -1.2003822
3.5309944 -2.8375127 -1.2082959
3.5924861 -2.8218219 -1.198281
3.6419802 -2.8624074 -1.2166932
3.7071385 -2.8466234 -1.2065004
3.7599652 -2.8888724 -1.2256202
2.9158537 -2.6631653 -1.2206584
3.7743943 -2.8303318 -1.1959797
2.9204774 -2.6041806 -1.2175661
2.925081 -2.5454504 -1.2144874
2.9287479 -2.4986684 -1.2120349
2.9324012 -2.4520586 -1.2095915
2.9360411 -2.4056201 -1.207157
2.9396677 -2.3593521 -1.2047316
2.944376 -2.2988524 -1.2102531
2.9484389 -2.2466395 -1.2150191
2.9521739 -2.1986427 -1.2194035
2.9557416 -2.1531303 -1.2169757
2.959296 -2.1077831 -1.2145567
2.9637208 -2.0513389 -1.2115455
2.9681263 -1.9951329 -1.208547
2.9716361 -1.9503573 -1.2061583
2.9751334 -1.9057432 -1.2037785
2.9796734 -1.8474015 -1.2092029
2.9837809 -1.7948598 -1.2092253
2.9871931 -1.7507553 -1.2181937
2.9906344 -1.7068568 -1.2158114
2.9949179 -1.652212 -1.2128456
2.9991837 -1.5977939 -1.2098925
3.0034306 -1.5436206 -1.2069523
3.0017345 -1.565259 -1.2081268
3.0068133 -1.5004714 -1.2046108
3.0110269 -1.4467254 -1.2016941
3.0145264 -1.4017407 -1.2059587
3.0185211 -1.3505548 -1.2076318
3.0225008 -1.2995688 -1.2092922
3.0259583 -1.2551279 -1.2135217
3.030086 -1.2024753 -1.2106158
3.0350175 -1.1395744 -1.2071441
3.0333767 -1.1605008 -1.208299
3.0382891 -1.0978432 -1.2048408
3.0423644 -1.0458608 -1.2019718
3.0466347 -0.99114966 -1.2036589
3.0504208 -0.942541 -1.2072377
3.0536399 -0.90148115 -1.2049525
3.056047 -0.87077463 -1.2032436
3.1855304 -5.0267172 -1.1746217
3.2539546 -5.0318832 -1.1711009
3.3106172 -5.036397 -1.1833597
3.3537066 -5.0394139 -1.165969
2.9126048 -2.7067924 -1.1797434
2.9386489 -2.7289839 -1.1755825
2.9992843 -2.730726 -1.1742716
3.0620716 -2.7323303 -1.1728146
3.0976307 -2.765918 -1.1882468
3.1459098 -2.7511358 -1.1791588
3.2343163 -2.7709661 -1.1858486
3.2865338 -2.7556381 -1.1763477
3.3827238 -2.7764461 -1.1832438
3.4845386 -2.7984705 -1.1905426
2.9160237 -2.6633732 -1.1736172
2.9496188 -2.6827564 -1.1521914
3.0104945 -2.6836131 -1.1504312
3.0735319 -2.6843007 -1.1485091
3.1092565 -2.7172894 -1.1636373
3.1577182 -2.7018418 -1.1542118
3.195513 -2.7359486 -1.1698219
3.2464936 -2.7203388 -1.1602252
3.3402436 -2.7398725 -1.1665757
3.439395 -2.7605317 -1.173291
3.5444324 -2.7824171 -1.1804049
3.6558964 -2.8056417 -1.1879542
2.9206469 -2.6043875 -1.1706338
3.207509 -2.6859703 -1.1445278
3.2989118 -2.7042894 -1.1503583
3.3528285 -2.6877813 -1.1402094
3.3955095 -2.7236497 -1.15652
3.4524014 -2.7069502 -1.1461688
3.4977572 -2.7441425 -1.1630414
3.5578864 -2.7272573 -1.1524813
3.6061673 -2.7658706 -1.1699557
3.6698289 -2.7488072 -1.1591804
3.7213151 -2.7889485 -1.1772999
3.7888408 -2.7717185 -1.1663028
2.9252498 -2.5456562 -1.1676635
3.6198649 -2.7098527 -1.1415968
3.7355092 -2.7312031 -1.1480637
2.9289169 -2.4988737 -1.1652973
2.9325702 -2.4522629 -1.16294
2.9362094 -2.4058237 -1.1605912
2.939836 -2.359555 -1.1582512
2.94435 -2.301966 -1.1553384
2.9489985 -2.2423041 -1.1592597
2.9523826 -2.1988926 -1.161674
2.9557555 -2.1556308 -1.1640749
2.9594629 -2.1079817 -1.1685407
2.963887 -2.0515366 -1.1656337
2.9682925 -1.9953295 -1.162739
2.971802 -1.9505534 -1.1604332
2.9752989 -1.9059384 -1.1581355
2.9796515 -1.8504037 -1.1552753
2.9839864 -1.7951014 -1.1524274
2.9873984 -1.7509961 -1.1614977
2.9908395 -1.7070966 -1.1592166
2.9948552 -1.6555405 -1.16299
2.9993474 -1.597984 -1.1648182
3.0035942 -1.5438099 -1.1619782
3.0018976 -1.5654488 -1.1631125
3.0069761 -1.5006598 -1.1597162
3.0111895 -1.446913 -1.1568986
3.0145457 -1.4040928 -1.1546538
3.0187242 -1.3507874 -1.1518593
3.0230269 -1.2955539 -1.1556404
3.02616 -1.2553585 -1.1579696
3.0300715 -1.20532 -1.1580931
3.0351777 -1.1397572 -1.1629157
3.0335376 -1.1606836 -1.1640321
3.0384495 -1.0980253 -1.1606895
3.0425243 -1.0460421 -1.1579165
3.0465801 -0.99429905 -1.1551561
3.0506201 -0.94276536 -1.1524071
3.0538385 -0.90170443 -1.1502166
3.0562458 -0.87099755 -1.1485785
3.1846325 -5.0259633 -1.1305984
3.2457187 -5.0302486 -1.1339628
3.3126798 -5.0209665 -1.122824
2.917573 -2.6518054 -1.1379447
2.9226861 -2.6001627 -1.1263877
2.9660943 -2.6133251 -1.1170586
3.0047309 -2.6207688 -1.1193742
3.0618525 -2.6441798 -1.1289693
3.1208944 -2.6686108 -1.1390027
3.1695387 -2.6524961 -1.1292386
3.2586844 -2.6696577 -1.1345744
2.9281847 -2.5487499 -1.1149999
3.0158851 -2.5738475 -1.0956311
3.0732498 -2.5963697 -1.1047752
3.132544 -2.6198819 -1.1143422
3.1813719 -2.6030991 -1.1042395
3.2195179 -2.6359394 -1.1192068
3.2708879 -2.618922 -1.1088959
3.3113024 -2.652885 -1.1243403
3.3654261 -2.6356325 -1.1138138
3.4083083 -2.6707945 -1.129766
3.4654212 -2.6533074 -1.1190153
3.5109909 -2.6897519 -1.1355084
3.5713563 -2.6720326 -1.1245251
3.6837785 -2.6919043 -1.130372
3.8033056 -2.7130318 -1.1365886
2.9290857 -2.4990788 -1.1185589
3.1442058 -2.5711029 -1.0896567
3.23154 -2.5858555 -1.0938592
3.3237073 -2.6014242 -1.0982941
3.4211199 -2.6178794 -1.1029816
3.4784539 -2.5996037 -1.0918305
3.5242391 -2.6352983 -1.1079433
3.5848415 -2.6167431 -1.096536
3.6335788 -2.6537681 -1.113204
3.6977453 -2.6349328 -1.1015289
3.7497206 -2.6733868 -1.1187915
2.9327385 -2.4524672 -1.1162875
3.8177879 -2.6542723 -1.1068373
2.9363782 -2.4060273 -1.1140245
2.9400041 -2.3597579 -1.1117699
2.9445171 -2.3021677 -1.1089635
2.9490116 -2.2448232 -1.1061691
2.9525914 -2.1991427 -1.1039431
2.9563112 -2.1513271 -1.1085267
2.9596708 -2.1082299 -1.1110197
2.9638186 -2.054975 -1.1149576
2.9684579 -1.9955263 -1.1169304
2.9719675 -1.9507493 -1.1147071
2.9754643 -1.9061335 -1.1124917
2.9798164 -1.8505979 -1.1097343
2.9841509 -1.7952946 -1.1069883
2.9876041 -1.7512368 -1.1048007
2.9910445 -1.7073365 -1.1026208
2.9955106 -1.6499261 -1.1082389
2.9995518 -1.5982214 -1.1084744
3.0037572 -1.5439991 -1.1170032
3.0021019 -1.5656856 -1.1068438
3.0071392 -1.5008483 -1.1148208
3.0113518 -1.4471006 -1.1121025
3.014708 -1.4042797 -1.1099367
3.0188856 -1.3509731 -1.1072407
3.0230465 -1.2978855 -1.1045557
3.0263619 -1.2555892 -1.1024165
3.0307069 -1.1999131 -1.1043489
3.0353785 -1.1399852 -1.1076293
3.0337389 -1.1609123 -1.1086974
3.0386496 -1.0982527 -1.1054995
3.0426843 -1.0462229 -1.1138606
3.0467401 -0.9944793 -1.1111958
3.0507796 -0.94294477 -1.1085417
3.0539982 -0.90188348 -1.1064271
3.0564051 -0.87117589 -1.1048456
3.1497188 -4.9607391 -1.0874505
3.1966908 -4.9358988 -1.0703045
3.3667433 -4.9808512 -1.0900459
3.0410042 -4.8947434 -1.0522307
3.2446985 -4.9105105 -1.0527804
2.9264643 -2.5342991 -1.0851649
2.9825921 -2.5438027 -1.0818801
3.0613341 -2.5571041 -1.085669
2.9346845 -2.5001521 -1.0737658
2.9936042 -2.4973941 -1.0583971
3.0270505 -2.5268798 -1.0718644
3.0903256 -2.5247171 -1.0685159
3.193217 -2.5536501 -1.0792141
3.2831047 -2.5681317 -1.0831898
3.3780379 -2.583426 -1.087389
2.9385188 -2.4558613 -1.0647583
3.0382268 -2.4798653 -1.0480741
3.1194904 -2.491693 -1.0510395
3.1558797 -2.5222733 -1.0649456
3.205075 -2.5041497 -1.0541624
3.2435749 -2.5357182 -1.0684845
3.2953346 -2.5172868 -1.0574561
3.3361251 -2.5499077 -1.0722194
3.3906639 -2.5311618 -1.060935
3.4339461 -2.5649052 -1.0761671
3.4915013 -2.5458386 -1.0646145
3.5375013 -2.5807815 -1.0803462
3.6473088 -2.5976167 -1.0847772
3.7639494 -2.6154995 -1.0894834
2.9365466 -2.4062309 -1.0674572
3.1675656 -2.4733932 -1.0402091
3.2556219 -2.485528 -1.0430832
3.3485568 -2.4983349 -1.0461164
3.4467866 -2.5118713 -1.0493225
3.5507779 -2.526202 -1.0527169
3.5983396 -2.5613885 -1.0685133
3.661052 -2.541398 -1.056316
3.7117288 -2.5778923 -1.0726508
3.7781951 -2.5575411 -1.0601391
3.8322885 -2.5954394 -1.077049
2.9401722 -2.3599606 -1.0652878
3.6118536 -2.5059693 -1.0404577
3.7257268 -2.5207825 -1.0437372
3.8468075 -2.5365331 -1.0472236
2.9446855 -2.3023696 -1.0625876
2.9491789 -2.2450242 -1.0598992
2.9527588 -2.1993427 -1.0577577
2.9563253 -2.1538277 -1.0556237
2.9598789 -2.1084781 -1.0534976
2.9644921 -2.0491762 -1.0593239
2.9686656 -1.995772 -1.0596684
2.9721332 -1.9509451 -1.0689802
2.9756293 -1.9063287 -1.0668473
2.9799817 -1.8507922 -1.0641923
2.9843156 -1.7954879 -1.0615485
2.9877682 -1.7514294 -1.059442
2.991209 -1.7075284 -1.0573435
2.9954913 -1.6528803 -1.0547309
2.9997561 -1.598459 -1.0521293
3.0039608 -1.5442352 -1.0607833
3.002306 -1.5659225 -1.0505737
3.0073428 -1.5010839 -1.0587004
3.0113707 -1.4494613 -1.0606874
3.0148702 -1.4044665 -1.0652188
3.0190477 -1.3511593 -1.0626212
3.0232086 -1.2980707 -1.0600342
3.0265234 -1.2557737 -1.057973
3.0306499 -1.2031182 -1.0554073
3.0355799 -1.1402137 -1.0523419
3.0339396 -1.1611409 -1.0533618
3.0388505 -1.0984802 -1.0503082
3.0428843 -1.0464493 -1.0587894
3.0469396 -0.99470484 -1.0562439
3.0508013 -0.94520772 -1.0581948
3.0541575 -0.90206206 -1.0626367
3.0565641 -0.8713541 -1.0611122
3.0853195 -4.8700051 -1.035264
2.9808822 -4.8082137 -1.0024049
3.1305804 -4.844738 -1.0179352
3.2937768 -4.8845568 -1.0348659
3.1768172 -4.8189278 -1.0002329
3.343962 -4.8580179 -1.0165474
2.9339452 -2.4411933 -1.0341147
3.0046277 -2.4509397 -1.0348909
3.084013 -2.4618793 -1.0374819
2.9462547 -2.4076598 -1.024139
3.0156624 -2.4044397 -1.0113616
3.0494146 -2.4328041 -1.0242602
3.0953701 -2.4141951 -1.013352
3.1310091 -2.4434183 -1.0266099
3.2169449 -2.4545972 -1.0290847
3.3075778 -2.4663873 -1.0316951
3.4033039 -2.4788399 -1.0344518
2.9403403 -2.3601635 -1.0188048
2.9827254 -2.376761 -0.99877506
3.0267076 -2.3578942 -0.98780936
3.0606132 -2.3856959 -1.0004225
3.1067381 -2.3664627 -0.98919791
3.1609018 -2.4097786 -1.0088012
3.228828 -2.4049931 -1.0039808
3.2676823 -2.4352844 -1.0176548
3.3198342 -2.4154329 -1.0059059
3.3610015 -2.4467058 -1.0199848
3.4159575 -2.42646 -1.0079392
3.4596417 -2.4587781 -1.0224479
3.504564 -2.4920123 -1.0373678
3.56407 -2.471559 -1.0250556
3.6748116 -2.4851127 -1.0278208
2.9448531 -2.3025713 -1.0162113
3.1909733 -2.3754818 -0.99065906
3.2797549 -2.3849874 -0.99219924
3.3734608 -2.3950202 -0.9938249
3.4725108 -2.4056253 -0.9955433
3.5176418 -2.4381249 -1.0100902
3.5773776 -2.4168532 -0.99736243
3.6253834 -2.4504848 -1.0123692
3.6885877 -2.4287603 -0.99929184
3.7397408 -2.4636035 -1.0147883
3.7924571 -2.4995115 -1.0307585
3.8613427 -2.4775534 -1.0173606
2.9493461 -2.245225 -1.0136285
3.8067348 -2.4414101 -1.0013413
2.9529257 -2.199543 -1.0115712
2.9564922 -2.154027 -1.0095212
2.9600456 -2.1086764 -1.007479
2.964469 -2.052228 -1.0049368
2.968873 -1.9960179 -1.0024052
