# .PCD v0.7 - Point Cloud Data file format
VERSION 0.7
FIELDS x y z
SIZE 4 4 4
TYPE F F F
COUNT 1 1 1
WIDTH 1496
HEIGHT 1
VIEWPOINT 0 0 0 1 0 0 0
POINTS 1496
DATA ascii
3.0047438 1.1198298 -1.1372004
3.0008373 1.1774322 -1.1319022
2.9977379 1.2231374 -1.1276984
2.9941812 1.2769768 -1.1371026
2.9894798 1.3471321 -1.139141
2.9909956 1.3247821 -1.1412388
2.9872169 1.3804933 -1.1360099
2.9834735 1.4356892 -1.1308293
2.9796581 1.4926038 -1.1322542
2.9762306 1.5446699 -1.1430752
2.9776247 1.523029 -1.1338897
2.9733143 1.5876644 -1.1389591
2.9696949 1.6410215 -1.1338507
2.9659374 1.6968812 -1.1332496
2.9626269 1.7462926 -1.134819
2.959878 1.7878858 -1.141806
2.9563806 1.8394337 -1.1367736
2.9522233 1.900712 -1.1307913
2.9488623 1.9513123 -1.1367053
2.9456952 1.998584 -1.1382159
2.9421582 2.0511565 -1.137624
2.9388154 2.1004128 -1.1327225
2.9356964 2.146028 -1.1246303
3.0875981 -0.1156497 -1.1100119
3.0837352 -0.059870124 -1.0927097
3.2257812 -0.1049726 -1.0995101
3.0799863 -0.0045232773 -1.0882448
3.247916 -0.057626247 -1.0767071
3.4103482 -0.092278481 -1.0979598
3.0762677 0.050372839 -1.0838163
3.4343672 -0.042440414 -1.0739751
3.6148932 -0.078210235 -1.0962415
3.071661 0.11838114 -1.07833
3.0734975 0.091266155 -1.0805175
3.6410854 -0.025603533 -1.0709459
3.0698318 0.14538634 -1.0761517
3.0672653 0.18572032 -1.097935
3.0636497 0.23908061 -1.0935299
3.0600636 0.29201388 -1.08916
3.0565059 0.34452564 -1.0848249
3.0529766 0.39662057 -1.0805244
3.049475 0.44830382 -1.0762576
3.046159 0.49961996 -1.0964665
3.0427117 0.55049348 -1.0921708
3.0392911 0.60096967 -1.0879086
3.035897 0.65105313 -1.0836794
3.0325294 0.70074844 -1.0794833
3.0284348 0.76233143 -1.0862449
3.0243778 0.82335329 -1.0929655
3.0210989 0.87172425 -1.0887899
3.017036 0.93168151 -1.0836143
3.0186563 0.90777183 -1.0856782
3.014617 0.96736479 -1.0805341
3.0112989 1.0170078 -1.0832841
3.0077875 1.0699127 -1.0900359
3.0028744 1.1428758 -1.0886159
3.0044408 1.1197655 -1.0906545
3.0005362 1.1773692 -1.0855732
2.9974375 1.2230755 -1.0815417
2.9934115 1.2829423 -1.081175
2.989182 1.3470731 -1.093452
2.9906232 1.3247076 -1.0840219
2.9869201 1.380435 -1.0904464
2.9831781 1.4356322 -1.0854735
2.9794676 1.4903611 -1.080543
2.9758644 1.5446016 -1.0868943
2.977257 1.5229602 -1.0776063
2.9731488 1.584923 -1.086018
2.9694042 1.640969 -1.0892687
2.9658203 1.693819 -1.0844079
2.962266 1.74623 -1.0795877
2.9595189 1.7878242 -1.0867704
2.9562631 1.8364451 -1.08851
2.9519389 1.900665 -1.0871882
2.9485071 1.951255 -1.0824398
2.9449914 2.0038815 -1.0855986
2.9418066 2.0511019 -1.0838286
2.9385352 2.1003702 -1.0898719
2.9345622 2.1589379 -1.0842644
2.9314761 2.2040865 -1.0764071
3.0788066 0.0091874599 -1.0490837
3.09953 -0.025970459 -1.0572926
3.0756588 0.054845333 -1.037107
3.1203215 0.019785762 -1.0352402
3.2702205 -0.0099158287 -1.0537289
3.0713348 0.11829162 -1.0280079
3.0731709 0.091176033 -1.0300933
3.1412659 0.065879703 -1.013025
3.2926974 0.038162827 -1.0305734
3.4585798 0.0078008175 -1.0497966
3.0695062 0.14529777 -1.0259311
3.4829895 0.058449864 -1.0254216
3.6675019 0.027451515 -1.0454348
3.0669405 0.18563271 -1.0478673
3.6941442 0.080961108 -1.0197051
3.0633264 0.23899436 -1.0436631
3.0597417 0.29192913 -1.0394926
3.0561848 0.34444225 -1.0353553
3.0526571 0.39653838 -1.0312508
3.0491564 0.44822288 -1.0271788
3.0459673 0.49697465 -1.0404477
3.0423958 0.55041522 -1.0434777
3.0389762 0.60089272 -1.0394056
3.0355833 0.65097743 -1.035365
3.0322168 0.70067394 -1.031356
3.0278428 0.76574326 -1.0312291
3.0240679 0.82328188 -1.045301
3.0207911 0.87165391 -1.0413076
3.0167286 0.93161267 -1.0363578
3.0183482 0.90770245 -1.0383315
3.0143108 0.96729684 -1.0334116
3.0111074 1.014576 -1.0295086
3.0069978 1.0760865 -1.0331841
3.0025721 1.1428121 -1.0421553
3.0041385 1.119701 -1.0441068
3.0002344 1.1773062 -1.0392427
2.9971371 1.2230135 -1.0353832
2.9932988 1.2796547 -1.0306003
2.9888101 1.3469993 -1.036338
2.9902503 1.3246331 -1.0268024
2.9867291 1.3781493 -1.0382314
2.9828823 1.4355751 -1.0401162
2.9791727 1.4903052 -1.0353918
2.9754977 1.5445334 -1.0307107
2.9769635 1.5229051 -1.0325778
2.9724081 1.590596 -1.0315249
2.9692135 1.6387845 -1.038179
2.9655306 1.6937675 -1.0400237
2.9619777 1.7461798 -1.0354005
2.9591594 1.7877626 -1.0317329
2.9555447 1.8418906 -1.0351714
2.9517725 1.8980709 -1.0356288
2.9482236 1.9512092 -1.0390254
2.9448254 2.0013309 -1.0345101
2.9414542 2.0510473 -1.0300311
2.9381847 2.1003168 -1.0363066
2.9344413 2.1561158 -1.0373125
2.9310036 2.2072589 -1.037185
2.9279985 2.251364 -1.0310185
2.9251025 2.2932513 -1.0187433
3.0710902 0.11822462 -0.99026507
3.069262 0.14523113 -0.98826456
3.1623654 0.1123153 -0.99064499
3.3153486 0.086613894 -1.0072385
3.0666156 0.18554521 -0.99779749
3.1836224 0.159096 -0.96809894
3.338176 0.13544178 -0.98372191
3.5075982 0.10951185 -1.0008482
3.0630026 0.23890823 -0.99379432
3.3611815 0.1846509 -0.96002191
3.5324085 0.16099167 -0.97607338
3.7210152 0.13493097 -0.99375403
3.0594192 0.29184425 -0.98982316
3.7481189 0.18936694 -0.96757895
3.0558639 0.34435862 -0.98588377
3.0523372 0.39645624 -0.9819755
3.0488381 0.44814211 -0.97809821
3.0454457 0.49944079 -0.98646134
3.0420797 0.55033696 -0.99478275
3.0386615 0.60081571 -0.99090075
3.0352697 0.65090168 -0.98704886
3.0319042 0.70059943 -0.98322695
3.0277355 0.7621628 -0.97849268
3.0238762 0.82077169 -0.99066871
3.0204823 0.87158364 -0.99382335
3.0164213 0.93154383 -0.98909909
3.0180409 0.90763295 -0.99098307
3.0140042 0.96722889 -0.98628765
3.010802 1.0145092 -0.9825626
3.0068345 1.0730909 -0.977947
3.0022697 1.1427484 -0.99569321
3.0037596 1.1196207 -0.98591989
2.999933 1.1772432 -0.99291039
2.9968367 1.2229515 -0.989223
2.9929996 1.2795941 -0.98465359
2.9884386 1.3469254 -0.97922182
2.9899523 1.3245736 -0.98102498
2.9860728 1.3825167 -0.98318034
2.9827173 1.432761 -0.98647118
2.9788785 1.4902494 -0.9902389
2.9752045 1.5444788 -0.98576206
2.9766698 1.52285 -0.98754764
2.9722912 1.5874766 -0.9822126
2.9685762 1.6429698 -0.98431396
2.9651685 1.6937034 -0.98454112
2.9616892 1.7461295 -0.99121213
2.9588718 1.7877133 -0.987701
2.9553785 1.839265 -0.98334807
2.9510598 1.9034538 -0.98259252
2.9478686 1.9511521 -0.98475558
2.9447055 1.9984272 -0.98688984
2.9411728 2.0510032 -0.98699135
2.9378343 2.1002634 -0.98273909
2.9337518 2.1612711 -0.9854604
2.9306564 2.2072082 -0.9841212
2.9276326 2.2524092 -0.98621094
2.9242539 2.3026881 -0.9863131
3.0663722 0.18547952 -0.960244
3.0626795 0.23882192 -0.94392377
3.2050383 0.20622599 -0.94538456
3.0590971 0.29175943 -0.94015205
3.2266135 0.2537092 -0.92249978
3.3843668 0.23424596 -0.93613607
3.5574222 0.21289468 -0.9510951
3.0555432 0.34427512 -0.93641025
3.4077356 0.28423107 -0.91206235
3.5826426 0.26522601 -0.92591065
3.7754571 0.24427503 -0.94117671
3.0520175 0.39637417 -0.93269837
3.0485194 0.44806129 -0.9290157
3.8030341 0.29966164 -0.91454452
3.0449235 0.50190735 -0.9325062
3.0417633 0.55025882 -0.94608599
3.0383463 0.60073876 -0.94239402
3.0349557 0.65082604 -0.93873096
3.0315917 0.70052493 -0.9350962
3.0274243 0.76208985 -0.93059367
3.023176 0.82554185 -0.93309748
3.0202904 0.8690933 -0.93938804
3.016114 0.9314751 -0.94183904
3.0177329 0.90756357 -0.94363278
3.0136979 0.96716088 -0.9391619
3.0104971 1.0144423 -0.93561494
3.0065308 1.0730253 -0.93122005
3.0018921 1.1426686 -0.93761295
3.003381 1.1195403 -0.9277305
2.9995561 1.1771646 -0.93499249
2.996536 1.2228898 -0.94306117
2.9927006 1.2795335 -0.93870521
2.9881408 1.3468665 -0.93352699
2.9896543 1.3245142 -0.93524599
2.9858816 1.380231 -0.93096119
2.9819627 1.4385777 -0.93132585
2.9786875 1.4880066 -0.9384768
2.9749112 1.5444241 -0.94081187
2.9763758 1.5227948 -0.94251597
2.9719994 1.5874228 -0.9374243
2.9683852 1.6407853 -0.93322009
2.9648061 1.6936393 -0.92905605
2.9613287 1.7460669 -0.93597436
2.9586816 1.7855848 -0.93722367
2.9550922 1.8392169 -0.93950868
2.9509411 1.9005008 -0.93456495
2.9475141 1.9510945 -0.93048352
2.9440024 2.0037251 -0.93433696
2.9408207 2.0509486 -0.93318969
2.9375539 2.1002204 -0.93988353
2.9335861 2.1587927 -0.9350484
2.9303095 2.2071576 -0.93105572
2.9269526 2.2574792 -0.93482131
2.9239099 2.30264 -0.93369716
3.070091 0.28820097 -0.90600681
3.0549541 0.34855765 -0.89076787
3.1025128 0.31739604 -0.88789612
3.1229541 0.36359906 -0.86561441
3.2483518 0.30154943 -0.89944309
3.0516975 0.39629203 -0.88341916
3.2702537 0.34975076 -0.87621224
3.431288 0.33461118 -0.88779825
3.608072 0.31799084 -0.90051746
3.0482008 0.4479804 -0.87993121
3.4550281 0.38539088 -0.86334187
3.6337128 0.37119502 -0.87491304
3.0447316 0.49926198 -0.87647063
3.0415714 0.54763484 -0.8902508
3.0380316 0.60066181 -0.89388549
3.0346422 0.65075022 -0.89041108
3.0312791 0.70045048 -0.88696361
3.027113 0.76201683 -0.88269299
3.0229845 0.82303166 -0.87846059
3.019594 0.87382793 -0.88205421
3.0158069 0.9314062 -0.89457709
3.0174253 0.90749419 -0.89628077
3.0133913 0.96709299 -0.89203441
3.0101917 1.0143754 -0.88866538
3.0062265 1.0729599 -0.88449132
3.0015144 1.1425889 -0.87953025
3.0030782 1.119476 -0.88117695
2.9991794 1.1770859 -0.87707227
2.9961605 1.2228123 -0.88535649
2.9924014 1.2794729 -0.89275497
2.9878433 1.3468074 -0.8878305
2.9893563 1.3244545 -0.88946527
2.985585 1.3801727 -0.88539034
2.9818478 1.4353756 -0.8813532
2.978039 1.4922971 -0.8839581
2.9745445 1.5443559 -0.88462192
2.9760091 1.5227262 -0.88622433
2.9718833 1.5842994 -0.88805664
2.9680943 1.6407329 -0.88863128
2.9645164 1.693588 -0.88466632
2.960968 1.746004 -0.88073421
2.9580555 1.7896693 -0.88405865
2.9547341 1.8391564 -0.88470757
2.9506559 1.9004539 -0.89095503
2.9472303 1.9510489 -0.88706422
2.9438365 2.0011742 -0.88320959
2.94047 2.0508945 -0.87938613
2.9372046 2.1001675 -0.88631237
2.9334197 2.156317 -0.88460201
2.9300323 2.2071173 -0.88860166
2.9267862 2.2550442 -0.88482553
2.9235656 2.3025918 -0.88107938
3.0505803 0.40920395 -0.84561974
3.1435437 0.41013718 -0.84317094
3.0476191 0.45219684 -0.83466619
3.1642828 0.4570142 -0.82056403
3.2923222 0.39831722 -0.85280544
3.0444145 0.4991824 -0.82757759
3.3145578 0.44725323 -0.82922059
3.4789567 0.43657494 -0.83869064
3.0408494 0.55260885 -0.83147252
3.5030766 0.48816824 -0.81384236
3.6595681 0.42484361 -0.84909463
3.0377164 0.60058486 -0.84537512
3.6856399 0.47894245 -0.8230595
3.0343282 0.65067452 -0.84208947
3.0309663 0.70037603 -0.8388291
3.0268021 0.76194394 -0.83479047
3.0226746 0.82296026 -0.8307879
3.0194023 0.87133765 -0.82761443
3.0154231 0.93132019 -0.83549708
3.0170405 0.9074074 -0.83708823
3.0130854 0.96702498 -0.84490514
3.0098865 1.0143086 -0.84171438
3.0059226 1.0728945 -0.83776081
3.0012119 1.1425251 -0.83306199
3.0027754 1.1194116 -0.83462173
2.9988778 1.1770228 -0.83073401
2.9957855 1.2227349 -0.82764924
2.9920275 1.279397 -0.83531481
2.9875457 1.3467484 -0.84213233
2.989058 1.3243949 -0.84368283
2.9852879 1.3801144 -0.83981782
2.9815524 1.4353185 -0.83598852
2.9778488 1.4900541 -0.83219171
2.9741788 1.5442877 -0.82842976
2.9756424 1.5226572 -0.82993013
2.9711421 1.58998 -0.8336519
2.9679031 1.6385481 -0.83749747
2.9642267 1.6935366 -0.84027499
2.9606795 1.745954 -0.8365404
2.957865 1.7875407 -0.83357733
2.9543767 1.8390963 -0.82990426
2.9503007 1.9003954 -0.83644068
2.9468765 1.9509919 -0.83278823
2.9435544 2.0011299 -0.83997786
2.9401896 2.0508509 -0.83634162
2.9368553 2.1001143 -0.83273888
2.9327321 2.1614671 -0.83281279
2.9296854 2.2070665 -0.83553189
2.9266195 2.2526116 -0.83479589
2.9232905 2.3025534 -0.83898348
3.0459306 0.51127023 -0.79076195
3.185174 0.50423354 -0.79779208
3.0407362 0.55000448 -0.78780848
3.1336167 0.54178989 -0.78461665
3.2450745 0.54348123 -0.78360361
3.3369639 0.49656278 -0.80545563
3.0403235 0.59990138 -0.79756546
3.1423807 0.57836252 -0.78497094
3.2511568 0.56866848 -0.78384727
3.3673761 0.55831671 -0.78264666
3.5273907 0.54017574 -0.78879464
3.0442603 0.64861637 -0.79622298
3.1540818 0.62719202 -0.78544402
3.2602904 0.60649157 -0.78421307
3.3768964 0.59742218 -0.78302419
3.4984536 0.57421094 -0.78162098
3.7119319 0.53349704 -0.7968052
3.0482197 0.69717431 -0.79489309
3.1658013 0.67610079 -0.78591788
3.2724853 0.65699279 -0.78470147
3.3864303 0.63658416 -0.7834022
3.5084059 0.61473733 -0.78201145
3.6392901 0.59129471 -0.78051901
3.7837343 0.58060473 -0.77905285
3.0265684 0.7618891 -0.7988624
3.0798333 0.75340438 -0.78763527
3.1775405 0.72508895 -0.78639239
3.2847004 0.70757884 -0.78519064
3.3991613 0.68887568 -0.78390706
3.5216944 0.6688534 -0.78253275
3.653187 0.64736724 -0.78105801
3.7946579 0.62425065 -0.77947134
3.0224426 0.82290661 -0.7950322
3.0939839 0.81288958 -0.78821242
3.1892986 0.77415687 -0.7868678
3.2969358 0.75824988 -0.78568071
3.4119136 0.74125803 -0.78441256
3.5350077 0.72306681 -0.78305495
3.6671097 0.70354432 -0.78159803
3.8055956 0.66795278 -0.77989042
3.0191708 0.87128496 -0.79199547
3.1024883 0.84863687 -0.78855938
3.1081638 0.87249357 -0.78879076
3.2010758 0.82330465 -0.78734392
3.3091927 0.80900604 -0.78617156
3.4246881 0.79373157 -0.78491914
3.5450072 0.76378787 -0.78344727
3.5516818 0.79096782 -0.78370911
3.6775675 0.74574268 -0.78200358
3.816551 0.71172547 -0.78031021
3.0207319 0.91878629 -0.79015243
3.1166859 0.90831625 -0.78913844
3.212872 0.87253249 -0.78782076
3.3214693 0.85984766 -0.78666312
3.437485 0.84629643 -0.78542656
3.558362 0.81817228 -0.78397113
3.6880422 0.78800666 -0.78240991
3.8311818 0.77018327 -0.7808708
3.0128553 0.9669739 -0.80955708
3.0316939 0.96518195 -0.79060322
3.1280637 0.95614266 -0.78960252
3.2246876 0.92184055 -0.78829843
3.3337669 0.91077495 -0.78715569
3.4503036 0.89895284 -0.78593469
3.5683944 0.85902798 -0.78436482
3.7020299 0.84444636 -0.78295243
3.8421724 0.8140974 -0.7812919
3.0096571 1.0142585 -0.80649978
3.0426726 1.0116488 -0.7910549
3.1394594 1.0040448 -0.79006726
3.2365224 0.97122908 -0.78877693
3.3460853 0.96178812 -0.78764898
3.4599321 0.93850243 -0.78631645
3.5817916 0.91358417 -0.78489035
3.7125368 0.88684213 -0.78335989
3.8531811 0.85808265 -0.78171378
3.0056946 1.0728453 -0.8027119
3.0536685 1.0581869 -0.79150718
3.1508734 1.0520227 -0.79053283
3.2483768 1.0206982 -0.7892561
3.3584244 1.0128871 -0.7881431
3.469574 0.97810954 -0.78669876
3.5952125 0.96823883 -0.78541678
3.7230606 0.92930394 -0.78376806
3.8678827 0.91682458 -0.78227705
3.0009849 1.1424772 -0.79820979
3.0025482 1.1193633 -0.79970419
3.0646808 1.1047965 -0.79196018
3.1623051 1.1000766 -0.79099917
3.2602503 1.0702482 -0.78973615
3.3707843 1.0640726 -0.78863811
3.4824491 1.0309958 -0.78720921
3.6052935 1.0092915 -0.7858122
3.7371137 0.98600817 -0.78431314
3.8789268 0.96095246 -0.78270018
2.9986515 1.1769756 -0.79597926
3.0757101 1.1514778 -0.79241383
3.1737549 1.1482066 -0.79146612
3.2721434 1.1198794 -0.79021692
3.3831651 1.1153445 -0.78913397
3.4953468 1.0839745 -0.78772062
3.6153898 1.0504061 -0.78620821
3.7511933 1.0428188 -0.78485918
3.8899887 1.0051519 -0.78312403
2.9993961 1.2226602 -0.7939688
3.0895221 1.2099342 -0.79298186
3.1852233 1.196413 -0.79193395
3.2840559 1.1695917 -0.79069847
3.3924642 1.1538526 -0.78950632
3.5082669 1.1370457 -0.78823286
3.6288714 1.1053084 -0.78673702
3.7617691 1.0854932 -0.78526932
3.9010656 1.0494086 -0.78354853
3.9084594 1.0789515 -0.78383172
3.0100734 1.2681469 -0.79441142
3.1033583 1.2684957 -0.79355103
3.1967094 1.244696 -0.79240245
3.2959878 1.2193854 -0.79118091
3.4017756 1.192415 -0.78987914
3.5179706 1.1769074 -0.78861755
3.5244482 1.2035127 -0.78887439
3.6423776 1.16031 -0.78726691
3.7723615 1.1282346 -0.78568017
3.9158604 1.1085231 -0.78411543
2.9873228 1.346704 -0.80785763
3.0101233 1.3172512 -0.79968494
3.1144471 1.3154292 -0.79400712
3.2082143 1.2930558 -0.79287171
3.3079391 1.2692608 -0.791664
3.4142087 1.2439041 -0.79037714
3.5309305 1.2301414 -0.7891314
3.6559081 1.2154113 -0.78779769
3.7865071 1.1853123 -0.78622878
3.9269764 1.1529381 -0.78454131
2.9850655 1.3800707 -0.80563742
3.0341578 1.3707447 -0.7954101
3.1255534 1.362435 -0.79446405
3.2197373 1.3414924 -0.7933417
3.3199105 1.3192179 -0.79214799
3.4266632 1.2954805 -0.79087585
3.5406659 1.270131 -0.78951734
3.6660717 1.2567998 -0.78819627
3.7971332 1.2281874 -0.78664082
3.9418218 1.2122545 -0.78511006
2.9813311 1.4352757 -0.80196404
3.0475709 1.4278874 -0.79596621
3.1366768 1.4095134 -0.79492152
3.2312784 1.3900061 -0.79381251
3.3319011 1.3692572 -0.7926327
3.4391387 1.3471444 -0.79137546
3.5536654 1.3235285 -0.79003274
3.67625 1.298251 -0.78859556
3.8077753 1.27113 -0.78705359
3.9529741 1.2568144 -0.78553736
2.9776282 1.4900124 -0.7983219
3.0583208 1.4736816 -0.79641193
3.1478169 1.4566646 -0.7953797
3.2428381 1.4385971 -0.79428393
3.3439114 1.4193786 -0.7931183
3.4516354 1.398896 -0.79187596
3.5666873 1.3770198 -0.7905491
3.6898422 1.3536029 -0.78912872
3.8219876 1.3284767 -0.78760481
3.964144 1.3014467 -0.78596532
2.9842811 1.5343152 -0.79782021
3.0690866 1.5195446 -0.79685825
3.1589746 1.5038886 -0.79583877
3.254416 1.4872655 -0.79475617
3.355942 1.4695827 -0.79360455
3.4641531 1.4507354 -0.79237717
3.5797327 1.4306049 -0.79106629
3.7034593 1.4090554 -0.7896629
3.8362265 1.3859311 -0.78815693
3.9753292 1.3461372 -0.78639388
2.9946961 1.5789583 -0.79825521
3.0798688 1.5654763 -0.79730529
3.1701496 1.5511857 -0.79629838
3.2660129 1.5360117 -0.7952292
3.3679922 1.5198693 -0.79409176
3.4766922 1.5026631 -0.7928794
3.5895309 1.4708527 -0.79145467
3.7136874 1.4507078 -0.79006404
3.8469224 1.42909 -0.78857177
3.986532 1.3909007 -0.78682303
2.9668667 1.651263 -0.80987036
3.0051265 1.6236668 -0.79869103
3.0879655 1.5999684 -0.79764098
3.0933688 1.6229862 -0.79786509
3.1813419 1.5985562 -0.79675871
3.2776277 1.5848355 -0.79570293
3.3800619 1.5702388 -0.79457974
3.4861102 1.5416641 -0.79325652
3.5993433 1.5111594 -0.79184377
3.7239313 1.4924235 -0.79046583
3.8576353 1.4723166 -0.78898728
4.0014939 1.4506828 -0.78739625
2.963865 1.6934726 -0.78478378
3.0129583 1.6572388 -0.7990182
3.1065173 1.6619234 -0.79145062
3.1925514 1.646 -0.79721981
3.2892611 1.6337376 -0.79617745
3.3921518 1.6206913 -0.79506844
3.4955411 1.5807204 -0.79363424
3.6124458 1.5649806 -0.79236323
3.7376101 1.548129 -0.79100251
3.8719413 1.5300431 -0.78954208
4.0127339 1.4955926 -0.78782696
2.9603918 1.7459038 -0.79234511
3.2979982 1.6704628 -0.79653376
3.4042614 1.6712272 -0.79555804
3.5081336 1.6328695 -0.79413849
3.6255717 1.6188967 -0.79288369
3.747885 1.5899714 -0.7914055
3.7547431 1.6179005 -0.79167455
3.8826883 1.5734059 -0.78995889
4.0239916 1.5405759 -0.78825825
2.9575784 1.7874916 -0.78953892
3.5255976 1.6899271 -0.78667313
3.6387205 1.6729079 -0.79340488
3.7616081 1.6458552 -0.79194385
3.8934517 1.6168373 -0.79037631
4.0390267 1.6006517 -0.78883427
2.9540911 1.8390484 -0.78605992
3.7719171 1.6878377 -0.79234821
3.9078257 1.6748372 -0.79093367
4.0503221 1.6457827 -0.78926712
2.9499454 1.9003371 -0.78192425
3.9186237 1.7184058 -0.79135257
4.061636 1.6909873 -0.78970051
2.946523 1.9509349 -0.77850997
4.0729637 1.7362514 -0.79013449
2.9432025 2.0010741 -0.78593588
2.9398386 2.0507963 -0.78253376
2.9365749 2.1000714 -0.78987831
2.9326112 2.1586478 -0.78581506
2.9293387 2.207016 -0.78245991
2.9259405 2.2576761 -0.78346819
2.9231019 2.3006155 -0.79070097
2.9635046 1.6934085 -0.72929043
3.1258762 1.6718662 -0.7332651
2.9600317 1.7458414 -0.73709893
2.9572206 1.7874302 -0.73448849
3.5442076 1.7006454 -0.7327705
2.9539733 1.8360593 -0.73769504
2.9496617 1.9002904 -0.73830926
2.9462399 1.9508892 -0.73508567
2.9428499 2.0010183 -0.73189175
2.939487 2.0507417 -0.7287237
2.9362249 2.1000183 -0.73630053
2.9317648 2.166379 -0.73626721
2.933578 2.1391594 -0.73376983
2.9290612 2.2069755 -0.74000084
2.9258187 2.2549059 -0.73685676
2.9232428 2.2929897 -0.73435855
2.9632154 1.6933573 -0.68489397
3.1375573 1.6733631 -0.67707211
2.9596727 1.7457788 -0.68185049
2.9568617 1.7873689 -0.67943585
3.5561974 1.7020971 -0.68187475
2.9532576 1.8415061 -0.68450761
2.9493062 1.9002321 -0.6837883
2.9459565 1.9508433 -0.69165963
2.9425676 2.0009735 -0.6886546
2.9392056 2.050698 -0.68567389
2.9358749 2.0999646 -0.68272066
2.9311681 2.170208 -0.68489581
2.933229 2.1391072 -0.68037426
2.928714 2.2069252 -0.68692487
2.9254732 2.2548566 -0.68400651
2.9228988 2.2929411 -0.68168765
2.9629264 1.6933062 -0.6404959
3.1469681 1.6745694 -0.63179922
2.9593849 1.7457286 -0.63764989
2.9565754 1.7873197 -0.63539195
3.5682917 1.7035615 -0.63063335
2.9530916 1.8388803 -0.63259274
2.9489503 1.9001734 -0.62926507
2.9456019 1.9507861 -0.637375
2.942214 2.0009174 -0.63460594
2.9390161 2.0486679 -0.63627046
2.935595 2.0999222 -0.63985497
2.9309793 2.1682212 -0.63601822
2.93295 2.1390655 -0.63765609
2.9283671 2.2068744 -0.63384682
2.9251277 2.254807 -0.63115424
2.9225538 2.2928929 -0.62901461
2.9625657 1.6932422 -0.58499593
3.1564367 1.6757827 -0.5862506
2.9591949 1.7435842 -0.58691669
2.9562883 1.7872703 -0.59134644
2.9528053 1.8388321 -0.58874142
3.5804701 1.705036 -0.57903844
2.9486651 1.9001267 -0.58564466
2.9452474 1.950729 -0.5830881
2.9418612 2.0008616 -0.58055538
2.938411 2.0525751 -0.58439547
2.9352448 2.099869 -0.58627081
2.9306312 2.1681697 -0.58275574
2.932601 2.1390131 -0.58425629
2.9281781 2.2049017 -0.58510852
2.9248517 2.2547674 -0.5888707
2.9222784 2.2928543 -0.58687466
3.41381 -1.8287927 -0.55603153
3.3472059 -1.7361573 -0.51541013
3.4023185 -1.7497045 -0.52229071
2.9622765 1.6931908 -0.54059434
3.086643 1.688933 -0.53891754
3.1635737 1.6766975 -0.55191529
2.9603181 1.7564282 -0.54912251
2.9607365 1.7353849 -0.53888553
3.0892003 1.7225251 -0.53823191
3.2287431 1.6967591 -0.53775471
2.960556 1.7880211 -0.54805177
3.0925961 1.7671969 -0.53731936
3.2320766 1.7435629 -0.5368014
3.3852315 1.7176092 -0.5362311
2.9609587 1.8404133 -0.5462777
3.0959811 1.8117293 -0.53640962
3.2353966 1.7902138 -0.5358507
3.3884544 1.7665889 -0.53523535
3.5572703 1.740531 -0.53455609
3.5896566 1.7061483 -0.54011935
2.9585106 1.8980818 -0.54600435
3.1001971 1.8671925 -0.53527653
3.2387013 1.8367114 -0.53490245
3.3916669 1.8154016 -0.53424287
3.5603445 1.791899 -0.53351396
3.745858 1.7387726 -0.53325403
2.945035 1.9506946 -0.55051488
2.977005 1.9373492 -0.53475308
3.1043983 1.9224544 -0.53414768
3.2428172 1.8946254 -0.53372133
3.2411728 1.87149 -0.53419316
3.3948643 1.8640466 -0.53325337
3.5634072 1.8430827 -0.53247553
3.7487385 1.7928755 -0.53215891
3.9569862 1.7654178 -0.53122795
2.9416494 2.000828 -0.54812384
2.9812469 1.9900184 -0.53367537
3.1077466 1.9665034 -0.53324777
3.2460964 1.9407709 -0.53278029
3.3988402 1.9246241 -0.53202021
3.3972523 1.9004263 -0.53251278
3.5664592 1.8940831 -0.53144073
3.7516084 1.8467743 -0.53106791
3.9589508 1.8082201 -0.53036386
2.9382918 2.0505559 -0.54575199
2.9854751 2.0425048 -0.53260148
3.111918 2.0213773 -0.53212672
3.1102517 1.9994552 -0.53257459
3.2501826 1.9982654 -0.53160769
3.4012172 1.9608386 -0.53128302
3.5694947 1.9449 -0.53040904
3.754467 1.9004698 -0.52998096
3.9609082 1.8508801 -0.52950251
2.9349649 2.0998263 -0.54340202
2.9896858 2.0947843 -0.53153175
3.1152425 2.065109 -0.53123331
3.2534387 2.0440872 -0.53067327
3.4043779 2.0089879 -0.53030294
3.5725157 1.9955349 -0.52938038
3.7573149 1.9539633 -0.52889818
3.9635103 1.9075716 -0.52835786
2.9303524 2.1681285 -0.54014432
2.9323215 2.1389713 -0.54153502
2.9938829 2.1468832 -0.53046584
3.1193848 2.1196041 -0.53011996
3.256685 2.0897608 -0.52974176
3.4075282 2.0569735 -0.5293262
3.5762777 2.0585804 -0.52809978
3.5747752 2.0333982 -0.5286113
3.7601497 2.0072551 -0.5278191
3.966749 1.9781258 -0.52693343
3.9654558 1.9499489 -0.5275023
2.927572 2.2100005 -0.54521918
2.9972284 2.1884189 -0.52961588
3.1226871 2.1630437 -0.52923256
3.2599201 2.135287 -0.52881336
3.4106672 2.1047969 -0.52835268
3.5785263 2.0962639 -0.52733427
3.7629662 2.0603456 -0.52674311
3.968684 2.0202794 -0.52608234
2.9245749 2.2547281 -0.54658592
3.0022285 2.250493 -0.52834588
2.9997313 2.2194941 -0.52898002
3.1267996 2.2171481 -0.52812731
3.2639492 2.1919806 -0.52765709
3.4145756 2.1643403 -0.52714068
3.5815153 2.1463599 -0.52631664
3.7650723 2.100039 -0.52593869
3.9706132 2.0623217 -0.52523351
2.922003 2.2928154 -0.54473335
3.0055497 2.2917237 -0.52750224
3.1308978 2.2710586 -0.52702594
3.2679629 2.2484617 -0.52650523
3.418469 2.223649 -0.52593338
3.5844939 2.1962779 -0.52530271
3.7671721 2.1396089 -0.52513677
3.972532 2.1042247 -0.52438694
3.1333492 2.3033054 -0.52636713
3.2711623 2.2934773 -0.52558708
3.4215708 2.2709098 -0.52497137
3.5874617 2.2460194 -0.52429217
3.7699623 2.1922038 -0.52407086
3.9750779 2.1599102 -0.52326131
3.273555 2.3271487 -0.52490044
3.4246631 2.3180118 -0.52401257
3.5904186 2.2955852 -0.52328539
3.7727425 2.2446027 -0.52300888
3.9776127 2.2153761 -0.52214009
3.5926304 2.3326497 -0.5225324
3.7762034 2.3098335 -0.52168691
3.7748213 2.2837801 -0.52221501
3.9801376 2.2706237 -0.52102327
3.7782719 2.3488169 -0.52089679
3.9832799 2.3393846 -0.51963329
3.9820244 2.3119235 -0.52018845
3.9845326 2.3667922 -0.51907933
3.2936435 -1.7229906 -0.50872308
3.3363636 -1.6592597 -0.48261076
3.3909724 -1.6716157 -0.48897615
3.4471753 -1.684332 -0.49552727
3.1849308 -1.6272799 -0.4650124
3.2316644 -1.6355699 -0.47040671
3.283282 -1.6472496 -0.47642344
3.4354513 -1.6060237 -0.46211201
3.2861569 -1.1611351 -0.46545118
3.34166 -1.1686689 -0.47180402
3.5452559 -1.1435248 -0.46340522
3.1835845 -1.6100885 -0.43605316
3.1801043 -1.5584601 -0.43456376
3.2218802 -1.5618488 -0.43897477
3.2730467 -1.5724319 -0.44451788
3.3256559 -1.5833138 -0.45021731
3.3797686 -1.5945064 -0.45607957
3.2629356 -1.4985224 -0.41299924
3.3150797 -1.5083016 -0.41822216
3.3687046 -1.5183586 -0.42359337
3.4238758 -1.5287057 -0.42911944
3.155309 -1.1905309 -0.42394993
3.159312 -1.1470398 -0.43724105
3.2322628 -1.1538197 -0.45928243
3.1515224 -1.0953025 -0.42147592
3.20293 -1.1015989 -0.42695045
3.2558339 -1.1080784 -0.43258423
3.3102996 -1.1147486 -0.43838435
3.3663981 -1.1216196 -0.44435841
3.4242034 -1.1286989 -0.45051417
3.4837949 -1.1359977 -0.45686013
3.391345 -1.0741714 -0.41668051
3.44978 -1.0805568 -0.42243984
3.5100281 -1.08714 -0.42837787
3.1833105 -1.6101941 -0.39340886
3.1798313 -1.5585648 -0.39206538
3.1752307 -1.4902989 -0.39028895
3.1890881 -1.5125722 -0.39675638
3.1728559 -1.4564315 -0.37533677
3.1705823 -1.4226834 -0.37449038
3.2026603 -1.4170359 -0.37723202
3.2529461 -1.4255031 -0.38186058
3.3046322 -1.4342064 -0.38661802
3.3577781 -1.4431552 -0.3915098
3.4124455 -1.45236 -0.39654166
3.4687018 -1.4618326 -0.40171972
3.1550415 -1.1906255 -0.38249141
3.1517572 -1.1418618 -0.38122264
3.1484897 -1.0933834 -0.37996113
3.1455758 -1.0506026 -0.37429166
3.1741955 -1.0504438 -0.39527828
3.2261376 -1.0561193 -0.40039766
3.279598 -1.0619611 -0.40566671
3.3346431 -1.0679756 -0.41109195
3.1460414 -1.0003222 -0.36424598
3.1970501 -1.0052255 -0.36887071
3.2495344 -1.0102707 -0.37362909
3.3035581 -1.0154637 -0.37852722
3.3591902 -1.0208114 -0.38357109
3.4165044 -1.0263206 -0.38876748
3.4755769 -1.031999 -0.39412329
3.5364909 -1.0378546 -0.39964604
3.4418781 -0.97806132 -0.36061624
3.5015976 -0.98302066 -0.36556146
3.5631869 -0.98813522 -0.37066144
3.1829457 -1.6103348 -0.33654767
3.1794677 -1.5587038 -0.33539879
3.1748688 -1.4904357 -0.33387968
3.1771629 -1.5244917 -0.33463749
3.172585 -1.4565333 -0.33312526
3.1691802 -1.4059864 -0.33200049
3.1720684 -1.3449696 -0.33121756
3.2430763 -1.3533589 -0.35109499
3.2943122 -1.3610111 -0.35539779
3.3469856 -1.3688775 -0.35982135
3.1612301 -1.2893342 -0.3154909
3.183892 -1.2756261 -0.31694037
3.1567957 -1.2234861 -0.31408781
3.1546841 -1.1907514 -0.32721135
3.1514902 -1.1419555 -0.33990079
3.1482246 -1.0934769 -0.33877638
3.1449816 -1.0453531 -0.33766013
3.1406891 -0.98165739 -0.33618268
3.1685529 -0.95536387 -0.33798316
3.2200892 -0.95964348 -0.3422507
3.2731216 -0.96404755 -0.34664214
3.3277166 -0.96858108 -0.35116294
3.383944 -0.97325051 -0.35581896
3.2433159 -0.91369474 -0.31541583
3.2969041 -0.91744673 -0.31943414
3.3520777 -0.92130983 -0.32357129
3.4089084 -0.92528927 -0.32783267
3.4674711 -0.92938983 -0.33222398
3.5278471 -0.93361723 -0.33675122
3.1825807 -1.6104749 -0.2796838
3.1791041 -1.5588425 -0.27872959
3.1745067 -1.4905723 -0.27746785
3.1768 -1.52463 -0.27809727
3.1723139 -1.4566351 -0.29091254
3.16891 -1.4060868 -0.28993067
3.1644049 -1.3391942 -0.28863132
3.161051 -1.289399 -0.28766406
3.1577227 -1.2399753 -0.28670406
3.1544158 -1.1908458 -0.28574985
3.1512239 -1.1420492 -0.29857746
3.1479595 -1.0935699 -0.29759017
3.1447172 -1.0454451 -0.29660997
3.1404259 -0.98174798 -0.29531255
3.1455581 -0.9249059 -0.29478252
3.1950009 -0.91262233 -0.29805562
3.2658467 -0.90792596 -0.27951643
3.3242154 -0.90391099 -0.27846858
3.3692498 -0.90077579 -0.28124282
3.4153507 -0.89756668 -0.28408277
3.4625554 -0.89428079 -0.28699073
3.5109029 -0.89091527 -0.28996912
3.5604372 -0.88746727 -0.29302058
3.1823061 -1.6105798 -0.23703432
3.1788306 -1.5589465 -0.23622605
3.1742353 -1.4906749 -0.23515731
3.1765282 -1.5247334 -0.23569049
3.1720428 -1.4567369 -0.24869823
3.1686397 -1.4061879 -0.24785927
3.1641359 -1.3392934 -0.24674904
3.1607831 -1.2894975 -0.24592258
3.1574552 -1.2400719 -0.24510226
3.1541481 -1.1909405 -0.24428685
3.1508675 -1.1421736 -0.24347763
3.1476054 -1.0936939 -0.24267313
3.1443648 -1.0455679 -0.24187437
3.1400752 -0.98186886 -0.24081707
3.1455209 -0.92523563 -0.24038696
3.1952896 -0.91316831 -0.24297333
3.2517128 -0.90929329 -0.24133423
3.324461 -0.904333 -0.23571967
3.3695064 -0.90120208 -0.23799458
3.4157069 -0.89814103 -0.22573239
3.4629266 -0.89486158 -0.22794235
3.5112908 -0.89150202 -0.23020588
3.5608413 -0.88806045 -0.23252493
3.1820316 -1.6106845 -0.1943832
3.1785574 -1.5590502 -0.19372092
3.1739631 -1.4907771 -0.19284526
3.1762547 -1.5248364 -0.1932821
3.1716812 -1.4568731 -0.19241035
3.1682792 -1.4063216 -0.19176196
3.1637771 -1.3394254 -0.19090389
3.1604254 -1.2896281 -0.19026515
3.157099 -1.2402011 -0.18963116
3.1537921 -1.1910673 -0.18900092
3.1505115 -1.1422983 -0.18837544
3.1472514 -1.0938176 -0.18775369
3.1440125 -1.0456907 -0.1871364
3.139724 -0.98198974 -0.18631928
3.1454844 -0.92556584 -0.18597849
3.1955781 -0.91371453 -0.18786703
3.2591639 -0.90930259 -0.1903723
3.3247068 -0.90475523 -0.19295466
3.3697631 -0.90162885 -0.19472985
3.4159744 -0.89857233 -0.18195271
3.4632053 -0.89529741 -0.18363881
3.5115817 -0.89194238 -0.18536578
3.5611448 -0.88850558 -0.18713513
3.1816654 -1.610824 -0.13751292
3.1781921 -1.5591882 -0.13704531
3.1736 -1.4909133 -0.13642699
3.1758909 -1.5249728 -0.13673542
3.1713192 -1.457008 -0.13611995
3.1679189 -1.4064561 -0.13566212
3.1634183 -1.3395578 -0.13505627
3.1600678 -1.2897586 -0.13460526
3.1567423 -1.2403299 -0.13415761
3.1534367 -1.1911949 -0.13371262
3.1501555 -1.1424235 -0.13327092
3.1468961 -1.0939406 -0.1328319
3.1436596 -1.0458134 -0.13239606
3.1393731 -0.98211062 -0.13181911
3.1454475 -0.92589581 -0.13155709
3.1958668 -0.91426075 -0.13273668
3.2594719 -0.90985715 -0.13430089
3.3250346 -0.90531838 -0.13591324
3.3701048 -0.90219796 -0.13702162
3.4162419 -0.89900362 -0.13815624
3.4634845 -0.89573324 -0.13931805
3.5118723 -0.89238298 -0.14050801
3.5614479 -0.88895094 -0.14172719
3.1812997 -1.6109642 -0.080640122
3.1778274 -1.5593261 -0.080367163
3.1732364 -1.4910494 -0.080006242
3.1755269 -1.5251101 -0.080186278
3.1709566 -1.4571429 -0.079827011
3.1675577 -1.4065894 -0.079559788
3.1630592 -1.3396896 -0.079206139
3.1597104 -1.2898892 -0.078942895
3.1563857 -1.2404593 -0.078681596
3.1530812 -1.1913224 -0.078421846
3.149801 -1.1425494 -0.078164011
3.1465409 -1.0940639 -0.077907719
3.1433067 -1.0459358 -0.077653334
3.1390224 -0.98223174 -0.077316575
3.1454108 -0.92622626 -0.077122763
3.1961553 -0.9148072 -0.0775823
3.2597797 -0.91041219 -0.078204587
3.3253624 -0.90588176 -0.078846052
3.3704467 -0.90276754 -0.079287022
3.416599 -0.89957917 -0.079738423
3.463856 -0.8963145 -0.080200642
3.5122602 -0.89297068 -0.080674067
3.5618525 -0.88954508 -0.08115913
3.181025 -1.6110686 -0.037983913
3.1775539 -1.5594302 -0.037856963
3.1729641 -1.4911515 -0.037689105
3.1752534 -1.5252126 -0.037772842
3.1706848 -1.457244 -0.037605748
3.1672864 -1.406689 -0.037481461
3.1627893 -1.3397881 -0.037316993
3.1594417 -1.2899867 -0.037194561
3.1561184 -1.2405561 -0.037073042
3.1528146 -1.1914181 -0.036952242
3.1495354 -1.1426436 -0.036832336
3.1462755 -1.0941566 -0.036713134
3.1430416 -1.0460273 -0.036594808
3.1387587 -0.9823221 -0.036438197
3.1453834 -0.92647398 -0.03628891
3.1963718 -0.91521752 -0.036201462
3.2600102 -0.91082823 -0.036116816
3.3256083 -0.90630448 -0.036029562
3.3707032 -0.90319431 -0.035969581
3.4168665 -0.90001094 -0.035908185
3.4641354 -0.89675081 -0.035845309
3.5125513 -0.89341176 -0.035780914
3.5621562 -0.88999069 -0.035714932
3.1807506 -1.6111737 0.004673887
3.1772802 -1.5595337 0.0046548136
3.1726913 -1.4912535 0.0046295971
3.1749809 -1.5253154 0.0046421774
3.1704128 -1.4573451 0.0046170689
3.1670153 -1.4067894 0.0045983978
3.1625195 -1.3398865 0.0045736916
3.1591728 -1.290084 0.0045552962
3.1558509 -1.2406524 0.004537046
3.1525481 -1.1915137 0.0045188926
3.1492693 -1.142738 0.0045008697
3.1460106 -1.0942503 0.0044829547
3.1427763 -1.0461189 0.0044651777
3.1384957 -0.98241293 0.0044416599
3.1453562 -0.92672193 0.0045530275
3.1965883 -0.91562736 0.0051944144
3.2602415 -0.91124499 0.0059865303
3.3258543 -0.90672719 0.0068030283
3.37096 -0.90362203 0.0073643364
3.4171343 -0.90044272 0.0079389401
3.4644151 -0.89718735 0.0085273124
3.5128427 -0.89385283 0.0091299564
3.5624602 -0.89043677 0.0097474046
3.1803846 -1.6113137 0.06155308
3.1769154 -1.5596718 0.061339293
3.1723282 -1.4913892 0.061056618
3.1746168 -1.525453 0.06119765
3.1700501 -1.4574801 0.060916241
3.1666539 -1.4069225 0.060706954
3.1621592 -1.3400174 0.060429987
3.1588137 -1.2902139 0.060223814
3.155493 -1.2407807 0.060019184
3.1521924 -1.191641 0.059815761
3.1489151 -1.1428641 0.059613828
3.1456573 -1.0943748 0.059413087
3.1424229 -1.0462414 0.059213798
3.1381443 -0.98253357 0.0589501
3.1453195 -0.92705238 0.059019733
3.1968777 -0.91617477 0.060409006
3.2390046 -0.91328037 0.061557632
3.3041389 -0.90880573 0.063333601
3.371388 -0.90433443 0.079618335
3.371217 -0.90404928 0.050711457
3.4174914 -0.90101874 0.06642428
3.4647875 -0.89776957 0.067713872
3.513231 -0.89444125 0.06903474
3.562865 -0.89103162 0.070388064
3.1800184 -1.6114537 0.11843485
3.1765506 -1.55981 0.11802633
3.1719649 -1.4915255 0.11748616
3.1742527 -1.5255901 0.11775564
3.1696877 -1.457615 0.11721793
3.1662927 -1.4070562 0.116818
3.1617994 -1.3401488 0.11628875
3.1584551 -1.2903436 0.11589478
3.1551356 -1.240909 0.11550374
3.1518354 -1.1917673 0.11511502
3.14856 -1.1429895 0.11472917
3.145304 -1.0944992 0.11434561
3.142071 -1.0463642 0.11396484
3.1377928 -0.98265421 0.11346087
3.1452832 -0.9273833 0.11349942
3.1971674 -0.91672218 0.1156477
3.2393062 -0.91383326 0.11742142
3.3044605 -0.90936744 0.12016389
3.3716452 -0.90476191 0.12299189
3.4178491 -0.901595 0.1249367
3.4650671 -0.89820635 0.11212111
3.5135231 -0.89488304 0.11398108
3.5631688 -0.89147794 0.11588672
3.1797442 -1.6115586 0.16109775
3.1762769 -1.559914 0.16054317
3.1716924 -1.4916271 0.15980989
3.1739795 -1.5256928 0.16017568
3.1694157 -1.4577166 0.15944575
3.1655855 -1.4015774 0.16818458
3.1614397 -1.3402802 0.17214996
3.1580961 -1.2904733 0.17156817
3.1547775 -1.2410372 0.17099072
3.151479 -1.1918944 0.1704167
3.1482043 -1.1431147 0.16984692
3.1449492 -1.0946227 0.16928048
3.1417184 -1.046487 0.16871822
3.1374409 -0.98277485 0.167974
3.1452467 -0.92771399 0.16799204
3.1974564 -0.91726959 0.17091052
3.2396085 -0.91438639 0.17330989
3.3047016 -0.90978849 0.16280262
3.3719022 -0.90518987 0.16637862
3.4181175 -0.90202773 0.16883793
3.4653473 -0.89864337 0.15654568
3.5138159 -0.89532554 0.1589452
3.5634751 -0.89192545 0.1614037
3.1794698 -1.6116637 0.20376225
3.1760035 -1.5600175 0.2030616
3.1714201 -1.4917296 0.20213519
3.1737063 -1.5257958 0.20259733
3.1691437 -1.4578174 0.20167513
3.166096 -1.4128681 0.20573625
3.1611698 -1.3403789 0.21404742
3.1578271 -1.2905706 0.21332474
3.1545091 -1.2411331 0.21260746
3.1512115 -1.1919895 0.21189445
3.1479383 -1.1432086 0.21118672
3.1446836 -1.0947155 0.21048313
3.1410365 -1.0412661 0.21882346
3.1370895 -0.98289526 0.22248951
3.1452105 -0.92804492 0.22249767
3.1976736 -0.91768038 0.21237269
3.239835 -0.91480172 0.21524166
3.3049438 -0.91021049 0.20545731
3.3721607 -0.90561879 0.20978199
3.4183872 -0.90246093 0.21275614
3.4657218 -0.8992275 0.21580166
3.5142064 -0.89591587 0.21892112
3.5638824 -0.89252222 0.22211722
3.1791039 -1.6118034 0.2606504
3.1756382 -1.5601553 0.25975493
3.1710565 -1.4918655 0.258571
3.1733422 -1.5259324 0.25916165
3.1687813 -1.4579526 0.25798303
3.1653891 -1.4073898 0.25710642
3.1609001 -1.3404773 0.2559464
3.157558 -1.2906677 0.25508285
3.1542411 -1.2412294 0.25422573
3.150944 -1.1920842 0.25337374
3.1476712 -1.1433023 0.25252801
3.1444178 -1.0948085 0.25168729
3.1415167 -1.0520135 0.25550333
3.1368258 -0.98298585 0.26337758
3.1533647 -0.93379247 0.26413977
3.2176175 -0.93125689 0.26948872
3.1978188 -0.91795504 0.24002224
3.2516153 -0.922768 0.25825208
3.3070314 -0.91711962 0.25783831
3.3671296 -0.9186424 0.26736638
3.4071057 -0.92793667 0.2853159
3.4575384 -0.92705309 0.28952831
3.4259005 -0.90736163 0.25729057
3.4767709 -0.90620744 0.26115569
3.5289791 -0.90502346 0.26512241
3.5825772 -0.90380752 0.26919475
3.0422304 1.3128287 0.27316967
2.9779391 1.3786711 0.28862455
3.0497897 1.3587813 0.27320746
3.3277431 1.3305889 0.27558389
2.9742355 1.4339062 0.2873024
3.0592327 1.4161836 0.27325466
3.3338594 1.3681726 0.27561426
2.9705637 1.4886725 0.28599152
3.0686691 1.4735473 0.27330184
3.34201 1.4182584 0.2756547
3.6701467 1.3518858 0.27847922
2.9669254 1.5429361 0.28469267
2.9683764 1.5212936 0.2852107
3.0762131 1.5194075 0.27333948
3.3501554 1.4683127 0.27569509
3.6789954 1.4069782 0.2785227
2.9640405 1.585961 0.2836628
3.0837531 1.5652413 0.27337724
3.3582954 1.5183353 0.27573547
3.6878378 1.4620328 0.27856615
2.9604604 1.6393554 0.28238475
3.0912886 1.6110488 0.27341491
3.366431 1.568327 0.27577579
3.6944654 1.5033 0.2785987
2.9569142 1.6922411 0.28111887
3.0988195 1.6568301 0.27345255
3.3745611 1.6182868 0.27581611
3.7010894 1.5445434 0.27863124
2.9526982 1.7551267 0.27961361
2.954098 1.7342478 0.2801134
3.1063464 1.7025849 0.27349013
3.3826859 1.6682158 0.27585644
3.7099164 1.599503 0.2786746
2.950608 1.7862968 0.27886751
3.1157486 1.7597399 0.27353716
3.390806 1.7181132 0.27589673
3.7187374 1.6544248 0.27871796
2.9471493 1.8378801 0.2776328
3.1251447 1.8168571 0.27358413
3.3989213 1.7679795 0.27593702
3.7275519 1.7093086 0.2787613
2.9430377 1.8992007 0.27616507
3.1326561 1.86252 0.27362165
3.4070306 1.8178145 0.27597722
3.7341592 1.750448 0.27879372
2.9389677 1.9599017 0.27471209
2.9403193 1.9397466 0.27519453
3.1401634 1.9081566 0.27365917
3.4151351 1.8676184 0.27601743
3.7407632 1.7915636 0.27882618
2.9362807 1.9999777 0.27375281
3.1476665 1.9537671 0.27369666
3.4232349 1.9173909 0.2760576
3.7495627 1.8463533 0.27886945
2.932945 2.0497253 0.27256206
3.1551657 1.9993517 0.27373415
3.4313295 1.9671324 0.27609774
3.7583561 1.9011049 0.27891263
2.9339581 2.1002443 0.27182052
3.1664054 2.0676794 0.2737903
3.1607869 2.0335236 0.27376223
3.4394188 2.0168428 0.27613783
3.7671461 1.9558194 0.278956
2.9424307 2.1526847 0.27183962
3.1738937 2.1131983 0.27382776
3.4475033 2.0665221 0.27617797
3.7737405 1.9968328 0.27898902
2.9216809 2.2156277 0.28981924
2.9493995 2.1946645 0.2718747
3.1813774 2.1586914 0.27386519
3.4555867 2.1161714 0.27621835
3.7803319 2.0378232 0.27902204
2.919112 2.2539473 0.28882977
2.9581051 2.2471063 0.27191845
3.1888566 2.2041583 0.27390257
3.46367 2.165791 0.27625918
3.7891157 2.0924459 0.279066
2.9152894 2.3109722 0.28735736
2.9668052 2.2995162 0.27196223
3.196337 2.2496009 0.27394041
3.4717484 2.2153797 0.27630004
3.7978928 2.1470313 0.27910998
2.912761 2.3486891 0.28638342
2.9737637 2.3414195 0.27199745
3.2038157 2.2950184 0.27397847
3.4798219 2.2649381 0.27634084
3.8066642 2.2015796 0.27915388
3.2131574 2.3517528 0.27402604
3.4878902 2.3144655 0.27638161
3.8132396 2.2424674 0.27918682
3.4959536 2.3639627 0.27642241
3.8198104 2.2833323 0.27921975
3.828567 2.3377876 0.27926359
3.8373177 2.3922062 0.27930748
3.1787374 -1.6119431 0.31754106
3.1752732 -1.5602936 0.3164508
3.1706932 -1.4920017 0.31500933
3.1729782 -1.5260698 0.31572843
3.1684186 -1.4580878 0.31429347
3.1650276 -1.407523 0.31322622
3.1605396 -1.3406085 0.31181374
3.1571991 -1.2907976 0.31076235
3.1538835 -1.2413577 0.30971879
3.1505876 -1.1922113 0.30868146
3.1473157 -1.1434275 0.30765176
3.1441522 -1.0949014 0.29289258
3.1439745 -1.0949632 0.32036358
3.140835 -1.0467926 0.30561197
3.1376562 -0.98383224 0.30438685
3.156378 -0.9512223 0.29199049
3.1920736 -0.96031749 0.30918148
3.2371392 -0.95987713 0.31345648
3.2833202 -0.95942628 0.31783718
3.3216078 -0.96896875 0.33596569
3.3397079 -0.94895828 0.30868965
3.388453 -0.94835651 0.31312972
3.438453 -0.94773901 0.31768408
3.4897563 -0.94710529 0.32235724
3.5424163 -0.94645512 0.32715389
3.5092916 -0.92614615 0.29385102
3.5624177 -0.92521536 0.29828843
2.9830339 1.3004411 0.31345123
2.9800291 1.3452566 0.31229398
2.9815285 1.3228903 0.31287155
2.9777172 1.3786273 0.32283559
2.9740143 1.4338634 0.32135722
2.9703431 1.4886307 0.31989136
2.9667056 1.5428952 0.31843901
2.9681561 1.5212523 0.31901824
2.9638216 1.5859207 0.31728742
2.9602418 1.6393161 0.31585833
2.9566967 1.6922026 0.31444281
2.9524813 1.755089 0.31275967
2.9538808 1.73421 0.31331852
2.9503918 1.7862598 0.31192541
2.9469342 1.8378441 0.31054479
2.9428239 1.8991655 0.30890355
2.9387548 1.9598674 0.30727887
2.9401059 1.939712 0.30781832
2.9359975 1.999933 0.31702435
2.932663 2.0496817 0.31564587
2.9293597 2.0989723 0.31428018
2.9254298 2.1576018 0.31265575
2.9267347 2.1381333 0.31319511
2.9229794 2.1939027 0.31430352
2.9189043 2.2539177 0.32056531
2.9150829 2.3109434 0.31893152
2.9125552 2.3486609 0.31785095
3.1784627 -1.6120478 0.36021066
3.1749997 -1.5603973 0.35897431
3.17033 -1.492138 0.37145016
3.1726141 -1.5262073 0.37229782
3.1680565 -1.4582227 0.37060642
3.1646664 -1.4076568 0.36934844
3.1601799 -1.3407401 0.36768356
3.1568406 -1.2909275 0.36644429
3.1535258 -1.241486 0.36521426
3.1502309 -1.1923379 0.36399156
3.1469603 -1.1435531 0.36277783
3.1437092 -1.0950562 0.36157131
3.1404817 -1.0469152 0.36037362
3.143713 -1.0035673 0.3599979
3.1907585 -0.99545562 0.360403
3.2481732 -0.99866092 0.3713547
3.3036413 -0.98883164 0.36304
3.3607533 -0.97867978 0.35443345
3.4101143 -0.97845376 0.35949022
3.4511373 -0.98854077 0.37871253
3.5028803 -0.98843849 0.38421068
3.4703722 -0.96790302 0.35064355
3.5225711 -0.9675287 0.35579374
3.5559983 -0.98833382 0.38985491
2.9600241 1.6392769 0.34933269
2.95648 1.6921642 0.34776759
2.9522655 1.7550516 0.34590662
2.9536645 1.7341722 0.34652445
2.9501767 1.7862228 0.34498411
2.9467196 1.837808 0.34345755
2.94261 1.8991303 0.34164283
2.9385419 1.9598333 0.3398464
2.9398928 1.9396777 0.3404429
2.9212644 2.2155674 0.35350779
2.9183424 2.258657 0.35743171
2.9642613 2.2690995 0.37967378
2.9148076 2.310905 0.36103162
3.0277681 2.2699647 0.38879055
2.912281 2.3486233 0.35980883
3.1957221 2.2818446 0.38945198
3.1781881 -1.6121529 0.40288186
3.1747258 -1.5605007 0.40149939
3.1700573 -1.4922398 0.41378236
3.1723409 -1.5263096 0.41472635
3.1677842 -1.4583241 0.41284266
3.1643951 -1.4077567 0.41144162
3.1594779 -1.3353089 0.41873544
3.1564815 -1.2910575 0.42212871
3.1531682 -1.2416142 0.42071217
3.1498742 -1.1924647 0.4193041
3.1466048 -1.1436783 0.41790631
3.1433544 -1.0951797 0.41651684
3.1405149 -1.0523607 0.41073161
3.1688557 -1.0368339 0.41849929
3.2049382 -1.046924 0.43718746
3.222132 -1.0277308 0.41100723
3.2769556 -1.0183333 0.40325361
3.3242786 -1.0186092 0.40882164
3.3728037 -1.0188922 0.4145312
3.4131067 -1.0293442 0.43420851
3.432049 -1.0090204 0.40656674
3.4833424 -1.0091859 0.41240725
3.5359936 -1.0093564 0.41840237
3.1434884 0.8405267 0.43935505
3.1440825 0.87782127 0.4385556
3.3399413 0.85494167 0.44099805
3.3442583 0.90712321 0.44042081
3.5608728 0.87117141 0.4428454
3.5606494 0.91303635 0.44193915
3.8106217 0.91929817 0.44429064
2.9718754 1.4557229 0.42275158
2.9696798 1.4885049 0.42159599
3.1367705 1.4665525 0.42353541
2.9687929 1.5321369 0.42036611
3.137043 1.5013034 0.42275015
3.325953 1.4789762 0.42514819
2.9697287 1.5865206 0.41914222
3.1374052 1.5474403 0.42170754
3.325856 1.5157381 0.4243136
3.5387416 1.4929504 0.42696223
2.9650505 1.6398849 0.42826363
3.1378541 1.6047679 0.42041209
3.3256946 1.5766981 0.42292961
3.3257592 1.552367 0.42348206
3.5381775 1.53197 0.4260717
2.9621 1.6886835 0.42876565
3.1383014 1.6617551 0.41912431
3.3255987 1.6130629 0.42210403
3.5374293 1.5837466 0.42489013
2.9516885 1.7549517 0.43430251
2.9675119 1.736335 0.42058483
3.1386561 1.7070746 0.41810015
3.3254709 1.6613317 0.42100823
3.5366852 1.6352257 0.42371529
2.9496012 1.7861242 0.4331449
2.9732351 1.7902637 0.41455722
3.13901 1.7521648 0.41708121
3.3253129 1.7212892 0.41964698
3.5361297 1.6736507 0.42283836
2.9461465 1.8377118 0.43122917
2.9739633 1.8325661 0.41360524
3.1394494 1.8081956 0.41581506
3.325155 1.7808721 0.41829428
2.9584541 1.8920934 0.42068681
3.1398859 1.8638973 0.41455629
3.3249986 1.8400521 0.41695073
3.3250608 1.8164308 0.41748703
2.9379749 1.9597421 0.42669749
2.9636204 1.9381578 0.41664538
3.1402335 1.9081978 0.41355515
3.3249052 1.8753583 0.41614917
2.9352911 1.9998211 0.42520916
2.9766624 1.9894074 0.4100756
3.140579 1.9522762 0.41255912
3.3247809 1.9222246 0.41508517
2.9319596 2.049572 0.4233616
2.9775517 2.0410848 0.40891272
3.1410081 2.0070539 0.41132125
3.3246577 1.9688427 0.4140268
2.928659 2.0988655 0.42153108
2.9784358 2.0924382 0.40775704
3.1414351 2.0615132 0.41009057
3.3245049 2.0267563 0.41271198
2.9247327 2.1574979 0.41935372
2.9260364 2.1380284 0.42007676
2.9793146 2.1435106 0.40660769
3.1417747 2.1048284 0.40911174
3.3243525 2.0843139 0.41140527
2.9220707 2.1962047 0.42854977
2.9801881 2.1942647 0.40546548
3.1421974 2.1586597 0.40789527
3.3242335 2.1300786 0.41036656
2.9203773 2.2569723 0.41866231
2.9810581 2.2447424 0.40432972
3.1427057 2.2228518 0.40644544
3.1425357 2.2015128 0.40692726
3.3241191 2.1756043 0.40933377
2.9144633 2.3108568 0.41365883
3.0941525 2.2708688 0.39832041
3.1429601 2.2547557 0.40572512
3.323977 2.2321653 0.40805072
2.9119372 2.3485761 0.41225812
3.2699847 2.2830863 0.39955065
3.3238642 2.2771792 0.40702963
3.1778219 -1.6122924 0.4597789
3.174361 -1.5606393 0.45820165
3.169785 -1.4923419 0.45611617
3.1720681 -1.5264133 0.45715654
3.1675122 -1.4584254 0.45508051
3.164124 -1.4078568 0.45353639
3.159982 -1.3464993 0.45631346
3.1562128 -1.291155 0.46389359
3.1529002 -1.2417105 0.46233717
3.1496072 -1.1925598 0.46079001
3.1459167 -1.1383885 0.46826255
3.1430001 -1.0953037 0.47146481
3.141036 -1.0531751 0.47477806
3.1878688 -1.0659791 0.4631792
3.238904 -1.0500103 0.4603692
3.2972605 -1.0481864 0.44910887
3.1385071 -1.000748 0.48232424
3.2525315 -1.002257 0.47057295
3.3451722 -1.0488418 0.45529556
3.39431 -1.0495149 0.4616406
3.4447205 -1.0502046 0.46815002
3.4668598 -1.0317398 0.45570844
3.3036647 -0.9895829 0.47726226
3.3469017 -0.98642361 0.48308748
3.3911219 -0.9831928 0.48904508
3.4812686 -0.99183285 0.47163552
3.5161467 -1.0302156 0.44672674
3.5317333 -0.97391689 0.47776198
3.123441 -0.4188627 0.46635073
3.0945351 -0.37575436 0.48730993
3.1241133 -0.37661874 0.46544522
3.3324671 -0.40743566 0.46818322
3.1077175 -0.32616973 0.47490501
3.3327322 -0.36273503 0.4672206
3.0868015 -0.26028061 0.48323959
3.1256714 -0.27874148 0.4633472
3.3329952 -0.31824636 0.46626258
3.5674627 -0.3629235 0.46955967
3.0839336 -0.21745801 0.48173016
3.1265554 -0.22321761 0.46215698
3.3333449 -0.2592088 0.46499118
3.567126 -0.29989779 0.46819532
3.0810854 -0.17493105 0.48023111
3.1274343 -0.16798985 0.46097311
3.333606 -0.21513963 0.46404219
3.566875 -0.25286639 0.46717721
3.0773139 -0.11861837 0.47824603
3.1283085 -0.11305618 0.45979559
3.3338652 -0.17127812 0.46309763
3.5666254 -0.20607078 0.46616423
3.0735736 -0.062768221 0.47627741
3.1289616 -0.072038174 0.4589164
3.3342102 -0.11307073 0.46184412
3.5662932 -0.14398849 0.46482033
3.069864 -0.0073753595 0.47432482
3.1296115 -0.031201363 0.45804098
3.3346381 -0.040761113 0.46028692
3.3344674 -0.069619775 0.46090835
3.5660458 -0.097659349 0.46381748
