# .PCD v0.7 - Point Cloud Data file format
VERSION 0.7
FIELDS x y z
SIZE 4 4 4
TYPE F F F
COUNT 1 1 1
WIDTH 1484
HEIGHT 1
VIEWPOINT 0 0 0 1 0 0 0
POINTS 1484
DATA ascii
3.3340335 0.46396431 -1.2612084
3.3351779 0.51197702 -1.2612175
3.336324 0.56003708 -1.2612263
3.3374705 0.6081444 -1.2612352
3.3386183 0.65629917 -1.2612443
3.339767 0.70450121 -1.2612531
3.3409169 0.75275081 -1.2612619
3.3420687 0.80104804 -1.2612709
3.3432212 0.84939295 -1.2612801
3.3443747 0.8977856 -1.261289
3.3455291 0.9462263 -1.2612979
3.3466852 0.9947142 -1.2613071
3.3481317 1.0553948 -1.2613183
3.3495796 1.1161448 -1.2613294
3.3507395 1.1648014 -1.2613384
3.3519011 1.213506 -1.2613475
3.3530624 1.2622589 -1.2613567
3.3541613 1.3109251 -1.2493935
3.3550344 1.3475561 -1.2493958
3.9750922 -2.610353 -1.2629887
3.6284235 -2.5271871 -1.2179739
3.7933259 -2.5667472 -1.2393864
4.237371 -2.5399241 -1.21328
3.9540277 -0.2221007 -1.2369416
4.1719289 -0.23027405 -1.2371584
3.350318 -0.19950017 -1.2363633
3.4090557 -0.19206816 -1.2314404
3.4542792 -0.17403217 -1.2212842
3.4858217 -0.19466932 -1.2313731
3.5498254 -0.18681225 -1.2261337
3.5998323 -0.19341677 -1.2286282
3.6511967 -0.20037144 -1.2312788
3.7038188 -0.18117896 -1.2203883
3.7589417 -0.21478325 -1.2367474
3.795671 -0.18373495 -1.2200201
3.8534222 -0.19078064 -1.2226002
3.9128602 -0.19822989 -1.2253581
3.9949715 -0.18939918 -1.219282
4.0380006 -0.2137084 -1.231058
4.1033401 -0.19254699 -1.2189157
4.1706991 -0.1705005 -1.2062787
4.2178531 -0.1957338 -1.2184567
3.3190668 -0.15631892 -1.2257119
3.3494446 -0.15217985 -1.211915
3.4081588 -0.14385729 -1.2065325
3.4533632 -0.12513529 -1.1960214
3.5009668 -0.15557258 -1.2108817
3.5488701 -0.13646764 -1.2001233
3.5988557 -0.14231434 -1.2022263
3.6501987 -0.14849061 -1.204475
3.7209105 -0.13927203 -1.1984082
3.7578974 -0.16126956 -1.2091004
3.794611 -0.12966396 -1.1920851
3.8331797 -0.15202792 -1.2029376
3.9117479 -0.14238295 -1.1965059
3.9528975 -0.16563007 -1.2077676
3.9938221 -0.13230763 -1.1897871
4.0368323 -0.15596481 -1.2012266
4.1246419 -0.14585337 -1.1943836
4.2166014 -0.13526405 -1.1872172
3.3204162 -0.097182035 -1.2139006
3.3631902 -0.11443591 -1.1921489
3.516099 -0.11600166 -1.1901455
3.32183 -0.037849694 -1.2138826
3.3229628 0.0096704876 -1.2138684
3.3240962 0.057237122 -1.213854
3.3252311 0.10485026 -1.2138397
3.3263671 0.15251014 -1.2138253
3.3275044 0.2002165 -1.213811
3.3286426 0.24796993 -1.2137966
3.3297815 0.29577017 -1.2137823
3.3309219 0.34361735 -1.213768
3.3323491 0.40349475 -1.21375
3.3337777 0.46344081 -1.2137318
3.3349223 0.51145273 -1.2137175
3.3360679 0.5595119 -1.213703
3.3372145 0.60761827 -1.2136886
3.3383622 0.65577221 -1.2136741
3.3395112 0.70397335 -1.2136596
3.3406606 0.75222224 -1.213645
3.3418114 0.80051845 -1.2136306
3.3429642 0.84886247 -1.213616
3.3441176 0.89725423 -1.2136015
3.3452718 0.94569373 -1.2135868
3.3464277 0.99418098 -1.2135724
3.3479288 1.0582726 -1.2084342
3.3492577 1.1154758 -1.2015877
3.3504169 1.164131 -1.2015671
3.351578 1.2128342 -1.2015464
3.35274 1.2615863 -1.2015262
3.3538387 1.3102516 -1.1895336
3.3547115 1.3468816 -1.1895137
3.4781425 -2.4911344 -1.1984599
4.0298276 -2.4970553 -1.1906782
3.8427651 -2.4584172 -1.1703069
3.8714931 -0.11964102 -1.1854892
4.0796418 -0.12177243 -1.1827618
3.320791 -0.073845856 -1.1784825
3.333952 -0.095306575 -1.1827971
3.4072614 -0.095658511 -1.1816303
3.4524472 -0.076250784 -1.1707653
3.4839644 -0.095933236 -1.1803614
3.5479152 -0.086135954 -1.1741198
3.5978801 -0.091225423 -1.1758318
3.6492012 -0.096623629 -1.1776786
3.7022843 -0.1020307 -1.1794974
3.7568536 -0.10777059 -1.1814611
3.7935507 -0.075608015 -1.164158
3.8321033 -0.097387932 -1.1747088
3.9106367 -0.086552039 -1.1676623
3.9517677 -0.10917573 -1.1786019
3.9926736 -0.075232737 -1.1603009
4.0356641 -0.098238491 -1.1714039
4.1234331 -0.08679615 -1.1638737
4.1694698 -0.11074527 -1.1754084
4.2153497 -0.074813187 -1.1559875
3.3216918 -0.034363084 -1.1705834
3.347698 -0.057574034 -1.1630367
3.4063647 -0.047471639 -1.1567346
3.4515321 -0.02737854 -1.1455156
3.4990969 -0.056375135 -1.1596317
3.5469601 -0.035817441 -1.148123
3.5969043 -0.04014976 -1.1494441
3.6482034 -0.044770703 -1.1508892
3.7012644 -0.049373303 -1.1522926
3.75581 -0.054286454 -1.1538292
3.8507128 -0.053591523 -1.1517241
3.9095254 -0.030737234 -1.1388266
3.9506378 -0.052737992 -1.1494446
4.0344968 -0.040529169 -1.1415901
4.0784545 -0.063396975 -1.1526039
4.168241 -0.051008523 -1.1445475
3.3227086 0.0091553414 -1.1666137
3.3614326 -0.019410834 -1.143054
3.5142162 -0.016343391 -1.1386573
3.323842 0.05672114 -1.1665761
3.3249769 0.10433342 -1.1665387
3.3261123 0.15199237 -1.1665012
3.3272495 0.19969808 -1.1664637
3.3283873 0.2474505 -1.1664262
3.3295267 0.29524994 -1.1663885
3.3306668 0.34309608 -1.1663508
3.3320935 0.40297249 -1.1663036
3.3335226 0.46291751 -1.1662567
3.3346663 0.51092833 -1.1662188
3.3358119 0.55898666 -1.166181
3.3369584 0.6070922 -1.1661431
3.3381057 0.65524524 -1.1661053
3.3392549 0.70344549 -1.1660674
3.3404047 0.75169343 -1.1660293
3.3415549 0.79998893 -1.1659914
3.3427262 0.85067064 -1.1588013
3.3437963 0.89658982 -1.1539938
3.3449507 0.94502831 -1.15395
3.3461058 0.99351454 -1.153906
3.3474636 1.051123 -1.1508677
3.3489356 1.1148063 -1.1418477
3.350095 1.1634603 -1.1417975
3.3512557 1.2121627 -1.1417474
3.3524175 1.2609133 -1.1416973
3.3535802 1.3097123 -1.141647
3.3544533 1.3463418 -1.1416093
3.6732941 -2.4234123 -1.1518512
3.2653368 -2.3907847 -1.1339363
3.5190449 -2.3915513 -1.135053
4.0861344 -2.3802574 -1.1161395
3.3780551 -2.3624296 -1.119699
3.7924912 -0.021567157 -1.1362388
3.9915254 -0.018174728 -1.1308234
4.1222258 -0.027756859 -1.1333729
3.3228011 0.020654481 -1.1311597
3.346386 0.013459067 -1.1263371
3.405468 0.00070320256 -1.1318448
3.4506173 0.021481346 -1.1202723
3.4821079 0.0027524806 -1.1293755
3.5460055 0.014487957 -1.1221329
3.5959289 0.010912185 -1.1230632
3.6472063 0.0070685283 -1.1241069
3.7002442 0.0032696959 -1.1250952
3.7547662 -0.00081707293 -1.1262051
3.8496282 0.0013157804 -1.1233573
3.9084141 0.025061466 -1.1099994
3.9495084 0.0036834069 -1.1202959
4.033329 0.017162893 -1.1117852
4.0991426 0.013112671 -1.1126683
4.1670113 0.0087097241 -1.113696
4.2140994 -0.014381099 -1.1247677
3.3237033 0.060213793 -1.1232337
3.3455133 0.060727268 -1.1019158
3.4045722 0.048866179 -1.1069615
3.4497018 0.070328832 -1.0950351
3.4972277 0.042771515 -1.1084077
3.5450513 0.064780466 -1.0961496
3.5949538 0.061960772 -1.0966893
3.646209 0.058893848 -1.0973319
3.6992247 0.055898432 -1.0979053
3.7537234 0.052637678 -1.0985886
3.7914319 0.032458555 -1.1083273
3.8485436 0.056207646 -1.0949986
3.9483793 0.060088206 -1.0911555
3.9903777 0.038866445 -1.1013546
4.0760803 0.053301141 -1.0923154
4.2128491 0.046032079 -1.0935575
3.3247223 0.10381664 -1.1192389
3.3258576 0.15147476 -1.1191783
3.3269947 0.19917956 -1.1191176
3.3281324 0.24693108 -1.1190566
3.3292713 0.29472953 -1.1189959
3.3304114 0.34257489 -1.118935
3.3318384 0.40245014 -1.1188588
3.333267 0.46239391 -1.1187825
3.3344104 0.51040423 -1.1187214
3.3355556 0.55846149 -1.1186602
3.336638 0.60643458 -1.1067132
3.3377852 0.65458661 -1.1066459
3.3389344 0.70278573 -1.1065788
3.3400838 0.75103253 -1.1065115
3.3412342 0.79932672 -1.1064442
3.3423033 0.84519732 -1.1016134
3.3434751 0.89592564 -1.0943882
3.3446295 0.94436306 -1.0943148
3.3457847 0.9928481 -1.0942414
3.3472302 1.0535244 -1.0941492
3.3486781 1.114271 -1.0940572
3.3498373 1.1629242 -1.0939835
3.3509977 1.2116256 -1.0939095
3.3521595 1.2603754 -1.0938357
3.3533223 1.3091735 -1.0937618
3.3541949 1.3458019 -1.0937063
3.265151 -2.391139 -1.0993717
3.2661879 -2.3459694 -1.0916166
3.8935776 -2.3469205 -1.0992116
3.2673926 -2.2896321 -1.064616
3.561024 -2.289346 -1.0699762
3.7193754 -2.3167613 -1.0838972
3.9073036 0.080844104 -1.0811807
4.0321617 0.074837625 -1.0819889
4.1657834 0.068409555 -1.0828542
3.3248148 0.11533747 -1.0837455
3.344641 0.10798405 -1.0775003
3.4036756 0.097017072 -1.0820843
3.4487877 0.11916408 -1.0698044
3.4962935 0.092325836 -1.0828058
3.5440977 0.1150599 -1.070173
3.5939786 0.11299584 -1.0703224
3.6452127 0.1107053 -1.070564
3.6982057 0.10851284 -1.0707226
3.752681 0.10607745 -1.0709798
3.7903724 0.0864693 -1.0804235
3.8474591 0.11108389 -1.0666478
3.9472508 0.11647678 -1.0620239
3.9892302 0.095890783 -1.0718944
4.0529447 0.12205966 -1.0571933
4.1198106 0.09026771 -1.0723994
4.1645555 0.1280912 -1.0520217
4.2115984 0.10642632 -1.0623568
3.3329387 0.15507582 -1.0667119
3.4027796 0.14515607 -1.0572131
3.4478731 0.16798708 -1.0445802
3.4953599 0.1418674 -1.0572102
3.543143 0.16532594 -1.0442032
3.5764863 0.14748301 -1.0528145
3.6442165 0.16250293 -1.0438033
3.6796265 0.14408186 -1.0526755
3.7516382 0.15950258 -1.0433784
3.7893138 0.14046486 -1.0525277
3.8660269 0.15630767 -1.0429258
3.906193 0.13661087 -1.0523701
3.9880829 0.15289839 -1.0424428
4.1186037 0.14925283 -1.0419266
3.3267395 0.19866097 -1.0717726
3.3278775 0.24641167 -1.0716887
3.3290348 0.29652223 -1.0644909
3.3300924 0.34192351 -1.059667
3.3315189 0.40179706 -1.0595545
3.332947 0.46173996 -1.0594417
3.3340909 0.50974894 -1.0593514
3.3352363 0.55780524 -1.0592611
3.336318 0.60577732 -1.0472851
3.3374648 0.65392786 -1.0471885
3.338614 0.70212597 -1.0470921
3.3397634 0.75037175 -1.0469955
3.3409135 0.79866499 -1.0468988
3.3420656 0.84700596 -1.046802
3.3432181 0.89539433 -1.0467051
3.3443723 0.94383085 -1.0466082
3.3455276 0.99231493 -1.0465111
3.3469732 1.0529902 -1.0463896
3.3484206 1.1137354 -1.046268
3.3495798 1.162388 -1.0461706
3.3507397 1.2110882 -1.0460731
3.3519011 1.259837 -1.0459754
3.3530638 1.308634 -1.0458777
3.3539364 1.3452622 -1.0458045
3.2648423 -2.3917289 -1.0417655
3.2658372 -2.3493407 -1.0387928
3.2672067 -2.2899876 -1.0300155
3.2721071 -2.2466886 -1.0309582
3.4164321 -2.2643058 -1.0572613
3.945766 -2.2320995 -1.0260034
4.1440868 -2.2598088 -1.0392761
3.2690356 -2.2107332 -1.0182942
3.3495212 -2.2062678 -1.0156131
3.4471722 -2.2079003 -1.0159806
3.551162 -2.2096386 -1.016372
3.6621282 -2.2114937 -1.0167896
3.7807977 -2.2134778 -1.0172361
3.7147467 0.17814411 -1.0344195
3.8267236 0.17558146 -1.0336845
3.9461224 0.17284898 -1.0329007
4.0737071 0.16992895 -1.032063
4.2103491 0.16680185 -1.0311661
3.3375423 0.20504324 -1.0312049
3.4018836 0.19328302 -1.0323483
3.4469588 0.21679775 -1.0193621
3.4944263 0.19139633 -1.0316212
3.5421901 0.21557932 -1.0182401
3.5925205 0.18939632 -1.0308505
3.6432199 0.21428671 -1.0170498
3.6786151 0.19640152 -1.0256453
3.750596 0.21291307 -1.0157847
3.7882552 0.1944456 -1.0246395
3.8452911 0.2207897 -1.0099704
3.9050829 0.19236134 -1.0235678
3.9449942 0.22920446 -1.0037857
3.9869359 0.20988938 -1.0130001
4.0511756 0.20917624 -1.012187
4.1173973 0.20822029 -1.011463
4.1633272 0.18775424 -1.0211989
4.2090993 0.22715846 -0.99998498
3.3334529 0.249824 -1.0186718
3.4009886 0.24139808 -1.0074896
3.4460449 0.26559606 -0.99415058
3.4934926 0.24091269 -1.0060388
3.5412366 0.26581943 -0.99228388
3.5915458 0.24039799 -1.004501
3.6422241 0.26605669 -0.9903034
3.6956623 0.23985158 -1.0028682
3.7495544 0.26630881 -0.9881987
3.7871969 0.24841104 -0.99675912
3.8638427 0.26657698 -0.98595738
3.9039733 0.2480959 -0.99477392
3.98579 0.26686358 -0.98356599
4.0286636 0.24775918 -0.99265397
4.1621003 0.24739906 -0.99038547
3.3286147 0.29111582 -1.0076334
3.4152167 0.28163356 -0.98642629
3.3297732 0.34127194 -1.0004008
3.3311992 0.40114447 -1.0002518
3.3326275 0.46108574 -1.0001026
3.3337712 0.50909352 -0.99998319
3.3349161 0.55714875 -0.99986368
3.336062 0.60525113 -0.99974406
3.3372087 0.65340096 -0.99962407
3.3383574 0.70159841 -0.99950421
3.3395061 0.74984306 -0.99938411
3.3406568 0.7981351 -0.99926394
3.3418086 0.8464753 -0.99914372
3.3429615 0.89486301 -0.99902338
3.3441153 0.94329864 -0.9989028
3.3452704 0.99178183 -0.9987821
3.3467155 1.0524561 -0.99863124
3.3481627 1.1132004 -0.99848002
3.3493216 1.1618516 -0.99835896
3.350482 1.2105513 -0.99823773
3.3516436 1.2592992 -0.99811643
3.3528056 1.3080952 -0.99799502
3.3536785 1.3447226 -0.99790394
3.264533 -2.3923192 -0.98416072
3.2656107 -2.3470731 -0.98403704
3.2669594 -2.2904615 -0.98388249
3.268039 -2.2451217 -0.98375863
3.3666809 -2.2274647 -0.97254634
3.465436 -2.2297761 -0.97155529
3.5283453 -2.2239287 -0.98602289
3.5706391 -2.2322385 -0.97049958
3.6377614 -2.2262468 -0.98542666
3.6717975 -2.2294922 -0.98003387
3.7064323 -2.232857 -0.97441787
3.7663281 -2.2342322 -0.97387183
3.8163106 -2.2300467 -0.9844172
3.8677304 -2.2257407 -0.99526578
3.9191194 -2.2349112 -0.978315
3.9735639 -2.2305505 -0.98939168
4.014596 -2.2342293 -0.9833734
4.0719266 -2.229744 -0.99481791
4.1152887 -2.2334449 -0.98884225
4.1595144 -2.2372992 -0.98258376
4.2213712 -2.2326872 -0.99446255
3.2833872 -2.2187529 -0.98733097
3.3205342 -2.2149589 -0.99657768
3.3676779 -2.215874 -0.99649274
3.4163442 -2.2168465 -0.99634808
3.4664924 -2.2178202 -0.99625778
3.5082781 -2.2137823 -1.0061845
3.5717611 -2.2198935 -0.99600738
3.6163394 -2.21575 -1.0062593
3.7317982 -2.2178519 -1.0063393
4.1161909 0.26716971 -0.98100865
3.3552873 0.31281006 -0.97141069
3.3849699 0.29736879 -0.97884774
3.4451313 0.31438214 -0.96894538
3.4925592 0.29041624 -0.98046291
3.5402834 0.31604663 -0.96633422
3.5905714 0.29138628 -0.97815835
3.6412289 0.31781265 -0.96356422
3.6946435 0.2924161 -0.97571135
3.7485125 0.31968966 -0.96062011
3.7861395 0.30236161 -0.96888649
3.8436623 0.30317473 -0.96740776
3.9028637 0.30381423 -0.9659881
3.9438665 0.2855438 -0.97467947
3.984643 0.32382068 -0.95414037
4.049417 0.29592615 -0.96737021
4.1149855 0.32610121 -0.95056373
4.1608725 0.30702531 -0.95958155
4.2078509 0.28749651 -0.96881366
3.3295817 0.34088108 -0.96484202
3.3978102 0.34931409 -0.95735705
3.496577 0.35388148 -0.95591259
3.6028411 0.34615424 -0.95474458
3.7145481 0.35078701 -0.95302004
3.8383493 0.35691079 -0.9520933
3.971256 0.36348477 -0.95109832
4.1140847 0.35562891 -0.95012009
3.3310075 0.40075275 -0.96467119
3.390089 0.40760887 -0.95500469
3.4916248 0.41496778 -0.95422989
3.5995772 0.39689171 -0.95356464
3.7152357 0.40438759 -0.95268798
3.8391025 0.41241524 -0.95174921
3.9718761 0.40664124 -0.95083058
4.1147666 0.4004302 -0.94984192
3.3324358 0.46069324 -0.96450019
3.3906233 0.45625195 -0.95470512
3.492059 0.45261797 -0.95399737
3.6002069 0.44874701 -0.95324385
3.715924 0.45802268 -0.95235586
3.839668 0.45406672 -0.951491
3.97229 0.43542576 -0.950652
3.9727035 0.46421993 -0.95047343
4.1156764 0.46020076 -0.94947076
3.3335793 0.50870043 -0.96436316
3.3911574 0.50492352 -0.95440543
3.4924955 0.4902876 -0.95376527
3.6008372 0.50063443 -0.95292282
3.7166133 0.51169217 -0.95202351
3.8402338 0.49574149 -0.95123267
3.9733243 0.50743103 -0.95020533
4.1163592 0.50505573 -0.94919229
3.3347239 0.55675495 -0.96422613
3.3916914 0.55362362 -0.9541055
3.4930773 0.54053903 -0.95345557
3.6014721 0.5525552 -0.95260251
3.7173026 0.56539595 -0.95169103
3.8409884 0.55133808 -0.95088822
3.9741526 0.56507897 -0.9498477
4.1170425 0.54993707 -0.94891357
3.33587 0.60485667 -0.96408892
3.3922265 0.60235208 -0.95380533
3.4936595 0.59082079 -0.95314562
3.6021073 0.60450876 -0.95228201
3.7178228 0.60569644 -0.95144206
3.8417437 0.60697204 -0.9505434
3.9747744 0.60833967 -0.94957936
4.1179543 0.60981464 -0.94854164
3.3370168 0.65300578 -0.96395153
3.3927615 0.6511091 -0.95350504
3.4942424 0.64113289 -0.95283556
3.6027431 0.65649468 -0.95196146
3.718344 0.64601904 -0.95119327
3.8425016 0.66264361 -0.95019883
3.9753964 0.65162539 -0.94931078
4.118638 0.65474975 -0.94826263
3.338165 0.70120239 -0.96381402
3.3932967 0.69989479 -0.95320457
3.4948254 0.69147515 -0.9525252
3.6033792 0.70851272 -0.95164061
3.7190394 0.69981098 -0.95086128
3.8430729 0.70442116 -0.94994074
3.9762266 0.70937288 -0.94895267
4.1193223 0.69971132 -0.94798344
3.339314 0.74944651 -0.96367633
3.3938322 0.74870867 -0.95290393
3.4954088 0.74184793 -0.95221478
3.6040161 0.76056343 -0.95131952
3.7195611 0.7401768 -0.95061207
3.7199092 0.76709872 -0.95044583
3.8436434 0.74622172 -0.94968241
3.9768522 0.75270945 -0.94868439
4.1202359 0.75969619 -0.94761103
3.3404646 0.79773813 -0.96353859
3.3943679 0.79755157 -0.95260316
3.4959924 0.79225135 -0.95190412
3.6046531 0.81264657 -0.95099825
3.7204311 0.80749929 -0.95019639
3.8444059 0.80198741 -0.94933784
3.9774795 0.79607123 -0.94841629
4.1209216 0.80471182 -0.94733167
3.3416162 0.84607738 -0.96340072
3.3949046 0.84642285 -0.95230216
3.4965765 0.8426851 -0.95159328
3.6052907 0.86476225 -0.9506768
3.7211277 0.8613956 -0.94986367
3.8451691 0.85779047 -0.94899315
3.9783165 0.8539207 -0.94805855
4.1216121 0.849756 -0.94705278
3.3427687 0.89446455 -0.96326262
3.3954413 0.8953228 -0.95200104
3.4971609 0.89314938 -0.95128226
3.6057689 0.90386957 -0.95043564
3.7218251 0.91532671 -0.94953072
3.845932 0.91363037 -0.94864804
3.9791539 0.9118101 -0.94770062
4.1225328 0.90985078 -0.94668078
3.3439226 0.94289941 -0.96312451
3.3959777 0.944251 -0.95169961
3.4977458 0.94364393 -0.95097107
3.6062474 0.94299686 -0.95019424
3.7223482 0.95579672 -0.94928098
3.8465049 0.95553416 -0.94838917
3.9797821 0.95525217 -0.94743198
4.1232238 0.95494848 -0.94640166
3.3450775 0.99138206 -0.96298611
3.3965151 0.99320829 -0.95139819
3.4983311 0.99416941 -0.95065957
3.6068857 0.99519402 -0.94987231
3.7228715 0.99628872 -0.949031
3.8470776 0.9974609 -0.94813013
3.9804111 0.99871927 -0.94716305
4.1239152 1.0000739 -0.94612235
3.3465226 1.0520555 -0.96281302
3.3970528 1.0421942 -0.95109653
3.4989166 1.0447249 -0.95034808
3.6075242 1.0474235 -0.94955015
3.7235696 1.0503069 -0.94869763
3.847842 1.0533944 -0.9477846
3.9812496 1.0567093 -0.9468044
4.1248384 1.0602769 -0.94574958
3.3479698 1.1127988 -0.96263987
3.3975904 1.0912089 -0.95079452
3.4995022 1.0953114 -0.95003629
3.6081641 1.0996859 -0.94922775
3.7242682 1.1043602 -0.94836396
3.8486075 1.1093656 -0.94743878
3.9820893 1.1147394 -0.94644564
4.1255307 1.1054564 -0.94546992
3.3491287 1.1614496 -0.96250099
3.3981283 1.1402521 -0.95049244
3.5000885 1.1459289 -0.94972426
3.6088033 1.1519809 -0.94890523
3.724967 1.1584482 -0.94802999
3.8493726 1.1653742 -0.94709271
3.9827189 1.1582869 -0.94617629
4.1262231 1.1506627 -0.94519001
3.3502889 1.2101485 -0.96236199
3.3988013 1.2015982 -0.95011455
3.500675 1.1965764 -0.94941211
3.6094437 1.204309 -0.94858241
3.7256668 1.2125713 -0.94769591
3.8499472 1.2074041 -0.94683307
3.9833496 1.2018601 -0.94590682
4.1271472 1.2109743 -0.94481677
3.3514502 1.2588954 -0.96222293
3.3994751 1.2629864 -0.94973648
3.5012624 1.2472545 -0.94909984
3.6100838 1.2566695 -0.94825947
3.7261918 1.2531856 -0.94744521
3.850522 1.2494578 -0.94657326
3.9841902 1.259991 -0.94554734
4.127841 1.2562352 -0.94453657
3.3526123 1.307691 -0.96208376
3.4000142 1.3121305 -0.94943386
3.5018494 1.2979637 -0.94878721
3.6107249 1.3090626 -0.94793636
3.7267172 1.2938217 -0.94719428
3.8512888 1.3055601 -0.94622666
3.9848213 1.3036143 -0.94527757
4.1285348 1.3015232 -0.94425619
3.3534849 1.344318 -0.96197927
3.4005539 1.3613036 -0.94913107
3.5024374 1.3487036 -0.94847453
3.6113658 1.3614888 -0.94761294
3.7274175 1.3480326 -0.94685966
3.8520563 1.3617002 -0.94587976
3.9854527 1.3472631 -0.94500762
4.1294608 1.3619436 -0.94388211
3.5030248 1.3994738 -0.9481616
3.6120074 1.4139477 -0.94728941
3.7281187 1.4022785 -0.94652486
3.852632 1.4038287 -0.94561952
3.9862952 1.405495 -0.94464755
4.1301551 1.407286 -0.94360143
3.5034659 1.437571 -0.94792676
3.6124892 1.4533128 -0.94704664
3.6532419 1.4779152 -0.92970628
3.695653 1.4770398 -0.93885654
3.7288203 1.4565595 -0.94618982
3.7837861 1.4750606 -0.93066037
3.845304 1.455359 -0.94363087
3.876498 1.4729785 -0.92203832
3.924629 1.4719812 -0.9316898
3.9804831 1.4600754 -0.9429875
4.0249038 1.4697311 -0.92274642
4.0770383 1.4686487 -0.93280369
4.1306186 1.4525324 -0.943277
4.1858392 1.4662099 -0.92351401
3.5915651 1.4793398 -0.94214511
3.2642853 -2.392791 -0.9380784
3.2653632 -2.3475459 -0.93793285
3.2667117 -2.2909355 -0.9377507
4.0961514 -2.2703693 -0.91193813
3.2743967 -2.2491293 -0.93916887
3.3183663 -2.2378058 -0.94936734
3.3647802 -2.2467871 -0.93261683
3.4235206 -2.245419 -0.93768638
3.4738789 -2.2468369 -0.93668634
3.5158594 -2.2431672 -0.94586188
3.5684817 -2.2528193 -0.9279651
3.6244338 -2.2461147 -0.94393456
3.6814322 -2.2476456 -0.94295675
3.7163553 -2.2511504 -0.93706322
3.7519011 -2.2547815 -0.93093276
3.8133948 -2.2565598 -0.92961687
3.8647311 -2.2526383 -0.93966877
3.9301956 -2.2543967 -0.93854582
3.970386 -2.2582285 -0.93217707
4.0263729 -2.2541571 -0.94271791
4.0685821 -2.258152 -0.93609184
4.1275792 -2.2539706 -0.94697392
4.1722169 -2.258003 -0.94036078
4.2177591 -2.2621992 -0.93344599
3.6533694 1.477679 -0.89040554
3.6957872 1.4768012 -0.89907277
3.7392626 1.475902 -0.907956
3.783932 1.474816 -0.88986844
3.8296494 1.4738678 -0.89886177
3.8766043 1.4728113 -0.8941381
3.9247944 1.4717267 -0.88928896
3.9742126 1.4706994 -0.89863396
4.0250235 1.469557 -0.89371574
4.0772262 1.4683836 -0.88866168
4.1308136 1.4672669 -0.89838707
4.185976 1.466028 -0.89325768
3.5916853 1.4791083 -0.90355092
3.2640378 -2.3932633 -0.89199722
3.2651157 -2.3480189 -0.89182979
3.266464 -2.2914093 -0.89161998
3.6324923 -2.2765889 -0.88137543
3.6787262 -2.2731428 -0.89025408
3.7490785 -2.280793 -0.87715924
3.7985713 -2.2772858 -0.88628817
3.8494806 -2.2736783 -0.8956784
3.9144742 -2.275847 -0.89368856
3.9817638 -2.2780542 -0.89170718
4.038096 -2.2742693 -0.90167022
4.0652256 -2.2865038 -0.87746388
4.1241207 -2.2827635 -0.88743335
4.1848593 -2.2789063 -0.89771491
3.2791579 -2.26386 -0.89412588
3.3162017 -2.2606215 -0.90222263
3.3723712 -2.2672226 -0.89075375
3.4117403 -2.2639263 -0.89905983
3.4617431 -2.2656412 -0.89743429
3.5134087 -2.2674422 -0.8956939
3.5666978 -2.2692702 -0.89396149
3.6111424 -2.2657936 -0.9028337
3.6567907 -2.2622225 -0.91194636
3.726239 -2.2696013 -0.89937836
3.7750843 -2.2659602 -0.90875846
3.653537 1.4773623 -0.83799362
3.6959624 1.476481 -0.84601635
3.7394459 1.4755781 -0.85423917
3.7841229 1.4744873 -0.83546734
3.8298495 1.4735358 -0.84376609
3.876761 1.4725589 -0.85227996
3.9249587 1.4714714 -0.84688044
3.9744411 1.4703543 -0.84133601
4.0252028 1.4692951 -0.85016191
4.077414 1.4681188 -0.84451175
4.1310749 1.466908 -0.83870333
4.1861806 1.4657553 -0.84786487
3.5918429 1.4787976 -0.85208124
3.2637911 -2.3937354 -0.84591722
3.2648683 -2.3484917 -0.84572774
3.2662168 -2.291883 -0.84549052
3.2672966 -2.246546 -0.84530056
4.116972 -2.2506154 -0.85638565
3.2683153 -2.2012839 -0.83356726
3.2691264 -2.1672215 -0.8334204
3.6537044 1.4770453 -0.78556931
3.696137 1.4761603 -0.79294699
3.7396281 1.4752533 -0.80050892
3.7842648 1.4742403 -0.79465795
3.8300471 1.473202 -0.78865623
3.8769672 1.472221 -0.79645687
3.9251201 1.4712145 -0.80446243
3.9746099 1.4700941 -0.79835266
4.0254378 1.4689437 -0.79207677
4.0775976 1.4678504 -0.80035114
4.1312671 1.466637 -0.79392982
4.1864491 1.4653893 -0.78732646
3.592 1.4784865 -0.80059969
3.2634826 -2.3943257 -0.78831905
3.2645595 -2.3490829 -0.78810197
3.2659075 -2.2924755 -0.78783041
3.2669866 -2.2471392 -0.78761286
3.2680676 -2.2017596 -0.78739524
3.2691488 -2.1563363 -0.78717732
3.2703896 -2.1028123 -0.78031635
3.271733 -2.0428276 -0.76350719
3.364424 -2.0509131 -0.78003347
3.6963108 1.4758394 -0.73986495
3.7398098 1.4749281 -0.74676555
3.7844069 1.4739932 -0.75384027
3.8301954 1.472952 -0.74731529
3.8771737 1.4718831 -0.74061978
3.9253349 1.4708718 -0.74789315
3.9747779 1.4698335 -0.75536001
4.0256133 1.4686791 -0.74850321
4.0778422 1.4674938 -0.74145746
4.1314583 1.4663651 -0.7491461
4.1866484 1.4651134 -0.74191207
3.5921571 1.4781755 -0.74910599
3.6538301 1.4768078 -0.7462433
3.2631731 -2.3949156 -0.73072231
3.2642503 -2.3496737 -0.73047793
3.2655981 -2.2930679 -0.73017192
3.2666771 -2.2477326 -0.72992694
3.2677577 -2.202354 -0.72968167
3.2688386 -2.1569319 -0.7294361
3.2701924 -2.1000905 -0.72912878
3.2715471 -2.0431859 -0.72882128
3.2726321 -1.9976116 -0.72857487
3.2736073 -1.9558369 -0.72449088
3.4761376 -1.931076 -0.72473782
3.2744715 -1.9178729 -0.71656626
3.6964424 1.4755983 -0.70004553
3.7399464 1.4746841 -0.70644981
3.7866609 1.4748719 -0.6996817
3.830344 1.4727017 -0.70596576
3.8773286 1.4716295 -0.69873333
3.9254963 1.470615 -0.70545715
3.9796324 1.4720521 -0.69860947
4.0257893 1.4684153 -0.70492005
4.0780253 1.4672257 -0.69727725
4.131649 1.4660937 -0.70435429
4.1946325 1.4689124 -0.69741422
3.6013339 1.4834895 -0.69887292
3.6539555 1.4765702 -0.70690948
3.7816744 1.5128744 -0.68500507
3.9764402 1.5134233 -0.68344629
4.1936898 1.5140352 -0.68170756
3.7722502 1.5618373 -0.68322265
3.9659841 1.5650495 -0.68157107
4.1849289 1.5550207 -0.68022245
3.7652118 1.5984052 -0.6818915
3.9581769 1.6035975 -0.68017077
4.176209 1.595814 -0.67874426
3.9504042 1.6419748 -0.6787768
4.1646366 1.6499504 -0.67678267
3.9400792 1.6929145 -0.67692548
4.1531291 1.7037834 -0.67483205
4.1416788 1.7573119 -0.67289144
4.1302838 1.8105369 -0.67096061
3.2629259 -2.3953879 -0.68464649
3.2640028 -2.350147 -0.68437999
3.2653503 -2.2935417 -0.68404657
3.2664297 -2.2482071 -0.68377942
3.2675097 -2.2028291 -0.68351203
3.2685909 -2.1574078 -0.68324453
3.269944 -2.1005678 -0.68290967
3.2712986 -2.0436642 -0.68257439
3.2723839 -1.9980907 -0.68230587
3.2734694 -1.9524733 -0.68203717
3.2745566 -1.9068123 -0.68176824
3.2755334 -1.8649579 -0.67765969
3.2766716 -1.8154792 -0.66964018
3.5962329 -1.8022472 -0.66529322
3.2873447 -1.3671198 -0.66694427
3.2626784 -2.3958597 -0.63857168
3.2637553 -2.3506198 -0.63828319
3.2651029 -2.2940156 -0.63792217
3.2661817 -2.2486818 -0.63763314
3.2672617 -2.2033048 -0.63734376
3.268343 -2.1578841 -0.63705409
3.269696 -2.1010451 -0.63669157
3.2710505 -2.0441425 -0.63632876
3.2721353 -1.9985696 -0.63603812
3.2732213 -1.9529531 -0.63574719
3.274308 -1.9072927 -0.63545597
3.2753959 -1.8615887 -0.63516456
3.2767575 -1.8043946 -0.63479978
3.2780085 -1.7509965 -0.63059276
3.2788763 -1.7128694 -0.62261385
3.2874322 -1.3559343 -0.63193989
3.2884195 -1.3135953 -0.62778556
3.2624314 -2.3963318 -0.59249806
3.2635083 -2.3510923 -0.59218758
3.2648554 -2.2944894 -0.59179914
3.265934 -2.2491565 -0.591488
3.2670143 -2.2037799 -0.59117657
3.268095 -2.1583602 -0.59086484
3.269448 -2.1015222 -0.59047472
3.2708023 -2.0446205 -0.5900842
3.2718868 -1.9990488 -0.58977139
3.2729723 -1.953433 -0.58945829
3.2740595 -1.9077734 -0.58914495
3.2751472 -1.8620702 -0.58883131
3.2765079 -1.804877 -0.58843875
3.2778711 -1.74762 -0.58804584
3.2789626 -1.7017627 -0.58773106
3.2800548 -1.6558616 -0.58741605
3.7256906 -1.663375 -0.60121453
3.2810862 -1.6100378 -0.5754869
3.2863569 -1.3910724 -0.58559871
3.2871816 -1.3564248 -0.58536088
3.2882817 -1.3101908 -0.58504355
3.289536 -1.2569897 -0.58234626
3.2906988 -1.2061261 -0.57266563
3.2621841 -2.3968039 -0.54642558
3.2632606 -2.3515654 -0.54609317
3.2646077 -2.2949629 -0.54567713
3.2656858 -2.2496309 -0.545344
3.2667663 -2.2042553 -0.54501051
3.2678475 -2.1588366 -0.54467672
3.2691998 -2.1019995 -0.54425901
3.2705538 -2.045099 -0.54384083
3.2716382 -1.9995276 -0.54350591
3.2727242 -1.9539129 -0.54317069
3.2738099 -1.9082541 -0.54283506
3.2748981 -1.8625515 -0.54249918
3.2762592 -1.8053596 -0.54207891
3.2776215 -1.7481034 -0.54165816
3.278713 -1.7022471 -0.5413211
3.2798054 -1.6563467 -0.54098374
3.280899 -1.6104021 -0.54064608
3.2821455 -1.5575341 -0.53793275
3.2835748 -1.4954692 -0.52817303
3.2861068 -1.3915621 -0.53903776
3.286931 -1.3569151 -0.53878307
3.288049 -1.3084432 -0.53143561
3.2893457 -1.2529488 -0.52636129
3.290724 -1.1950274 -0.5259285
3.2917655 -1.1487616 -0.51391238
3.2925313 -1.1140654 -0.5019744
3.5971744 -1.1134028 -0.50483924
3.2618752 -2.3973939 -0.48883677
3.2629516 -2.3521562 -0.48847684
3.264298 -2.2955554 -0.48802644
3.2653768 -2.2502241 -0.48766577
3.2664566 -2.2048497 -0.48730469
3.2675371 -2.1594317 -0.48694327
3.2688897 -2.1025958 -0.48649105
3.2702439 -2.0456967 -0.48603833
3.2713277 -2.0001264 -0.48567572
3.2724133 -1.9545126 -0.48531276
3.2734995 -1.9088547 -0.4849495
3.2745872 -1.8631535 -0.48458585
3.2759478 -1.8059624 -0.48413074
3.2773104 -1.7487079 -0.48367518
3.2784011 -1.702852 -0.48331031
3.2794938 -1.6569529 -0.48294514
3.2805872 -1.6110095 -0.48257956
3.2819548 -1.5535157 -0.48212206
3.2833252 -1.4959573 -0.48166409
3.2844217 -1.4498587 -0.48129731
3.2855198 -1.4037156 -0.48093015
3.2866185 -1.3575282 -0.48056266
3.2876382 -1.313658 -0.47555274
3.2890325 -1.2535641 -0.46807781
3.2904108 -1.195644 -0.46760988
3.2915144 -1.1492558 -0.46723518
4.0519633 -1.1242566 -0.47123894
3.2923431 -1.1144365 -0.46695381
3.4133463 -1.1102009 -0.47685477
3.6022146 -1.1145992 -0.46672532
3.8111222 -1.1186993 -0.48235029
3.2615659 -2.3979838 -0.43124956
3.2626421 -2.3527472 -0.43086216
3.2639887 -2.2961476 -0.43037742
3.2650671 -2.2508175 -0.42998919
3.2661467 -2.2054439 -0.42960057
3.2672272 -2.160027 -0.42921159
3.2685797 -2.1031926 -0.42872483
3.2699332 -2.0462945 -0.42823753
3.2710173 -2.0007253 -0.42784727
3.2721026 -1.9551123 -0.42745659
3.2731888 -1.9094554 -0.42706558
3.2742758 -1.8637549 -0.42667419
3.2756364 -1.8065656 -0.42618436
3.2769988 -1.7493119 -0.42569402
3.2780898 -1.7034577 -0.42530131
3.2791817 -1.6575593 -0.42490819
3.2802749 -1.6116168 -0.42451474
3.2816427 -1.5541242 -0.42402238
3.2830126 -1.496567 -0.42352939
3.2841086 -1.4504696 -0.4231346
3.285207 -1.4043278 -0.42273945
3.2863059 -1.3581412 -0.42234385
3.2874057 -1.3119103 -0.4219479
3.2887821 -1.2540565 -0.42145237
3.2901597 -1.1961373 -0.42095637
3.2912638 -1.1497499 -0.42055908
4.0606637 -1.1260942 -0.41343564
3.2920921 -1.1149312 -0.42026091
3.4193428 -1.1117033 -0.42874464
3.608958 -1.1162001 -0.41573164
3.8187435 -1.1204085 -0.42822427
3.2613187 -2.3984559 -0.38518119
3.2621257 -2.3645344 -0.38487417
3.2634721 -2.307945 -0.38436201
3.2648199 -2.251292 -0.38384929
3.2658992 -2.2059193 -0.38343865
3.2669792 -2.1605031 -0.38302758
3.2683313 -2.1036694 -0.3825132
3.269685 -2.0467727 -0.38199827
3.2707691 -2.0012043 -0.38158584
3.2718539 -1.9555919 -0.38117301
3.2729399 -1.909936 -0.38075984
3.2740273 -1.8642365 -0.38034624
3.275388 -1.8070478 -0.37982863
3.2767498 -1.7497954 -0.37931046
3.2778404 -1.7039417 -0.37889543
3.2789323 -1.6580441 -0.37848005
3.2800252 -1.6121027 -0.37806427
3.2813933 -1.5546112 -0.37754393
3.2827625 -1.4970549 -0.37702304
3.283859 -1.4509584 -0.37660581
3.2849569 -1.4048172 -0.37618822
3.2860553 -1.3586316 -0.37577024
3.2871554 -1.3124014 -0.37535182
3.2885311 -1.2545485 -0.37482822
3.2899094 -1.1966306 -0.37430403
3.2910125 -1.150244 -0.37388417
4.067214 -1.1274778 -0.36991352
3.2918413 -1.1154261 -0.3735691
3.4253628 -1.1132114 -0.3804464
3.61573 -1.1178075 -0.36452666
3.8263986 -1.1221254 -0.37386006
3.2610714 -2.3989277 -0.33911395
3.2618785 -2.3650069 -0.33879048
3.2632241 -2.308418 -0.33825082
3.2645717 -2.2517667 -0.33771056
3.265651 -2.2063944 -0.33727786
3.2667317 -2.160979 -0.33684474
3.2680831 -2.104147 -0.33630276
3.2694366 -2.0472507 -0.33576015
3.2705202 -2.001683 -0.3353256
3.2716057 -1.9560719 -0.33489063
3.2726917 -1.9104167 -0.33445522
3.2737784 -1.8647178 -0.33401942
3.2751389 -1.8075303 -0.33347407
3.2765005 -1.7502786 -0.33292806
3.2775915 -1.7044261 -0.3324908
3.2786829 -1.6585293 -0.3320531
3.2797756 -1.6125884 -0.33161497
3.2811432 -1.5550979 -0.3310667
3.2825124 -1.4975429 -0.33051783
3.2836092 -1.4514471 -0.33007824
3.2847066 -1.4053067 -0.32963821
3.285805 -1.359122 -0.32919776
3.2869048 -1.3128926 -0.3287569
3.2882805 -1.2550408 -0.3282052
3.2896583 -1.1971238 -0.32765287
3.2907619 -1.1507381 -0.32721052
4.0737901 -1.1288667 -0.32622075
3.2915902 -1.1159207 -0.32687849
3.4298921 -1.1143463 -0.3441045
3.43292 -1.1151049 -0.31981331
3.62253 -1.1194217 -0.3131091
3.8340874 -1.1238496 -0.31925607
3.2608242 -2.3993995 -0.29304788
3.2616313 -2.3654795 -0.29270792
3.2629766 -2.3088918 -0.29214078
3.2643242 -2.2522409 -0.29157299
3.2654033 -2.2068701 -0.29111823
3.2664835 -2.1614552 -0.29066306
3.2678354 -2.1046238 -0.29009348
3.2691882 -2.0477288 -0.28952324
3.2702725 -2.002162 -0.28906652
3.2713571 -1.9565514 -0.28860942
3.2724426 -1.9108973 -0.28815183
3.2735295 -1.8651991 -0.2876938
3.2748899 -1.8080126 -0.28712064
3.2762513 -1.7507621 -0.28654686
3.2773421 -1.7049102 -0.2860873
3.2784338 -1.6590143 -0.28562731
3.279526 -1.6130744 -0.28516686
3.280894 -1.5555849 -0.28459066
3.2822628 -1.4980307 -0.28401381
3.2833591 -1.4519358 -0.28355184
3.2844563 -1.4057963 -0.2830894
3.2855549 -1.3596123 -0.28262651
3.2866547 -1.3133839 -0.2821632
3.2880306 -1.255533 -0.28158337
3.2894077 -1.1976171 -0.28100291
3.2905111 -1.1512321 -0.28053799
4.0803866 -1.1302601 -0.28239074
4.0847983 -1.131192 -0.25307885
3.2913389 -1.1164154 -0.28018907
3.4374733 -1.1162456 -0.28328109
3.6276474 -1.1206365 -0.27441233
3.84181 -1.1255816 -0.26441067
3.2605772 -2.3998716 -0.24698298
3.261384 -2.365952 -0.24662653
3.2627294 -2.3093653 -0.24603188
3.2640767 -2.2527156 -0.24543656
3.2651556 -2.207345 -0.24495979
3.2662356 -2.1619318 -0.24448256
3.2675872 -2.1051009 -0.24388534
3.2689402 -2.048207 -0.24328747
3.2700241 -2.002641 -0.24280863
3.2711089 -1.9570314 -0.24232933
3.2721941 -1.9113778 -0.24184957
3.2732811 -1.8656805 -0.24136937
3.2746413 -1.808495 -0.24076843
3.2760026 -1.7512455 -0.24016681
3.2770927 -1.7053945 -0.23968498
3.2781842 -1.6594993 -0.23920269
3.2792768 -1.6135601 -0.23871993
3.2806442 -1.5560716 -0.2381158
3.2820127 -1.4985185 -0.23751101
3.2831089 -1.4524243 -0.23702662
3.2842064 -1.4062858 -0.23654176
3.2853045 -1.3601027 -0.23605645
3.2864039 -1.313875 -0.23557065
3.2877798 -1.2560252 -0.23496273
3.2891572 -1.1981103 -0.23435412
3.2902601 -1.1517261 -0.23386669
4.089221 -1.1321259 -0.22369771
3.2910881 -1.1169101 -0.23350082
3.4435644 -1.1177716 -0.23441182
3.6310687 -1.1214486 -0.24854289
3.6344972 -1.1222624 -0.22261956
3.8476226 -1.1268853 -0.22312488
3.260268 -2.4004614 -0.18940353
3.2610745 -2.3665421 -0.18902647
3.2624202 -2.309957 -0.18839747
3.263767 -2.2533085 -0.18776776
3.2648458 -2.2079391 -0.18726343
3.2659259 -2.1625264 -0.18675862
3.2672772 -2.1056972 -0.18612689
3.2686298 -2.0488048 -0.18549447
3.2697134 -2.0032396 -0.18498796
3.2707977 -1.9576309 -0.18448097
3.2718832 -1.9119786 -0.18397349
3.2729704 -1.8662821 -0.18346553
3.2743297 -1.8090981 -0.18282986
3.275691 -1.7518497 -0.18219349
3.2767811 -1.7059996 -0.18168381
3.2778728 -1.6601055 -0.18117364
3.278965 -1.6141676 -0.18066299
3.2803321 -1.5566802 -0.18002395
3.2817004 -1.4991282 -0.1793842
3.2827961 -1.4530352 -0.17887183
3.283494 -1.4186822 -0.1552173
3.2839732 -1.4045408 -0.18298729
3.2849917 -1.3607155 -0.17784558
3.2860911 -1.3144889 -0.17733172
3.2874668 -1.2566404 -0.17668867
3.2888432 -1.1987269 -0.1760449
3.2899466 -1.1523439 -0.1755293
3.8554056 -1.1286308 -0.16785324
4.0958729 -1.1335311 -0.17948695
3.2907743 -1.1175284 -0.17514229
3.4496796 -1.1193037 -0.18534994
3.6396542 -1.1234865 -0.18362634
3.8515096 -1.1277571 -0.19551969
3.2599592 -2.401051 -0.13182579
3.2607653 -2.3671329 -0.13142814
3.2621107 -2.3105493 -0.13076477
3.2634578 -2.2539015 -0.13010065
3.2645361 -2.2085333 -0.12956877
3.2656159 -2.1631217 -0.12903638
3.2669668 -2.1062937 -0.12837015
3.2683198 -2.049402 -0.12770317
3.269403 -2.0038383 -0.127169
3.2704871 -1.9582305 -0.12663431
3.2715728 -1.9125792 -0.12609911
3.2726593 -1.866884 -0.12556341
3.2740188 -1.8097008 -0.12489301
3.2753797 -1.7524539 -0.12422186
3.2764699 -1.7066048 -0.12368435
3.2775612 -1.6607119 -0.12314631
3.2786534 -1.6147748 -0.12260777
3.28002 -1.5572888 -0.12193383
3.2813885 -1.4997382 -0.12125912
3.2824843 -1.4536461 -0.12071875
3.2833071 -1.4190491 -0.12031315
3.2838554 -1.3959697 -0.12004258
3.2846789 -1.3613284 -0.11963645
3.285778 -1.3151027 -0.11909454
3.2871535 -1.2572557 -0.11841635
3.2885301 -1.1993433 -0.11773741
3.289633 -1.1529613 -0.11719364
3.8612664 -1.1299452 -0.12623057
4.1047702 -1.1354111 -0.12030647
3.2904608 -1.1181467 -0.11678549
3.4558191 -1.1208419 -0.13609435
3.6465535 -1.1251243 -0.13145415
3.259712 -2.4015231 -0.08576493
3.2605186 -2.3676057 -0.085350811
3.2618635 -2.3110225 -0.084659941
3.2632103 -2.2543764 -0.083968326
3.2642884 -2.2090085 -0.083414391
3.265368 -2.1635978 -0.082859948
3.2667191 -2.106771 -0.08216612
3.2680714 -2.0498803 -0.081471495
3.2691548 -2.004317 -0.08091519
3.2702389 -1.9587102 -0.080358341
3.2713242 -1.9130596 -0.079800971
3.2724102 -1.8673651 -0.079243064
3.2737696 -1.8101833 -0.078544892
3.2751307 -1.7529372 -0.077845946
3.2762208 -1.7070889 -0.077286154
3.277312 -1.6611969 -0.076725826
3.2784038 -1.6152605 -0.076164946
3.2797704 -1.5577756 -0.075463079
3.2811382 -1.500226 -0.074760452
3.282234 -1.4541346 -0.07419768
3.2830565 -1.4195385 -0.073775262
3.2836051 -1.3964595 -0.073493496
3.2844288 -1.3618187 -0.073070541
3.2855275 -1.3155937 -0.072506152
3.2869031 -1.2577478 -0.071799852
3.2882798 -1.1998365 -0.071092777
3.2893822 -1.1534553 -0.07052651
3.869102 -1.1317031 -0.070527904
4.1114683 -1.1368265 -0.075745642
3.2935424 -1.1191972 -0.069943875
3.4619825 -1.1223861 -0.086643852
3.6534822 -1.1267691 -0.079063311
3.2594647 -2.4019952 -0.039705232
3.2602708 -2.3680782 -0.039274659
3.2616162 -2.3114958 -0.038556315
3.2629628 -2.2548506 -0.037837166
3.2640409 -2.2094839 -0.037261177
3.26512 -2.1640735 -0.036684688
3.2664714 -2.1072483 -0.035963237
3.2678232 -2.0503583 -0.035240997
3.2689064 -2.0047958 -0.03466256
3.2699902 -1.9591898 -0.034083564
3.2710755 -1.9135401 -0.03350402
3.2721615 -1.8678464 -0.032923888
3.2735209 -1.8106655 -0.032197941
3.2748818 -1.7534206 -0.031471189
3.2759717 -1.7075732 -0.030889146
3.2770622 -1.6616817 -0.030306518
3.2781544 -1.6157461 -0.029723335
3.279521 -1.5582623 -0.028993506
3.2808886 -1.5007138 -0.028262941
3.2819841 -1.4546235 -0.027677778
3.2828066 -1.4200277 -0.027238557
3.283355 -1.3969491 -0.026945584
3.284178 -1.3623089 -0.026505802
3.2852774 -1.316085 -0.025918959
3.2866523 -1.2582399 -0.0251846
3.2880292 -1.2003297 -0.024449373
3.2891312 -1.1539493 -0.02386054
3.8769701 -1.1334685 -0.014576883
4.1181927 -1.1382476 -0.031008223
3.2990911 -1.1206607 -0.022857204
3.4681709 -1.1239364 -0.036997318
3.660435 -1.1284199 -0.026452679
3.2592177 -2.402467 0.0063533057
3.2600238 -2.3685505 0.006800368
3.2613685 -2.3119693 0.007546213
3.2627149 -2.2553251 0.0082928585
3.263793 -2.209959 0.0088908309
3.2648721 -2.1645498 0.009489418
3.266223 -2.1077249 0.010238444
3.267575 -2.0508363 0.010988341
3.2686577 -2.0052748 0.011588875
3.2697418 -1.9596695 0.012190049
3.2708268 -1.9140207 0.012791784
3.2719131 -1.8683277 0.013394089
3.2732718 -1.8111477 0.014147801
3.2746325 -1.753904 0.014902372
3.2757223 -1.7080574 0.015506694
3.2768128 -1.6621667 0.016111618
3.277905 -1.6162319 0.016717115
3.2792709 -1.5587492 0.017474808
3.2806387 -1.5012017 0.018233389
3.2817347 -1.4551119 0.018840929
3.2825568 -1.420517 0.019296929
3.2831049 -1.3974389 0.019601129
3.2839279 -1.3627993 0.020057725
3.285027 -1.3165761 0.020667059
3.2864017 -1.258732 0.021429522
3.2877781 -1.2008228 0.022192854
3.2888806 -1.1544433 0.022804219
3.8828928 -1.1347975 0.027542502
4.1271949 -1.1401498 0.028878571
3.3046608 -1.1221296 0.024406729
3.4743814 -1.1254926 0.012846272
3.6674128 -1.1300771 0.026378917
3.2589705 -2.4029386 0.052410696
3.2597764 -2.3690228 0.052874211
3.261121 -2.3124428 0.053647522
3.2624676 -2.2557995 0.054421689
3.2635453 -2.2104344 0.055041734
3.2646244 -2.1650257 0.055662338
3.2659748 -2.108202 0.05643902
3.2673268 -2.0513146 0.05721648
3.26841 -2.0057538 0.057839192
3.2694936 -1.9601492 0.058462501
3.2705784 -1.914501 0.059086397
3.2716644 -1.8688091 0.059710894
3.2730231 -1.8116301 0.060492396
3.2743835 -1.7543871 0.061274774
3.2754734 -1.7085415 0.061901379
3.2765639 -1.6626517 0.06252858
3.2776556 -1.6167178 0.063156359
3.2790213 -1.5592359 0.063941993
3.2803895 -1.5016896 0.064728543
3.2814841 -1.4556005 0.065358423
3.2823064 -1.4210062 0.065831266
3.2828548 -1.3979285 0.066146679
3.2836785 -1.3632896 0.066620111
3.2847764 -1.3170671 0.067251869
3.2861512 -1.2592242 0.068042375
3.2875273 -1.201316 0.068833873
3.2929888 -1.1557 0.069882244
3.388283 -1.1365199 0.066920206
3.6897256 -1.160579 0.093612112
3.7937915 -1.1497282 0.075843446
3.9043128 -1.1382043 0.056972649
3.4790499 -1.1266629 0.050352491
3.3892765 1.1022449 0.11682934
3.4331007 1.088919 0.12093148
3.6849909 1.1027113 0.11903527
3.7255905 1.0824227 0.12243555
4.0414014 1.1032739 0.12169396
4.0764937 1.0746286 0.12424
3.3917971 1.1401561 0.11750936
3.6880343 1.1441545 0.11978078
4.0451388 1.1489747 0.12251885
3.3943229 1.1781422 0.11819073
3.6910841 1.1856874 0.1205279
4.0488858 1.1947846 0.12334577
3.3976967 1.2288908 0.11910102
3.6951582 1.2411844 0.1215262
4.0526395 1.2406818 0.12417424
3.4010787 1.2797604 0.12001346
3.699244 1.296826 0.12252712
4.0564027 1.2866894 0.12500472
3.4044688 1.3307511 0.12092812
3.7033403 1.3526127 0.12353066
4.0601735 1.3327848 0.1258368
4.0626912 1.3635739 0.12639256
3.4070165 1.3690701 0.12161542
3.7064195 1.3945438 0.12428497
4.0652132 1.3944075 0.12694915
3.7084756 1.4225465 0.12478867
3.7105348 1.4505862 0.12529306
4.0690036 1.4407467 0.12778558
3.7136278 1.492718 0.12605093
4.074069 1.5026805 0.12890351
3.717762 1.5490171 0.12706372
4.0778775 1.549243 0.12974402
4.0816956 1.5959178 0.13058655
4.0855198 1.6426818 0.13143066
4.0880752 1.6739185 0.13199453
3.2586613 -2.4035285 0.10998068
3.2594674 -2.3696136 0.11046477
3.2608118 -2.3130345 0.11127246
3.2621579 -2.2563925 0.11208107
3.2632356 -2.2110286 0.11272863
3.2643144 -2.165621 0.11337681
3.2656648 -2.108798 0.11418796
3.2670166 -2.0519118 0.11499998
3.2680995 -2.0063519 0.11565033
3.2691538 -1.9629819 0.11164121
3.2703295 -1.9149815 0.10537983
3.2714152 -1.8692902 0.10602655
3.2727742 -1.8121123 0.10683581
3.2741346 -1.7548704 0.10764599
3.2752242 -1.7090256 0.10829487
3.2763145 -1.6631364 0.1089443
3.277406 -1.6172036 0.10959446
3.2787721 -1.5597225 0.11040802
3.2801394 -1.5021772 0.11122251
3.2812343 -1.4560891 0.11187478
3.2820568 -1.4214953 0.1123644
3.2826045 -1.3984181 0.11269099
3.283428 -1.3637799 0.1131813
3.2845263 -1.3175583 0.11383549
3.2859011 -1.2597163 0.11465415
3.287277 -1.2018092 0.11547376
3.4110594 -1.1896349 0.14119279
3.9351599 -1.2000837 0.14339782
4.0547676 -1.1897141 0.12593557
4.1823559 -1.1786524 0.10730832
3.2881658 -1.1669079 0.10430194
3.498822 -1.1804841 0.12620778
3.5915654 -1.1708139 0.11037241
3.3477771 1.10351 0.14872889
3.3974237 1.0941406 0.15401606
3.4428251 1.093757 0.15894029
3.482861 1.0900893 0.13827389
3.5307469 1.0896358 0.14310144
3.5800571 1.0891695 0.1480725
3.6308541 1.0886887 0.15319353
3.683208 1.0881932 0.15847152
3.733314 1.0859249 0.15004645
3.7848928 1.0835928 0.14140616
3.8421099 1.0829933 0.14673686
3.90119 1.0823741 0.1522411
3.9578323 1.0798714 0.14318246
3.9666188 1.0835977 0.17267257
4.0207725 1.0791801 0.14880508
4.0858626 1.0784647 0.15461984
4.1483684 1.0757743 0.14517592
3.3431389 1.1489853 0.14874575
3.3442965 1.1976629 0.14943473
3.345454 1.2463893 0.15012436
3.3466129 1.2951635 0.15081473
3.3474829 1.3317748 0.1513329
4.0906334 1.7052002 0.13255918
4.0944843 1.7522169 0.13340829
4.0983477 1.7993281 0.13425949
3.2583518 -2.4041181 0.16754898
3.2591581 -2.370204 0.16805373
3.2605028 -2.3136265 0.16889572
3.2618484 -2.2569854 0.16973871
3.2629259 -2.2116225 0.17041376
3.2640047 -2.1662159 0.17108956
3.2653546 -2.1093946 0.17193523
3.2667062 -2.0525095 0.17278183
3.2677886 -2.0069506 0.17345983
3.2689638 -1.9589952 0.16723122
3.2700186 -1.9155821 0.16324492
3.2711046 -1.8698919 0.16391939
3.2724628 -1.8127153 0.16476336
3.2738235 -1.7554744 0.16560832
3.2749126 -1.7096306 0.16628499
3.2760024 -1.6637427 0.1669623
3.2770941 -1.6178107 0.16764033
3.27846 -1.5603311 0.16848885
3.2798269 -1.502787 0.16933824
3.2809219 -1.4567 0.17001848
3.2817438 -1.422107 0.17052913
3.2822921 -1.3990301 0.17086975
3.2831151 -1.3643925 0.17138098
3.2842133 -1.3181721 0.17206329
3.2855878 -1.2603314 0.17291707
4.2180557 -1.2456185 0.20078312
3.300463 -1.2086964 0.15975983
3.6173739 -1.2276351 0.18979299
3.7170668 -1.2189919 0.1752383
3.8228064 -1.2098246 0.15980083
3.3420796 1.1121057 0.18405168
3.3847222 1.0990916 0.18901734
3.4928856 1.095003 0.1769004
3.5410712 1.0946206 0.1823106
3.5906937 1.0942265 0.1878821
3.641818 1.0938209 0.19362231
3.7410679 1.0894403 0.17778097
3.7968807 1.0889401 0.18362068
3.8544891 1.0884241 0.18964818
3.9139795 1.0878913 0.19587259
4.0298586 1.0829668 0.1788056
4.0952654 1.0823143 0.18514884
4.1629534 1.0816393 0.19171327
3.3429461 1.1485835 0.18458126
3.3441026 1.1972607 0.18528794
3.3452604 1.2459862 0.18599531
3.3464198 1.2947601 0.18670344
3.3472898 1.3313706 0.18723492
3.2581053 -2.4045899 0.21360226
3.2589107 -2.3706763 0.21412352
3.2602549 -2.3140996 0.21499296
3.261601 -2.2574601 0.21586345
3.2626781 -2.2120976 0.21656062
3.263757 -2.1666918 0.21725841
3.2651067 -2.1098714 0.21813171
3.2664583 -2.0529876 0.21900587
3.2675407 -2.0074296 0.21970598
3.2686241 -1.9618279 0.22040683
3.2697082 -1.9161825 0.22110833
3.2707939 -1.8704933 0.22181053
3.2721522 -1.813318 0.22268921
3.2735119 -1.7560785 0.22356887
3.274601 -1.7102358 0.22427343
3.2756913 -1.6643487 0.22497861
3.2767823 -1.6184177 0.22568454
3.2781477 -1.5609394 0.22656785
3.2795148 -1.5033966 0.22745219
3.2806101 -1.4573107 0.22816047
3.2814317 -1.4227184 0.22869211
3.2819798 -1.399642 0.22904676
3.2828026 -1.3650054 0.22957908
3.2839007 -1.3187859 0.23028935
3.2849994 -1.2725217 0.23100033
3.3497975 -1.2508333 0.22885771
3.4341657 -1.2435187 0.21654052
3.5232232 -1.2357976 0.20353849
3.8522882 -1.2709029 0.24513106
3.9665198 -1.2630063 0.23128082
4.088192 -1.2545955 0.21652859
3.4326715 1.2479271 0.27031627
3.6180995 1.2510178 0.27083415
3.8473699 1.2375239 0.27392223
4.0814333 1.2384965 0.27425504
3.4218817 1.2909416 0.26928383
3.6118321 1.2997231 0.2705605
3.8291941 1.2837551 0.27214432
4.0722022 1.2932426 0.27378592
3.4162927 1.3367867 0.2690284
3.6055865 1.3482609 0.27028778
3.8221524 1.3354158 0.27185139
4.0642128 1.3483472 0.27347004
3.4121127 1.371078 0.26883739
3.5993624 1.396632 0.27001607
3.8151362 1.3868876 0.27155945
4.0562553 1.4032375 0.27315548
3.5931592 1.444837 0.26974517
3.8064017 1.4509691 0.27119604
3.8098905 1.4253738 0.27134123
3.588521 1.4808874 0.26954266
3.8011806 1.4892684 0.27097881
3.7942412 1.5401797 0.27069005
3.7873271 1.5909064 0.2704024
3.257858 -2.4050617 0.2596544
3.2586639 -2.3711488 0.26019213
3.2600074 -2.3145728 0.26108915
3.2613533 -2.2579343 0.26198706
3.2624307 -2.2125726 0.26270625
3.263509 -2.1671679 0.26342607
3.2648587 -2.1103485 0.26432696
3.2662098 -2.0534656 0.26522872
3.2672925 -2.0079081 0.26595104
3.2683754 -1.9623075 0.26667398
3.26946 -1.9166628 0.2673977
3.2705452 -1.8709747 0.26812202
3.2719028 -1.8138002 0.26902851
3.2732627 -1.7565619 0.269936
3.2743518 -1.7107198 0.27066278
3.2754421 -1.6648337 0.27139023
3.2765326 -1.6189035 0.27211842
3.2778983 -1.5614262 0.27302969
3.2792652 -1.5038843 0.27394202
3.2803595 -1.4577993 0.27467269
3.2811813 -1.4232076 0.27522108
3.2817299 -1.4001317 0.27558699
3.2825525 -1.3654956 0.27613607
3.2836504 -1.3192769 0.27686882
4.0734835 -1.2820859 0.27323496
3.2889521 -1.2622617 0.27839738
3.4598811 -1.2614833 0.26912484
3.6408451 -1.271794 0.27020779
3.7448344 -1.2783308 0.25815949
3.847218 -1.2565095 0.27226794
4.0779524 -1.2535551 0.27414
3.2937107 -1.216629 0.27970222
3.366363 -1.2070223 0.27964282
3.4645691 -1.2254813 0.27025956
3.5165074 -1.210354 0.27825999
3.6460903 -1.2337893 0.27140787
3.6817446 -1.2140206 0.27673814
3.8644712 -1.2180754 0.27505523
4.082365 -1.2249436 0.27503881
3.6576986 -0.63448799 0.28016955
3.8621087 -0.63577873 0.28160071
4.0924044 -0.63723278 0.28321305
3.3049066 -0.62063062 0.2886827
3.4737015 -0.62093729 0.27883652
3.6547186 -0.60829991 0.280054
3.8587766 -0.60803145 0.281477
4.0886521 -0.6077289 0.28308007
3.3027594 -0.56191331 0.28905326
3.4683454 -0.57142347 0.27861986
3.6502581 -0.56910229 0.279881
3.8537893 -0.56650525 0.2812919
4.0830369 -0.5635801 0.28288111
3.3030362 -0.50317258 0.28980768
3.4630053 -0.52206063 0.27840394
3.6443264 -0.51697892 0.27965093
3.8471587 -0.51129436 0.28104582
4.0737104 -0.49024782 0.2825506
4.077436 -0.51953816 0.28268263
3.3041539 -0.4561182 0.29055363
3.4563544 -0.46057612 0.27813497
