# .PCD v0.7 - Point Cloud Data file format
VERSION 0.7
FIELDS x y z
SIZE 4 4 4
TYPE F F F
COUNT 1 1 1
WIDTH 1501
HEIGHT 1
VIEWPOINT 0 0 0 1 0 0 0
POINTS 1501
DATA ascii
3.9596362 -0.14555879 -0.584997
4.0537291 -0.16434647 -0.58395779
4.0557837 -0.13720201 -0.58292562
4.156342 -0.1423292 -0.58126724
4.2616491 -0.1621228 -0.58005887
4.375598 -0.15351309 -0.57765144
4.49542 -0.15962768 -0.57567543
3.6277728 -0.091409653 -0.5891003
3.7061143 -0.082526557 -0.58733737
3.7866511 -0.098291568 -0.5864377
3.8732672 -0.089124903 -0.58451253
3.9625907 -0.10591261 -0.58348906
4.0588684 -0.096451417 -0.58137584
4.1595631 -0.10042932 -0.57967305
4.2661386 -0.10463485 -0.57787037
4.3791237 -0.10909843 -0.57595938
4.4991188 -0.11383358 -0.57392985
3.6303053 -0.055574555 -0.58774
3.70962 -0.03353779 -0.58547693
3.790292 -0.048070088 -0.58452964
3.8770559 -0.037576638 -0.58255309
3.9665337 -0.052997593 -0.58147681
4.0629811 -0.042061437 -0.57930636
4.1627865 -0.05848458 -0.57807708
4.2706332 -0.047071133 -0.57567888
4.3826547 -0.064633369 -0.5742656
4.502821 -0.067996539 -0.5721826
3.7122517 0.0032380782 -0.58408046
3.7939372 0.0022090226 -0.58261937
3.8808475 0.014032423 -0.58059138
3.9704819 -1.8458813e-05 -0.57946193
4.0670986 0.012396324 -0.57723415
4.1670856 -0.0024990737 -0.57594579
4.2740088 -0.0038506426 -0.5740335
4.3873663 -0.0052793734 -0.57200456
4.5065269 -0.022105981 -0.57043326
3.7975867 0.052546177 -0.58070689
3.8846445 0.065702572 -0.57862735
3.9744349 0.053024914 -0.57744479
4.07019 0.053282019 -0.57567847
4.1713891 0.053558122 -0.57381165
4.2773838 0.039416816 -0.57238543
4.3909049 0.039286677 -0.5703069
4.5102382 0.02382743 -0.56868225
3.8003263 0.09033528 -0.5792712
3.8884456 0.11743373 -0.57666093
3.9783924 0.10613279 -0.57542509
4.0732841 0.094210252 -0.57412118
4.1746206 0.095645994 -0.57220936
4.281888 0.097170338 -0.57018536
4.3944445 0.083902985 -0.56860673
3.8912997 0.15627037 -0.5751847
3.9823551 0.15930502 -0.57340294
4.0774155 0.14883807 -0.57204241
4.1778545 0.13777876 -0.57060534
4.2852702 0.14053306 -0.56853348
4.3991671 0.14345841 -0.56633663
3.9853294 0.19922461 -0.57188481
4.0815511 0.20353401 -0.56996137
4.1821723 0.19401608 -0.56846422
4.2886558 0.18394358 -0.56687981
4.4027128 0.18817568 -0.56463212
4.1854138 0.23623919 -0.5668568
4.2931752 0.24188796 -0.56467253
4.4062624 0.23294371 -0.56292564
4.3781462 -2.9914002 -0.39065391
4.3747225 -2.9916372 -0.34469771
4.3730559 -2.993 -0.29910064
4.3708367 -2.9948163 -0.23834927
4.369173 -2.9961774 -0.19281925
4.3675108 -2.9975371 -0.14732267
4.3658495 -2.9988968 -0.10185294
4.3641896 -3.0002553 -0.056416467
4.3619785 -3.0020649 0.0041209906
4.380156 -3.0006907 0.04890278
3.0851476 0.0050687045 0.20649134
3.0787072 0.05247971 0.20921175
3.072304 0.099614128 0.21191633
3.0684817 0.1277537 0.21353093
4.3784847 -3.0020533 0.094465226
3.2076652 -0.90500915 0.20654279
3.2018754 -0.86236387 0.2088508
3.1946816 -0.80938661 0.21171801
3.1875327 -0.75673592 0.21456754
3.1776047 -0.68361557 0.2185249
3.1818492 -0.71487421 0.21683314
3.1733792 -0.65249354 0.22020926
3.167922 -0.61068761 0.21221191
3.1609519 -0.55935824 0.21502335
3.1540234 -0.50834024 0.21781775
3.1467144 -0.45324016 0.21271172
3.1390915 -0.39678779 0.21380554
3.1418178 -0.41686234 0.21269293
3.1336622 -0.3568109 0.21602124
3.1269107 -0.30709633 0.21877664
3.1202047 -0.2577208 0.22151324
3.113539 -0.2086391 0.2242336
3.1069188 -0.15989009 0.22693546
3.0977175 -0.092134863 0.23069075
3.1016493 -0.12108867 0.22908601
3.0924962 -0.053692266 0.23282142
3.0860085 -0.0059209615 0.2354691
3.0782752 0.051021393 0.23862512
3.0718741 0.098157153 0.24123758
3.0680521 0.12629732 0.24279723
4.3738322 -3.0072091 0.14995927
3.2070396 -0.90697855 0.24823748
3.201251 -0.86433232 0.25043446
3.1940613 -0.81135398 0.25316367
3.1869149 -0.75870204 0.25587609
3.1769905 -0.68558007 0.25964302
3.1812329 -0.71683937 0.25803268
3.1727662 -0.65445727 0.26124635
3.1673114 -0.61265051 0.25314277
3.1617727 -0.5613454 0.25579983
3.1535697 -0.50981051 0.24831702
3.193506 -0.51150733 0.2782515
3.1466913 -0.45914394 0.25099313
3.2252669 -0.46999735 0.27985406
3.2495334 -0.43828031 0.28107852
4.0036607 -0.49124506 0.2950806
3.1384921 -0.39874527 0.25418329
3.1412172 -0.41882035 0.25312299
3.274262 -0.40596125 0.28232628
4.0568604 -0.4368552 0.29741436
3.1330655 -0.3587673 0.25629488
3.3078649 -0.3620421 0.28402182
4.0977387 -0.39506254 0.29920757
3.1263161 -0.30905136 0.25892082
3.333554 -0.32846636 0.28531808
3.3509469 -0.30573416 0.2861957
4.1255307 -0.36664939 0.30042672
4.1537375 -0.33781129 0.30166411
3.1196132 -0.25967443 0.26152882
3.3774464 -0.27109945 0.28753281
4.1823702 -0.30853841 0.30292016
4.2114382 -0.27882099 0.30419528
3.1121249 -0.20482889 0.26642123
3.4134815 -0.2240019 0.28935111
4.2409496 -0.24864882 0.3054899
3.1058333 -0.15785307 0.26491135
3.4410489 -0.18797168 0.2907421
3.4597235 -0.16356416 0.29168439
4.2709169 -0.21801125 0.30680454
4.3013496 -0.18689756 0.30813956
3.0971341 -0.09408357 0.27027509
3.1010644 -0.12303817 0.26874575
3.4881921 -0.12635593 0.29312089
4.3322597 -0.15529646 0.30949548
3.0919147 -0.055639662 0.27230564
3.5269332 -0.075721979 0.29507568
4.3796058 -0.10689114 0.31157246
3.0854297 -0.0078668036 0.27482891
3.5666437 -0.023820363 0.29707944
4.4279633 -0.057451956 0.31369376
3.0772703 0.05107775 0.28530788
3.5970531 0.015924219 0.29861385
3.6176693 0.04286978 0.29965413
4.477632 -0.006673079 0.31587261
3.0711567 0.095729023 0.290097
3.4079311 0.094777793 0.30505264
3.6385503 0.070160106 0.3007077
3.659699 0.097801954 0.30177489
3.0673366 0.12387043 0.29156503
3.6811228 0.12580216 0.30285588
4.2954106 0.21493757 0.32776532
4.3920078 -3.0321016 0.19939175
3.6593375 -0.84326994 0.27997589
3.6809812 -0.8211419 0.28092539
3.714021 -0.78736353 0.28237474
3.759058 -0.74131864 0.28435043
3.8053198 -0.69402254 0.28637981
3.8528554 -0.64542329 0.28846508
3.9017198 -0.59546626 0.29060864
3.9519687 -0.54409385 0.29281294
3.0948062 -0.087856859 0.33999449
3.090898 -0.059046589 0.34138489
3.0844173 -0.01127119 0.34369057
3.0762932 0.049848538 0.33878714
3.0704401 0.09330143 0.33894548
3.2576597 0.063537359 0.32658455
3.0666218 0.12144412 0.34032199
3.6946239 0.12728757 0.32708174
3.1853693 -0.76361567 0.35911083
3.1763444 -0.69759399 0.36551863
3.1802158 -0.72506654 0.35740954
3.1712346 -0.65936494 0.36380294
3.1656327 -0.61804628 0.3656626
3.1586723 -0.5667122 0.36797303
3.1517544 -0.51568943 0.37026948
3.1445582 -0.46192375 0.36834523
3.1368446 -0.40412638 0.36518055
3.1395667 -0.42420295 0.36426389
3.1314237 -0.3641454 0.367006
3.1246822 -0.31442562 0.36927614
3.1179857 -0.26504484 0.3715308
3.1100049 -0.20619029 0.37421802
3.1034 -0.15747708 0.37644219
3.0955303 -0.099440247 0.37909204
3.0994565 -0.12839739 0.37776992
3.090317 -0.060993068 0.38084748
3.0838385 -0.013215983 0.38302892
3.0761156 0.043733183 0.38562912
3.0697227 0.090874538 0.3877815
3.0659065 0.11901832 0.38906649
3.3532758 -2.0107768 0.35873443
3.3466806 -1.9621106 0.36076653
3.3401229 -1.9137203 0.36278713
3.3336024 -1.865603 0.36479637
3.3271189 -1.8177564 0.36679429
3.3206708 -1.7701783 0.36878094
3.3142593 -1.7228665 0.37075657
3.3078837 -1.6758187 0.37272108
3.3015435 -1.629033 0.37467468
3.2938349 -1.5704341 0.36625901
3.2860115 -1.512705 0.36870712
3.2797923 -1.4668187 0.370653
3.2736073 -1.4211844 0.37258819
3.2674568 -1.3758005 0.37451279
3.2624271 -1.3309884 0.37645185
3.3128006 -1.3131959 0.37910885
3.3654757 -1.3060811 0.38134271
3.4201198 -1.2987 0.38366011
3.476846 -1.2910376 0.38606581
3.5357759 -1.2830778 0.38856497
3.5970399 -1.2748027 0.39116311
3.6602256 -1.265445 0.38164967
3.7265692 -1.2564667 0.38421172
3.7957053 -1.2471104 0.38688171
3.8678157 -1.2373518 0.38966653
3.9430947 -1.2271641 0.39257371
4.0217581 -1.2165188 0.39561158
4.1040387 -1.2053841 0.39878914
4.1894174 -1.1928718 0.38789532
4.2796798 -1.1806337 0.39103934
4.3743982 -1.1677912 0.39433864
3.1847515 -0.76558048 0.40039009
3.1762521 -0.70286411 0.40304971
3.1804919 -0.73415345 0.40172279
3.1706226 -0.66132724 0.40481114
3.1650229 -0.62000769 0.40656334
3.1580653 -0.56867236 0.40874028
3.1511497 -0.51764822 0.41090405
3.1442826 -0.46697646 0.41305292
3.136096 -0.40657139 0.41561449
3.1388175 -0.42664859 0.41476309
3.130677 -0.3665891 0.41731
3.1239388 -0.31686747 0.41941851
3.1172464 -0.26748496 0.42151272
3.1092696 -0.20862831 0.42400861
3.1026671 -0.15991329 0.42607445
3.0948012 -0.10187422 0.4285357
3.098726 -0.13083248 0.42730767
3.0895908 -0.063425519 0.43016618
3.0831151 -0.015646683 0.43219233
3.0753965 0.041304883 0.43460745
3.0690064 0.088448241 0.43660659
3.0651917 0.11659306 0.43780017
3.4034312 -2.3862805 0.37722468
3.396548 -2.3354716 0.37924719
3.3897042 -2.2849567 0.38125801
3.3829005 -2.2347329 0.38325724
3.3744495 -2.1723497 0.38574052
3.3778219 -2.1972454 0.3847495
3.3694088 -2.1351492 0.38722137
3.3627214 -2.0857837 0.38918644
3.3544176 -2.0244875 0.39162642
3.3461685 -1.9635968 0.3940503
3.3396132 -1.9152061 0.39597654
3.3330939 -1.8670884 0.39789194
3.3266125 -1.8192415 0.39979658
3.3201668 -1.7716632 0.40169048
3.3137572 -1.7243512 0.40357387
3.3073835 -1.6773031 0.40544665
3.3010454 -1.6305166 0.40730906
3.2931733 -1.5724121 0.40962201
3.2853525 -1.5146821 0.41192007
3.2791359 -1.4687953 0.41374665
3.272954 -1.4231604 0.41556323
3.2668049 -1.3777757 0.41736984
3.2629294 -1.333307 0.41925132
3.3145223 -1.3159016 0.4227128
3.3672671 -1.3088307 0.42574918
3.4219873 -1.3014956 0.42889911
3.4787936 -1.2938807 0.43216926
3.5378075 -1.2859696 0.43556643
3.5991597 -1.2777447 0.43909818
3.6624396 -1.2684385 0.43054283
3.7283075 -1.2587523 0.42162967
3.7975252 -1.2494383 0.4250896
3.8697202 -1.2397227 0.42869848
3.9450905 -1.2295802 0.43246603
4.0238509 -1.218981 0.43640304
4.1062341 -1.2078948 0.44052118
4.1924949 -1.196286 0.44483316
4.2829161 -1.1841172 0.4493531
4.376956 -1.170458 0.43914211
3.2227414 -1.0575017 0.46168774
3.2168641 -1.0141038 0.46333075
3.2197988 -1.0357736 0.46251029
3.2110209 -0.97095704 0.46496409
3.6187887 -0.96866751 0.46658874
3.6485262 -0.9975245 0.46688235
3.2037549 -0.91731095 0.466995
3.5610063 -0.9125948 0.46601826
3.5896211 -0.94036293 0.46630073
3.1979785 -0.87466013 0.46860963
3.5053737 -0.85860878 0.46546894
3.5329292 -0.88534832 0.46574104
3.1908026 -0.8216759 0.47061551
3.478327 -0.83236229 0.46520191
3.1839805 -0.76803589 0.45197701
3.1754844 -0.70531768 0.45443285
3.1797225 -0.73660791 0.45320767
3.1698573 -0.66377968 0.45605934
3.1642604 -0.62245893 0.4576773
3.1573062 -0.57112193 0.45968753
3.1503949 -0.5200963 0.46168554
3.1435306 -0.46942285 0.46366978
3.1353483 -0.40901574 0.46603519
3.1380672 -0.42909363 0.46524894
3.1299314 -0.36903203 0.46760076
3.1231968 -0.31930879 0.46954775
3.1165066 -0.26992446 0.47148156
3.1085341 -0.21106577 0.47378623
3.1019349 -0.16234888 0.47569388
3.0940726 -0.10430762 0.47796661
3.0979958 -0.13326697 0.47683263
3.0888646 -0.065857433 0.47947216
3.082392 -0.01807663 0.48134315
3.074677 0.038877245 0.48357326
3.0682902 0.086022422 0.48541927
3.0637727 0.11860162 0.49156988
3.4027262 -2.3882642 0.42269337
3.3958466 -2.337455 0.42458385
3.3890054 -2.2869399 0.42646343
3.3822043 -2.2367158 0.42833215
3.3737564 -2.1743326 0.43065333
3.3771284 -2.1992285 0.42972696
3.3687189 -2.1371315 0.43203747
3.3620336 -2.0877659 0.43387425
3.3537328 -2.026469 0.43615496
3.3454869 -1.9655782 0.43842059
3.3389342 -1.9171871 0.44022107
3.332418 -1.8690691 0.44201148
3.3259385 -1.8212217 0.44379175
3.3194954 -1.7736429 0.44556201
3.312669 -1.7242682 0.45396674
3.3065507 -1.6797765 0.45997763
3.3002152 -1.6329895 0.4616881
3.2923474 -1.5748841 0.46381235
3.2845306 -1.5171531 0.46592283
3.2783177 -1.4712657 0.46760041
3.2721376 -1.42563 0.4692688
3.2659926 -1.3802446 0.47092801
3.2551563 -1.3019015 0.48446941
3.2609153 -1.3354161 0.47262877
3.3158126 -1.3179325 0.4554559
3.2506149 -1.268355 0.48567408
3.2898934 -1.2777537 0.45569181
3.246129 -1.2237061 0.47673398
3.7300363 -1.2610379 0.45908916
3.7993317 -1.2517651 0.46334076
3.8716111 -1.2420931 0.46777546
3.23875 -1.1790506 0.47828335
3.8398931 -1.1832275 0.46877176
3.8741252 -1.216447 0.46910971
3.2313015 -1.1240427 0.48029429
3.789938 -1.1347511 0.46827853
4.3786526 -1.1722362 0.46905071
3.2241318 -1.0717555 0.48641366
3.7413242 -1.0875762 0.46779853
3.2163913 -1.0155804 0.49475086
3.2193255 -1.0372504 0.49397272
3.6943126 -1.0419559 0.46733439
3.2105498 -0.97243303 0.49630028
3.2032862 -0.91878605 0.49822664
3.1975117 -0.87613451 0.49975818
3.1903386 -0.8231495 0.50166082
3.1832082 -0.77049071 0.50355172
3.1747165 -0.70777071 0.50580394
3.1789532 -0.73906195 0.50468028
3.1690931 -0.66623151 0.50729555
3.1634986 -0.62490952 0.50877941
3.156548 -0.57357103 0.51062286
3.1496394 -0.52254361 0.51245517
3.1427784 -0.4718686 0.5142749
3.1346002 -0.41145951 0.51644415
3.1373184 -0.43153811 0.51572311
3.1291866 -0.37147444 0.51787996
3.1224542 -0.32174951 0.51966554
3.1157677 -0.27236348 0.52143896
3.1077983 -0.21350256 0.52355254
3.1012027 -0.1647839 0.52530199
3.0946517 -0.11639397 0.52703965
3.0877919 -0.066662669 0.53474641
3.0815248 -0.020991853 0.54030889
3.0738142 0.035964657 0.54231715
3.067431 0.08311221 0.54397953
3.0623541 0.12061118 0.54530168
3.4020226 -2.3902476 0.46815205
3.3951452 -2.3394382 0.4699105
3.3883073 -2.288923 0.47165883
3.3815091 -2.238699 0.47339714
3.373064 -2.1763153 0.47555625
3.3764343 -2.2012115 0.47469455
3.3678563 -2.1396096 0.48804325
3.3611748 -2.0902438 0.48971981
3.3528781 -2.0289464 0.49180144
3.3446367 -1.9680548 0.49386942
3.3380866 -1.9196633 0.49551284
3.331574 -1.8715447 0.49714696
3.3250976 -1.8236969 0.49877191
3.3186579 -1.7761173 0.50038779
3.3125064 -1.7313614 0.50628465
3.3057191 -1.6822497 0.51449502
3.2993872 -1.6354619 0.51605362
3.291523 -1.5773557 0.51798922
3.2837102 -1.5196239 0.51991236
3.2774994 -1.4737357 0.52144092
3.271323 -1.4280993 0.52296114
3.2651808 -1.382713 0.52447301
3.2545114 -1.3038749 0.52709931
3.2590721 -1.3375747 0.52597666
3.2499712 -1.2703279 0.52821678
3.2439451 -1.225801 0.52970004
3.2379518 -1.181515 0.53117526
3.2305071 -1.1265059 0.53300774
3.223109 -1.0718417 0.53482866
3.2157614 -1.0175488 0.53663725
3.2186937 -1.0392194 0.53591537
3.2099218 -0.97440064 0.53807461
3.2026615 -0.92075258 0.53986174
3.1968889 -0.87810034 0.54128253
3.1897182 -0.82511407 0.54304755
3.1825917 -0.77245408 0.54480183
3.1739495 -0.7102232 0.55716121
3.178184 -0.74151516 0.55613917
3.1683283 -0.66868269 0.55851805
3.1627364 -0.62735945 0.5598678
3.1557891 -0.57601935 0.56154466
3.1488836 -0.5249905 0.56321138
3.1420264 -0.47431374 0.56486666
3.1352108 -0.4239423 0.56651193
3.1284406 -0.37391621 0.56814593
3.121712 -0.3241896 0.56977016
3.1150291 -0.27480179 0.5713833
3.1070638 -0.21593875 0.5733059
3.1004708 -0.1672183 0.57489723
3.0939221 -0.11882645 0.57647783
3.0876141 -0.072831705 0.58192623
3.0808022 -0.023420598 0.58943439
3.0730951 0.033538219 0.59125793
3.0667145 0.080687702 0.59276718
3.0616405 0.11818808 0.59396774
3.4011436 -2.3927259 0.52496052
3.394269 -2.3419166 0.52655417
3.3874342 -2.2914009 0.52813858
3.3806398 -2.2411764 0.52971381
3.3721993 -2.178793 0.53167045
3.3755674 -2.2036889 0.53088957
3.3669934 -2.1420865 0.54403472
3.3603153 -2.0927205 0.545551
3.3520231 -2.0314226 0.54743373
3.343785 -1.9705306 0.54930413
3.337239 -1.9221386 0.55079055
3.330729 -1.8740196 0.55226856
3.3242564 -1.8261712 0.55373824
3.3178196 -1.7785913 0.55519962
3.3114192 -1.7312775 0.55665296
3.3050542 -1.6842276 0.55809808
3.2987244 -1.6374396 0.55953521
3.2908638 -1.5793325 0.56132001
3.2830534 -1.5216 0.56309325
3.2768452 -1.475711 0.56450278
3.2706718 -1.4300742 0.56590456
3.2645321 -1.3846871 0.56729865
3.2538664 -1.305848 0.56972021
3.258425 -1.3395482 0.56868511
3.2493279 -1.2723005 0.57075071
3.2429075 -1.2258482 0.5785439
3.2371535 -1.1839786 0.58405268
3.2297125 -1.1289684 0.58570665
3.2223179 -1.074303 0.58735025
3.2149744 -1.0200089 0.5889827
3.2179055 -1.0416799 0.58833116
3.2091374 -0.97685963 0.59028006
3.2018807 -0.92321026 0.5918932
3.196111 -0.88055676 0.59317565
3.1889436 -0.82756913 0.59476882
3.1818206 -0.77490771 0.59635216
3.1731825 -0.71267498 0.60850638
3.1774154 -0.74396789 0.60758585
3.1675637 -0.67113334 0.60972846
3.1619751 -0.62980884 0.61094421
3.1550307 -0.57846713 0.61245453
3.148129 -0.52743661 0.6139558
3.1412747 -0.47675833 0.61544669
3.1344616 -0.42638525 0.61692858
3.1276956 -0.37635744 0.61840034
3.12097 -0.32662916 0.61986321
3.1142898 -0.27723956 0.62131619
3.106329 -0.21837437 0.62304801
3.0997388 -0.1696521 0.62448126
3.0930476 -0.12174477 0.63578844
3.0865421 -0.073635526 0.63717252
3.0800793 -0.025848776 0.63854736
3.0723763 0.031112436 0.64018607
3.0659988 0.078263789 0.64154249
3.0609269 0.11576582 0.6426214
3.4002635 -2.3952034 0.58175427
3.3933933 -2.3443937 0.58318305
3.3865619 -2.2938783 0.58460367
3.37977 -2.2436538 0.586016
3.3713343 -2.1812696 0.58777028
3.3747003 -2.2061658 0.58707017
3.3663032 -2.1440678 0.5888164
3.359628 -2.0947015 0.5902046
3.3513391 -2.0334032 0.59192836
3.3431048 -1.9725107 0.59364074
3.3365607 -1.9241185 0.59500152
3.330054 -1.8759991 0.59635466
3.3235838 -1.8281503 0.59770024
3.3171492 -1.7805699 0.59903824
3.310751 -1.7332556 0.60036868
3.3043883 -1.6862053 0.60169178
3.2980618 -1.6394167 0.60300756
3.2896891 -1.5787821 0.61283875
3.2822332 -1.5240695 0.61705613
3.2760284 -1.4781798 0.61831683
3.2698572 -1.4325421 0.61957055
3.2637208 -1.3871543 0.62081748
3.2530599 -1.3083137 0.6229834
3.2576175 -1.3420146 0.62205762
3.2485247 -1.2747654 0.623905
3.2427392 -1.2326545 0.62930483
3.2363558 -1.1864419 0.63691729
3.2289183 -1.1314303 0.63839287
3.2215273 -1.0767637 0.63985926
3.2141869 -1.0224683 0.6413157
3.2171168 -1.0441399 0.64073437
3.2083533 -0.97931796 0.6424731
3.2010999 -0.92566729 0.6439122
3.1953332 -0.88301277 0.64505643
3.1881692 -0.83002371 0.64647782
3.1810498 -0.77736092 0.64789045
3.172569 -0.71463597 0.64957291
3.1767998 -0.7459296 0.6487335
3.1669528 -0.67309332 0.65068722
3.1613655 -0.63176787 0.65179574
3.154273 -0.58091432 0.66335088
3.1473742 -0.52988225 0.66468668
3.1405239 -0.47920227 0.66601336
3.1337137 -0.42882752 0.66733199
3.1269507 -0.37879807 0.66864145
3.1202281 -0.32906801 0.66994321
3.1135516 -0.27967671 0.67123604
3.1055939 -0.22080947 0.672777
3.0990074 -0.17208533 0.67405236
3.0923197 -0.12417614 0.68520105
3.0858164 -0.076065026 0.6864292
3.0793574 -0.028276341 0.68764913
3.0716572 0.028687108 0.68910331
3.0652828 0.075840503 0.69030684
3.0602136 0.11334401 0.69126427
3.39956 -2.3971848 0.62717748
3.3926916 -2.3463755 0.62847453
3.3858631 -2.2958596 0.62976408
3.3790743 -2.2456353 0.63104612
3.371706 -2.1917143 0.6361708
3.374181 -2.2076511 0.62077111
3.3656132 -2.1460485 0.63358825
3.3589406 -2.0966818 0.63484842
3.3506546 -2.0353832 0.63641328
3.3424237 -1.9744904 0.63796765
3.3340828 -1.9145286 0.65055221
3.3364828 -1.9299542 0.63541985
3.3289526 -1.8758754 0.64709812
3.3227429 -1.8306233 0.65263891
3.3163111 -1.7830423 0.65382272
3.3099163 -1.7357277 0.65499985
3.3035576 -1.6886766 0.65617037
3.2972336 -1.6418873 0.65733433
3.2897332 -1.5873722 0.66488004
3.2814126 -1.5265385 0.67100561
3.2752111 -1.4806478 0.67211753
3.2690432 -1.4350095 0.67322344
3.2629092 -1.3896208 0.6743232
3.2522542 -1.3107787 0.67623365
3.2568088 -1.3444803 0.67541701
3.2477202 -1.2772299 0.67704654
3.2417026 -1.2327005 0.6781255
3.2357173 -1.1884118 0.67919862
3.2282829 -1.1333995 0.68053168
3.2208955 -1.0787319 0.68185633
3.2135572 -1.0244353 0.68317199
3.216486 -1.0461072 0.68264681
3.2072446 -0.97896057 0.69210327
3.2003193 -0.92812371 0.69591719
3.1945555 -0.88546795 0.69692308
3.1873949 -0.83247751 0.69817269
3.1802788 -0.77981329 0.69941479
3.1718025 -0.71708661 0.700894
3.1760311 -0.74838114 0.70015597
3.1661885 -0.67554277 0.70187366
3.1606042 -0.63421607 0.70284832
3.1535149 -0.58336091 0.71423542
3.1466198 -0.53232718 0.71540588
3.1397722 -0.48164567 0.71656823
3.1329658 -0.4312692 0.71772373
3.1262059 -0.38123813 0.71887112
3.1194868 -0.33150634 0.72001171
3.1128128 -0.28211334 0.7211445
3.1048589 -0.22324389 0.72249478
3.0979254 -0.17286742 0.72959906
3.0915909 -0.12660672 0.73460102
3.0850916 -0.078493834 0.73567325
3.0786347 -0.030703282 0.73673844
3.0709388 0.026262444 0.73800802
3.0645671 0.073417708 0.73905879
3.0595002 0.11092286 0.73989475
3.3988562 -2.3991661 0.67259055
3.3919911 -2.3483562 0.67375582
3.3851657 -2.2978404 0.67491442
3.3783793 -2.2476151 0.67606634
3.3716319 -2.1976793 0.67721152
3.364924 -2.1480289 0.67835027
3.3578179 -2.0964973 0.6862281
3.3507922 -2.0446956 0.68867773
3.3427625 -1.9862046 0.69593436
3.3334055 -1.9165071 0.6947096
3.3366652 -1.9406352 0.69417185
3.3287907 -1.8830479 0.69986272
3.3219013 -1.8330958 0.70756376
3.3154736 -1.7855141 0.70859343
3.3090827 -1.7381989 0.70961714
3.302726 -1.6911472 0.71063536
3.2964058 -1.6443576 0.71164787
3.2885556 -1.5862479 0.71290517
3.2807567 -1.5285131 0.7141546
3.2745574 -1.482622 0.71514755
3.2683921 -1.4369829 0.71613514
3.2622602 -1.3915935 0.71711731
3.2516098 -1.3127503 0.71882337
3.2561626 -1.3464524 0.71809411
3.2466798 -1.277264 0.72596765
3.2409024 -1.2351632 0.73110795
3.23492 -1.1908739 0.7320376
3.2274888 -1.1358601 0.73319244
3.2201052 -1.0811913 0.73434007
3.2127709 -1.0268936 0.73547983
3.2156982 -1.0485662 0.73502493
3.2072678 -0.98709893 0.74227858
3.1995389 -0.93057948 0.74790967
3.1937778 -0.8879227 0.74877745
3.1866212 -0.8349309 0.74985552
3.179508 -0.78226525 0.75092697
3.171036 -0.71953666 0.75220299
3.1752627 -0.75083214 0.75156635
3.1654248 -0.67799169 0.75304818
3.1598432 -0.63666379 0.75388896
3.1529086 -0.58531767 0.75493354
3.145865 -0.53477156 0.76611155
3.1390209 -0.48408833 0.76710981
3.1322176 -0.43371028 0.76810211
3.1254613 -0.38367748 0.76908755
3.1187449 -0.33394399 0.77006716
3.1120746 -0.28454918 0.77104002
3.1041248 -0.22567768 0.77219963
3.0977485 -0.17908706 0.77708191
3.090863 -0.12903695 0.78398979
3.0843663 -0.080922142 0.78490621
3.0779121 -0.033129711 0.78581667
3.0702205 0.023838412 0.78690183
3.0638525 0.070995495 0.78779989
3.0587878 0.10850218 0.78851432
3.3981528 -2.4011467 0.7179935
3.3912899 -2.3503368 0.7190271
3.3844676 -2.2998209 0.72005475
3.3775101 -2.2500906 0.73232698
3.3707674 -2.2001541 0.73331046
3.3640616 -2.1505034 0.73428845
3.3576584 -2.1037955 0.73967087
3.350595 -2.0525448 0.74735028
3.342365 -1.9915934 0.7485112
3.3325591 -1.9189799 0.74989438
3.3358176 -1.9431083 0.74943471
3.3276904 -1.8829234 0.75058109
3.3212295 -1.8350732 0.75149262
3.3148043 -1.7874912 0.75239897
3.3084152 -1.7401754 0.75330025
3.3020618 -1.6931235 0.75419652
3.2957432 -1.646333 0.75508779
3.2878969 -1.5882229 0.75619459
3.2796915 -1.5284826 0.7638036
3.2737398 -1.4850889 0.76892191
3.2675784 -1.4394488 0.76976168
3.2614496 -1.3940591 0.77059692
3.2508037 -1.3152143 0.7720477
3.2553544 -1.348917 0.77142751
3.2465115 -1.284094 0.77686977
3.2401021 -1.2376256 0.78407764
3.2341225 -1.1933352 0.78486395
3.2266955 -1.1383202 0.78584057
3.2193146 -1.0836501 0.78681117
3.2119842 -1.0293512 0.78777516
3.2149096 -1.0510242 0.78739035
3.2061582 -0.98619795 0.78854126
3.198915 -0.93254358 0.7894938
3.1931558 -0.88988596 0.79025114
3.1855295 -0.83461815 0.79898298
3.1787374 -0.78471637 0.80242521
3.1702697 -0.72198611 0.80349827
3.1744945 -0.75328249 0.8029629
3.1646612 -0.68043989 0.80420893
3.1590822 -0.6391108 0.8049159
3.1521511 -0.58776307 0.8057943
3.1451111 -0.53721535 0.81680548
3.1382701 -0.48653048 0.81763971
3.1314702 -0.43615082 0.81846893
3.1247168 -0.38611636 0.81929243
3.1180038 -0.33638114 0.82011104
3.1113369 -0.28698456 0.8209241
3.102951 -0.22552776 0.82619214
3.0966671 -0.17986768 0.83260036
3.0901351 -0.13146648 0.83336562
3.0836411 -0.083349869 0.83412653
3.0771906 -0.035555523 0.83488232
3.0695021 0.021414857 0.83578312
3.0631368 0.068573982 0.8365286
3.0540097 0.13312939 0.85696876
3.058075 0.1060822 0.83712161
3.3972743 -2.4036214 0.77473235
3.3904145 -2.3528123 0.77560157
3.3835955 -2.3022954 0.77646565
3.376642 -2.2525656 0.78857321
3.3699019 -2.2026286 0.78939521
3.3631999 -2.1529775 0.79021233
3.3565366 -2.10361 0.7910248
3.349911 -2.0545237 0.79183275
3.3416841 -1.9935718 0.79283589
3.3318825 -1.9209577 0.79403096
3.3351393 -1.9450862 0.79363394
3.3270159 -1.8849008 0.79462445
3.3205566 -1.8370502 0.79541194
3.3141346 -1.7894678 0.79619509
3.3073299 -1.7400887 0.80355811
3.3012309 -1.695593 0.80863428
3.2949157 -1.6488019 0.80937403
3.2870729 -1.5906909 0.81029284
3.2795258 -1.5354527 0.81547892
3.2729237 -1.4875553 0.82268286
3.2667644 -1.4419146 0.82337505
3.2606392 -1.3965238 0.8240633
3.2515135 -1.3289019 0.82508862
3.2560661 -1.362636 0.82457721
3.2454715 -1.284127 0.82576764
3.2394617 -1.2395948 0.82644296
3.2334847 -1.1953036 0.82711458
3.2260602 -1.1402878 0.82794887
3.2185242 -1.0861086 0.83926785
3.2111976 -1.0318081 0.84005612
3.2141223 -1.0534817 0.83974153
3.205375 -0.9886539 0.84068257
3.1981354 -0.93499827 0.8414616
3.1923792 -0.89233953 0.84208083
3.1855478 -0.84264559 0.84870565
3.1779673 -0.78716689 0.85391122
3.1695037 -0.72443497 0.85478145
3.1737261 -0.75573218 0.85434741
3.1638982 -0.68288755 0.85535777
3.1583221 -0.64155716 0.85593098
3.1513937 -0.59020805 0.8566432
3.1445081 -0.53916985 0.85735118
3.1372159 -0.48632213 0.86566091
3.1307225 -0.43859068 0.86882246
3.1239729 -0.38855448 0.86948413
3.1172631 -0.3388176 0.8701418
3.1105988 -0.28941935 0.87079513
3.1029494 -0.23310788 0.87402195
3.0959363 -0.18229851 0.88212168
3.089407 -0.13389535 0.88273042
3.0829165 -0.08577688 0.88333571
3.0764692 -0.037980795 0.88393682
3.0687842 0.018991828 0.88465345
3.0622795 0.065668926 0.89498806
3.0534403 0.13119502 0.89576972
3.0572193 0.10317896 0.89543551
3.3963945 -2.406096 0.8314566
3.389539 -2.3552866 0.83216137
3.3827236 -2.30477 0.83286202
3.3759465 -2.2545443 0.83355862
3.36921 -2.2046072 0.83425122
3.3625104 -2.1549561 0.83494002
3.3558502 -2.1055884 0.83562464
3.349227 -2.0565019 0.8363055
3.3410034 -1.9955496 0.83715087
3.3310368 -1.9234291 0.84918785
3.3344612 -1.9470638 0.83782351
3.3261724 -1.887372 0.84966469
3.3197172 -1.8395208 0.85029739
3.313298 -1.7919381 0.85092664
3.3071661 -1.7471778 0.85588384
3.3004005 -1.6980619 0.86305863
3.2923496 -1.6400982 0.87463927
3.2946684 -1.6549941 0.85998297
3.2862499 -1.5931585 0.86437786
3.2784617 -1.535421 0.86510396
3.2722712 -1.4895279 0.86568111
3.2661138 -1.4438865 0.8662551
3.2599912 -1.398495 0.866826
3.2504699 -1.3289226 0.87408733
3.2554193 -1.3646066 0.86725223
3.244669 -1.2865889 0.87885571
3.2386615 -1.242056 0.8793869
3.2326872 -1.1977639 0.8799153
3.2252672 -1.1427469 0.88057154
3.2177353 -1.0885661 0.89171189
3.2104118 -1.0342647 0.89232469
3.2133348 -1.0559386 0.89208019
3.204592 -0.99110931 0.8928116
3.197355 -0.93745226 0.89341694
3.191602 -0.89479244 0.89389837
3.1844544 -0.84179664 0.89449632
3.1773512 -0.78912693 0.89509052
3.1697545 -0.73483014 0.90853602
3.1732655 -0.75720173 0.88517183
3.1631351 -0.68533456 0.90649283
3.1575613 -0.64400297 0.90693253
3.1506367 -0.59265226 0.90747857
3.143754 -0.54161257 0.90802151
3.1372228 -0.49409264 0.91429776
3.1299753 -0.44103 0.91916442
3.1232285 -0.39099211 0.91966426
3.1165218 -0.34125358 0.92016131
3.1098614 -0.29185355 0.92065471
3.1014826 -0.23089546 0.92871159
3.0952058 -0.18472859 0.93163019
3.0886796 -0.13632359 0.93208247
3.0821922 -0.088203385 0.93253213
3.0757482 -0.04040543 0.93297875
3.0680661 0.016569447 0.9335112
3.0615644 0.0632485 0.94369197
3.0527298 0.12877738 0.94426161
3.0565071 0.10076012 0.94401807
3.3956916 -2.4080753 0.87682414
3.3888395 -2.357265 0.87739742
3.3820267 -2.3067491 0.87796748
3.3752527 -2.2565231 0.87853414
3.3685174 -2.2065856 0.87909752
3.3618212 -2.1569343 0.8796578
3.3551633 -2.1075664 0.88021481
3.3483722 -2.0589743 0.89188248
3.340153 -1.9980212 0.89253056
3.3301909 -1.9259001 0.90433079
3.3336143 -1.949535 0.89304638
3.3253291 -1.8898425 0.90469098
3.3188777 -1.8419909 0.90516907
3.3124614 -1.7944077 0.90564442
3.3060808 -1.7470902 0.90611708
3.2997365 -1.7000363 0.90658712
3.2918541 -1.6415788 0.90717107
3.2950003 -1.6649097 0.90693802
3.2855909 -1.5951318 0.90763509
3.2778058 -1.5373938 0.90821183
3.2714543 -1.491993 0.91941571
3.2653005 -1.4463507 0.91984212
3.259181 -1.4009587 0.92026627
3.2503014 -1.3357763 0.9251315
3.2546117 -1.3670697 0.92058283
3.243866 -1.2890502 0.93193072
3.2378621 -1.2445165 0.93231797
3.2318909 -1.2002236 0.93270326
3.224474 -1.1452051 0.9331817
3.2171035 -1.0905318 0.93365717
3.2097833 -1.036229 0.93412948
3.2127054 -1.0579035 0.93394095
3.2034836 -0.99020904 0.9389919
3.1965754 -0.93990558 0.94535828
3.1908252 -0.89724469 0.94570172
3.1836815 -0.84424764 0.94612849
3.1765811 -0.79157639 0.94655246
3.1693785 -0.7397638 0.95723104
3.1623719 -0.68778098 0.95761597
3.156801 -0.64644819 0.95792198
3.1498797 -0.59509593 0.95830226
3.1430004 -0.54405457 0.95868021
3.1357148 -0.49068782 0.96339864
3.1292288 -0.4434686 0.96949303
3.1224847 -0.39342913 0.96983135
3.1157815 -0.34368885 0.97016746
3.1091235 -0.29428715 0.97050136
3.1014814 -0.23847924 0.97655123
3.094475 -0.18715821 0.98112756
3.0879519 -0.13875143 0.98142338
3.0814674 -0.090629347 0.98171747
3.0750265 -0.042829502 0.98200977
3.0672052 0.013663389 0.99212551
3.0608497 0.060828719 0.99238336
3.0520196 0.12636027 0.99274141
3.0557945 0.098341927 0.99258822
3.3949888 -2.410054 0.92218167
3.3881395 -2.3592436 0.92262357
3.3813291 -2.3087273 0.92306286
3.3745584 -2.2585015 0.9234997
3.3673868 -2.2063706 0.93067503
3.3609602 -2.1594067 0.93554085
3.3543055 -2.1100385 0.93593818
3.3475177 -2.0614455 0.94744498
3.3393025 -2.0004921 0.94789636
3.3295147 -1.9278764 0.94843394
3.3327668 -1.9520056 0.94825548
3.3246555 -1.8918185 0.94870108
3.3182056 -1.8439667 0.94905531
3.3117919 -1.7963827 0.94940758
3.3054147 -1.7490647 0.94975805
3.2990723 -1.7020105 0.95010632
3.2910278 -1.6440456 0.96137929
3.2941723 -1.667377 0.96122169
3.2847679 -1.5975981 0.96169323
3.2769868 -1.5398591 0.96208352
3.2706385 -1.4944575 0.97313714
3.2644877 -1.4488146 0.97341603
3.2583704 -1.4034216 0.97369343
3.249258 -1.3357961 0.97410679
3.2538037 -1.369532 0.97390056
3.2432234 -1.2910187 0.97438043
3.2372227 -1.2464843 0.97465259
3.2312539 -1.2021906 0.97492331
3.223681 -1.1476629 0.98577726
3.2163138 -1.0929881 0.98607606
3.2101023 -1.0475509 0.99051011
3.2122328 -1.0593771 0.9653312
3.2035058 -0.99834007 0.98919547
3.1957963 -0.94235837 0.99728721
3.1900489 -0.89969641 0.99749297
3.1829085 -0.84669781 0.9977482
3.1758115 -0.79402536 0.99800211
3.1687653 -0.74172169 0.9982543
3.1613915 -0.68795902 1.0046432
3.1560409 -0.64889276 1.008898
3.1491222 -0.59753889 1.0091122
3.1422467 -0.54649609 1.0093254
3.135721 -0.49845284 1.0120471
3.1284811 -0.44590676 1.0198102
3.1217413 -0.39586556 1.0199866
3.115041 -0.34612358 1.0201622
3.1083865 -0.29672015 1.0203366
3.1000156 -0.23575744 1.0279937
3.0922902 -0.18035847 1.0405297
3.0944719 -0.19420157 1.0256531
3.0872247 -0.14117864 1.0307516
3.0807436 -0.093054667 1.0308903
3.0743051 -0.045252942 1.0310282
3.0664876 0.011242323 1.0409585
3.0601351 0.058409642 1.0410639
3.0513096 0.12394387 1.0412103
3.0550828 0.095924258 1.0411476
3.3942859 -2.4120321 0.96752894
3.3874393 -2.3612218 0.96783954
3.3804574 -2.3111994 0.97941756
3.3736901 -2.2609732 0.97969216
3.3672283 -2.2137234 0.98443031
3.3600996 -2.1618781 0.99140954
3.3534482 -2.11251 0.99164736
3.3468342 -2.0634222 0.99188393
3.3386228 -2.0024686 0.99217772
3.3288388 -1.9298522 0.99252772
3.3320897 -1.9539816 0.99241143
3.323981 -1.8937939 0.99270153
3.3175337 -1.8459418 0.99293214
3.3109558 -1.7988509 1.0040981
3.3045812 -1.7515326 1.0042955
3.2982426 -1.7044778 1.0044919
3.2902019 -1.6465117 1.0155741
3.293345 -1.6698434 1.0154918
3.2839451 -1.6000637 1.015738
3.2761679 -1.5423238 1.0159416
3.2699857 -1.4964285 1.0161036
3.2638376 -1.450785 1.0162646
3.2577229 -1.4053915 1.0164248
3.2484522 -1.3382571 1.0273007
3.2531579 -1.3715014 1.0165443
3.2424214 -1.2934791 1.0274297
3.2364228 -1.2489437 1.0275581
3.230458 -1.2046491 1.0276858
3.2228885 -1.1501199 1.0383601
3.2155249 -1.0954441 1.0384824
3.2096708 -1.0519768 1.0385797
3.2023995 -0.99798089 1.0387005
3.195173 -0.9443202 1.0388205
3.1890481 -0.89982384 1.0451291
3.1821353 -0.8491475 1.0493543
3.1750429 -0.7964735 1.049438
3.1679995 -0.74416846 1.0495213
3.161217 -0.69445068 1.0536857
3.1552806 -0.65133673 1.059862
3.1483665 -0.59998131 1.0599105
3.1414928 -0.54893684 1.0599588
3.1346681 -0.49824437 1.0600069
3.1277344 -0.44834414 1.0701139
3.1209972 -0.39830133 1.070129
3.1143007 -0.34855762 1.0701439
3.1076493 -0.29915249 1.070159
3.1000144 -0.24334051 1.0758437
3.0917068 -0.18230081 1.0800819
3.0943224 -0.20173036 1.0800886
3.0864978 -0.14360516 1.0800686
3.0800195 -0.095479369 1.0800519
3.0731554 -0.045654856 1.0873798
3.0657704 0.0088218041 1.0897788
3.0594211 0.05599105 1.0897321
3.0505996 0.121528 1.0896668
3.0543711 0.09350732 1.0896946
3.3934078 -2.4145041 1.0241984
3.3865643 -2.3636935 1.0243449
3.3795865 -2.3136711 1.0357578
3.3728228 -2.2634451 1.0358702
3.3660972 -2.2135074 1.0359819
3.359411 -2.1638551 1.036093
3.3527617 -2.114486 1.0362034
3.3461514 -2.0653987 1.0363132
3.3379426 -2.0044444 1.0364496
3.3279936 -1.9323211 1.0476309
3.3312438 -1.9564508 1.0475926
3.3231385 -1.8962628 1.0476882
3.3166952 -1.84841 1.0477644
3.3101199 -1.8013188 1.0587747
3.3037484 -1.7539997 1.0588194
3.2974126 -1.7069443 1.0588639
3.2895412 -1.6484842 1.0589192
3.2926829 -1.6718163 1.0588971
3.283287 -1.6020356 1.0589629
3.2755127 -1.5442951 1.0590175
3.2689273 -1.4964062 1.0655012
3.263025 -1.4532477 1.0698122
3.2569137 -1.4078532 1.0698259
3.247648 -1.3407176 1.0804815
3.2523506 -1.3739624 1.069836
3.2416191 -1.2959385 1.080466
3.2356241 -1.2514023 1.0804507
3.2296615 -1.2071066 1.0804354
3.222254 -1.1520851 1.0804163
3.2148941 -1.0974084 1.0803975
3.2088854 -1.0544311 1.0908314
3.2016165 -1.0004338 1.0907779
3.1943941 -0.94677168 1.0907248
3.1888759 -0.90643138 1.0948229
3.1813626 -0.85159653 1.1009481
3.1742733 -0.79892123 1.100862
3.1672335 -0.74661458 1.1007763
3.1602368 -0.69462764 1.1006913
3.1543047 -0.65152311 1.1067296
3.1476102 -0.60242313 1.1106954
3.1407402 -0.55137712 1.1105788
3.1311989 -0.48047522 1.1104172
3.1352782 -0.51078689 1.1104863
3.1269879 -0.45078105 1.1204062
3.1202543 -0.40073657 1.1202598
3.1135604 -0.35099119 1.1201142
3.1069121 -0.3015843 1.1199697
3.0988414 -0.24318385 1.1297197
3.090977 -0.18472818 1.129511
3.0935915 -0.20415848 1.1295804
3.0857711 -0.14603122 1.129373
3.0792952 -0.097903572 1.1292011
3.073148 -0.053099778 1.1346353
3.0650532 0.0064019188 1.1385882
3.058707 0.053573024 1.1383892
3.0497468 0.11862977 1.1478001
3.0536594 0.091090694 1.1382309
3.3925307 -2.416975 1.0808533
3.3856902 -2.3661649 1.0808357
3.3788896 -2.3156481 1.0808183
3.3721287 -2.2654214 1.080801
3.3654065 -2.2154832 1.0807837
3.3587222 -2.1658311 1.0807666
3.3520765 -2.1164622 1.0807496
3.3452976 -2.067868 1.0918355
3.3370931 -2.0069137 1.0917751
3.3271489 -1.9347898 1.1027201
3.3303971 -1.9589198 1.1027597
3.3222959 -1.898731 1.1026613
3.3158555 -1.8508775 1.1025829
3.3094509 -1.8032924 1.1025051
3.3030825 -1.755973 1.1024277
3.2967494 -1.7089171 1.1023507
3.2888808 -1.6504564 1.102255
3.2920213 -1.6737887 1.1022931
3.282465 -1.6044998 1.1129811
3.2746942 -1.5467585 1.1128494
3.2687612 -1.5033475 1.1170411
3.2622125 -1.4557096 1.1233467
3.256104 -1.4103144 1.1232138
3.2470038 -1.3426855 1.1230159
3.2515435 -1.3764229 1.1231148
3.2409782 -1.2979057 1.1228849
3.2349851 -1.2533689 1.1227546
3.2288656 -1.2095637 1.1331705
3.221462 -1.1545411 1.132974
3.2141054 -1.0998631 1.1327788
3.2080991 -1.0568845 1.1430706
3.2008348 -1.0028862 1.1428429
3.1936154 -0.94922286 1.1426166
3.1878753 -0.9065578 1.1424367
3.1802726 -0.85074711 1.1466153
3.1735044 -0.80136818 1.152272
3.1664677 -0.74906015 1.1520177
3.1594746 -0.69707167 1.1517649
3.1541305 -0.65799111 1.1556462
3.1468539 -0.60486442 1.1614683
3.1399875 -0.55381674 1.1611871
3.1304505 -0.4829126 1.1607968
3.1345279 -0.5132252 1.1609635
3.1260309 -0.45101371 1.1666484
3.1195111 -0.40317112 1.1703775
3.1128204 -0.35342413 1.1700715
3.1061757 -0.30401549 1.1697677
3.0981088 -0.24561286 1.1793262
3.0902476 -0.18715511 1.1789289
3.0928612 -0.20658609 1.1790609
3.0850437 -0.14845662 1.178666
3.0782273 -0.098699227 1.1842177
3.0719991 -0.053004071 1.1878091
3.0643361 0.0039825067 1.1873851
3.0579937 0.051155593 1.1870341
3.0490375 0.11621508 1.1962321
3.0529475 0.088674903 1.1867547
3.3918281 -2.418952 1.1261654
3.3849907 -2.3681419 1.1260167
3.3781936 -2.3176246 1.1258689
3.3714349 -2.2673979 1.1257221
3.3647151 -2.2174594 1.1255758
3.3578618 -2.1683011 1.1365945
3.3512192 -2.1189318 1.1364182
3.3444443 -2.0703375 1.1473438
3.3362434 -2.0093822 1.1470867
3.3264737 -1.9367641 1.1467806
3.32972 -1.960894 1.1468823
3.3216228 -1.900705 1.1466286
3.3151846 -1.8528514 1.1464267
3.3087831 -1.8052655 1.1462262
3.3022497 -1.7584387 1.1569244
3.2959204 -1.7113825 1.1566957
3.2880559 -1.6529207 1.1564114
3.2911947 -1.6762536 1.1565249
3.2816427 -1.6069638 1.1669858
3.273876 -1.5492214 1.1666678
3.2677026 -1.503324 1.166415
3.2615633 -1.4576787 1.1661637
3.2554564 -1.4122827 1.1659137
3.2461991 -1.3451446 1.1761709
3.2508979 -1.3783909 1.1657273
3.2401762 -1.3003641 1.1758956
3.2341864 -1.2558262 1.1756214
3.2280693 -1.2120204 1.1858928
3.22067 -1.1569965 1.1855189
3.213316 -1.1023171 1.1851473
3.2074707 -1.0588471 1.1848519
3.1997283 -1.0019829 1.1889189
3.1928368 -0.95167321 1.1944944
3.1871002 -0.90900701 1.194177
3.1802888 -0.85876644 1.1963772
3.1727352 -0.80381459 1.2036697
3.1657023 -0.75150508 1.2032468
3.1587126 -0.69951516 1.2028265
3.1531541 -0.65817654 1.2024922
3.1460979 -0.60730493 1.2122277
3.1392353 -0.5562557 1.211782
3.1297021 -0.48534933 1.211163
3.1337776 -0.51566291 1.2114277
3.125855 -0.45736942 1.2149357
3.1187685 -0.40560523 1.2204833
3.1120813 -0.35585645 1.2200172
3.1054392 -0.30644611 1.2195541
3.0973761 -0.24804124 1.2289194
3.0895193 -0.18958135 1.228334
3.0921307 -0.20901304 1.2285285
3.0843177 -0.15088138 1.2279465
3.0780482 -0.10486276 1.2314106
3.0712783 -0.055425137 1.2367789
3.0636194 0.0015638545 1.2361712
3.056941 0.050329577 1.2414795
3.0488837 0.10889275 1.2495519
3.0524023 0.084098294 1.2411121
3.0458255 0.13242212 1.2444413
3.3911262 -2.4209282 1.1714673
3.3842919 -2.3701177 1.1711874
3.3774967 -2.3196003 1.1709094
3.3705683 -2.2698674 1.1818587
3.3638515 -2.219929 1.1815515
3.3570018 -2.1707702 1.1924081
3.3503621 -2.1214008 1.1920725
3.3437612 -2.0723121 1.1917391
3.3371975 -2.0235016 1.1914073
3.3257983 -1.9387381 1.1908313
3.3306706 -1.9749675 1.1910776
3.3209488 -1.9026786 1.1905863
3.3143456 -1.8553178 1.2012175
3.3079472 -1.8077315 1.2008635
3.3014181 -1.760904 1.2114074
3.2950912 -1.713847 1.2110269
3.2872303 -1.6553847 1.2105542
3.2903674 -1.6787176 1.210743
3.2809844 -1.6089343 1.2101787
3.2732213 -1.5511913 1.2097118
3.2666452 -1.5033002 1.2157556
3.2607508 -1.4601393 1.2196718
3.2546473 -1.4147427 1.2192756
3.2453949 -1.3476033 1.2293129
3.2500913 -1.3808504 1.2189798
3.2393749 -1.302822 1.2288932
3.2333879 -1.258283 1.2284757
3.2274332 -1.213985 1.2280605
3.2200363 -1.1589602 1.2275445
3.2125282 -1.1047707 1.2375016
3.2066853 -1.0612996 1.237066
3.1997495 -1.0101117 1.2391503
3.1920576 -0.9541229 1.2463598
3.1863241 -0.91145581 1.245905
3.1792004 -0.85845065 1.2453399
3.1721206 -0.80577117 1.2447782
3.1649373 -0.75394946 1.2544622
3.1579499 -0.70195794 1.2538744
3.1523952 -0.66061813 1.253407
3.1453416 -0.60974491 1.2629751
3.1384821 -0.55869418 1.2623651
3.1289544 -0.48778552 1.2615178
3.1330276 -0.51810002 1.26188
3.1245394 -0.4558844 1.267159
3.1180253 -0.40803856 1.2705764
3.111341 -0.3582882 1.2699498
3.1047025 -0.30887613 1.2693276
3.0966439 -0.25046906 1.2785017
3.0887902 -0.19200705 1.277728
3.0914006 -0.21143945 1.2779852
3.0835905 -0.15330568 1.2772155
3.0769801 -0.10565692 1.2863995
3.0705583 -0.057845473 1.2857357
3.0629027 -0.00085443631 1.2849448
3.0567615 0.044248361 1.2882029
3.0488722 0.10205345 1.2931963
3.0526397 0.074004576 1.293604
3.0451174 0.13000955 1.2927903
3.390425 -2.4229038 1.2167592
3.383147 -2.3698564 1.223096
3.3766265 -2.3220696 1.2271956
3.3680179 -2.2598164 1.2378634
3.3713841 -2.2848575 1.2380983
3.3629882 -2.222398 1.2375128
3.3563137 -2.1727448 1.2370473
3.3496776 -2.1233752 1.2365847
3.3430786 -2.0742865 1.2361245
3.3365173 -2.0254757 1.235667
3.326576 -1.9532698 1.2460018
3.33145 -1.9895338 1.2463651
3.3201077 -1.9051448 1.2455196
3.3135076 -1.8577832 1.2559949
3.307112 -1.8101965 1.2554874
3.3007524 -1.7628758 1.2549829
3.2944281 -1.715818 1.2544812
3.2865701 -1.6573553 1.2538577
3.289706 -1.6806884 1.2541066
3.279815 -1.6083758 1.2614216
3.272404 -1.5536529 1.2635038
3.2664778 -1.5102397 1.2672988
3.2599392 -1.4625994 1.273167
3.2538385 -1.417202 1.2726245
3.2447515 -1.3495697 1.2718161
3.2492843 -1.383309 1.2722194
3.2387338 -1.3047876 1.271281
3.2323551 -1.258322 1.2770578
3.2266378 -1.2164404 1.2807573
3.2192445 -1.1614143 1.2800643
3.21174 -1.1072235 1.2898432
3.2059 -1.0637512 1.2892677
3.1986451 -1.0097493 1.2885528
3.1914356 -0.95608222 1.2878424
3.1855485 -0.91390377 1.297619
3.1784286 -0.8608973 1.2968832
3.1713519 -0.80821651 1.2961518
3.1641717 -0.75639313 1.3056656
3.1571887 -0.7044003 1.3049104
3.1516356 -0.66305918 1.3043098
3.14428 -0.60898066 1.3078636
3.1377299 -0.56113189 1.312935
3.1282063 -0.49022108 1.311859
3.1322777 -0.5205366 1.312319
3.1243625 -0.4622393 1.3154484
3.1172831 -0.41047141 1.3206576
3.1106014 -0.36071926 1.3198709
3.1035254 -0.3086997 1.3233043
3.0959113 -0.25289628 1.328071
3.0880613 -0.19443208 1.3271091
3.0906708 -0.21386522 1.3274288
3.0828645 -0.15572926 1.3264722
3.0762577 -0.10807867 1.3354994
3.0698378 -0.060265422 1.3346816
3.0617619 -0.00077655911 1.3378346
3.0557101 0.043423761 1.342621
3.0481625 0.099640161 1.3416232
3.051928 0.07159026 1.342121
3.0444086 0.12759738 1.341127
3.3895473 -2.4253728 1.2733592
3.3829896 -2.3772926 1.2773248
3.3757565 -2.3245382 1.2834674
3.3673253 -2.2617905 1.2827173
3.3706899 -2.2868319 1.2830167
3.3622978 -2.2243729 1.2822704
3.3556259 -2.1747193 1.2816769
3.3489919 -2.1253493 1.2810868
3.3422251 -2.0767534 1.2915922
3.3356678 -2.0279427 1.2909776
3.325731 -1.9557362 1.3010762
3.3306029 -1.9920002 1.3015562
3.3192658 -1.9076108 1.3004392
3.3128371 -1.8597556 1.2998055
3.3064437 -1.8121684 1.2991756
3.3000867 -1.7648472 1.2985489
3.2935991 -1.7182816 1.3087857
3.2857456 -1.6598178 1.3079737
3.2888799 -1.6831514 1.3082979
3.2798567 -1.6169597 1.3135376
3.2715857 -1.5561141 1.3172823
3.2654209 -1.5102147 1.3166156
3.2592897 -1.4645669 1.3159525
3.2531922 -1.4191691 1.3152931
3.2439473 -1.3520272 1.3249322
3.2484782 -1.3857672 1.3254442
3.2379332 -1.3072443 1.3242531
3.2321854 -1.2651213 1.327834
3.2258425 -1.2188952 1.3334414
3.2184529 -1.163868 1.3325713
3.2111096 -1.1091853 1.3317064
3.2048869 -1.0638386 1.3372424
3.1978638 -1.0121993 1.3405664
3.1906579 -0.9585309 1.3396832
3.1847732 -0.91635132 1.3493205
3.1776567 -0.86334324 1.3484141
3.1705832 -0.8106612 1.3475133
3.1630948 -0.75557816 1.3509493
3.1564274 -0.70684189 1.3559327
3.150878 -0.66549957 1.3551992
3.1442881 -0.61681652 1.356866
3.1369779 -0.56356925 1.3634928
3.127459 -0.49265605 1.3621889
3.1315286 -0.52297252 1.3627464
3.1234071 -0.46246967 1.3616339
3.1165404 -0.41290358 1.370726
3.1098628 -0.36314982 1.3697793
3.1035242 -0.31631806 1.3713697
3.0951791 -0.2553229 1.3776292
3.087333 -0.19685659 1.3764789
3.0899403 -0.21629041 1.3768611
3.0817068 -0.15560237 1.3798782
3.0755343 -0.11049974 1.3845868
3.069118 -0.062684678 1.3836155
3.0617516 -0.0081747435 1.3849396
3.0549958 0.041008625 1.3912178
3.0474527 0.097227484 1.3900392
3.0512171 0.069176331 1.3906274
3.0437012 0.12518597 1.3894533
3.3886704 -2.4278412 1.3299448
3.381846 -2.3770306 1.3292067
3.3750608 -2.3265128 1.3284732
3.3666329 -2.2637649 1.3275614
3.3699963 -2.2888067 1.3279253
3.3616071 -2.2263472 1.327018
3.3545027 -2.1745136 1.3329479
3.3481359 -2.1278167 1.3367008
3.3413723 -2.0792203 1.3470461
3.3348179 -2.0304089 1.3462743
3.3250556 -1.9577086 1.3451246
3.3299248 -1.9939729 1.3456981
3.3185925 -1.909583 1.3443637
3.3121665 -1.8617274 1.3436068
3.3056092 -1.8146325 1.353772
3.2992551 -1.7673105 1.3529934
3.2927706 -1.7207446 1.3630762
3.2849212 -1.6622801 1.3620766
3.288054 -1.6856141 1.3624755
3.2793393 -1.6203618 1.3592066
3.2718275 -1.5650975 1.3625678
3.2643647 -1.5101889 1.365899
3.2584782 -1.4670259 1.3694214
3.2523839 -1.4216272 1.3686157
3.2446525 -1.3657308 1.3782424
3.2371318 -1.3097001 1.3772122
3.231153 -1.2651591 1.3763931
3.2252064 -1.2208583 1.3755784
3.2176621 -1.1663208 1.3850639
3.2103217 -1.1116371 1.3840232
3.2047155 -1.070527 1.387408
3.1970828 -1.0146486 1.3925674
3.1898799 -0.96097893 1.3915117
3.1841528 -0.91830873 1.3906722
3.176569 -0.86302304 1.3972987
3.1698155 -0.81310523 1.3988611
3.1631067 -0.76351899 1.4004065
3.1556661 -0.70928293 1.4069432
3.1501186 -0.66793942 1.4060767
3.1432266 -0.61657363 1.4050001
3.1362255 -0.56600577 1.4140372
3.1267118 -0.4950904 1.4125055
3.130779 -0.52540785 1.4131604
3.1226616 -0.464903 1.4118533
3.115798 -0.41533527 1.4207828
3.1091232 -0.36557978 1.4196761
3.1020541 -0.31355637 1.4227712
3.0944469 -0.2577489 1.4271741
3.0866048 -0.19928049 1.4258361
3.0892115 -0.21871506 1.4262811
3.0817001 -0.16310886 1.4274638
3.0748112 -0.1129203 1.433663
3.0683985 -0.065103382 1.4325379
3.0606103 -0.008588694 1.4409426
3.0542831 0.03859416 1.4398022
3.0467429 0.094815359 1.4384428
3.0505056 0.066763073 1.4391212
3.0429931 0.12277496 1.4377671
3.387969 -2.4298155 1.3752015
3.3811474 -2.379005 1.3743327
3.3743651 -2.3284867 1.3734688
3.3659403 -2.265739 1.3723959
3.3693025 -2.2907803 1.372824
3.3607445 -2.2288136 1.3829383
3.354342 -2.1818333 1.3865584
3.3472798 -2.1302829 1.3923005
3.3406906 -2.081193 1.391398
3.3341384 -2.0323811 1.3905003
3.3243797 -1.9596806 1.3891636
3.3292477 -1.9959453 1.3898306
3.3177514 -1.9120471 1.3992555
3.3113284 -1.8641913 1.3983448
3.3047745 -1.8170959 1.408355
3.2984238 -1.7697734 1.407424
3.2921085 -1.7227142 1.4064981
3.2842615 -1.6642494 1.4053478
3.2873936 -1.6875833 1.405807
3.2795818 -1.6293775 1.4046617
3.2716613 -1.5720701 1.414281
3.2641971 -1.517127 1.4174455
3.2576675 -1.4694843 1.4228771
3.2515757 -1.4240848 1.4219254
3.244009 -1.367696 1.4207436
3.2360957 -1.3097258 1.4258704
3.2303555 -1.2676134 1.4291945
3.2244117 -1.2233119 1.4282372
3.2168701 -1.1687731 1.4375436
3.2095349 -1.1140879 1.436327
3.2037029 -1.0706131 1.43536
3.1959782 -1.0137423 1.4385397
3.1891017 -0.96342629 1.4433262
3.1833789 -0.92075509 1.4423494
3.1765854 -0.87104517 1.447087
3.1676393 -0.80504864 1.4499494
3.1704557 -0.82604861 1.4504436
3.1620312 -0.76323229 1.4489652
3.1546879 -0.70945543 1.4538081
3.1493604 -0.67037863 1.4569405
3.1424713 -0.61901128 1.4556988
3.1354737 -0.56844181 1.4645703
3.1259646 -0.49752414 1.4628103
3.1300302 -0.52784258 1.4635628
3.1219161 -0.46733582 1.4620613
3.1150556 -0.41776624 1.4708264
3.1083846 -0.36800906 1.4695597
3.1020522 -0.32117414 1.4708471
3.0937152 -0.26017436 1.4767084
3.0858762 -0.20170385 1.4751821
3.0884819 -0.22113913 1.4756895
3.0802546 -0.16094474 1.481486
3.0740888 -0.11534026 1.4827268
3.0676785 -0.067521408 1.4814479
3.0598948 -0.011004552 1.4896679
3.0535703 0.036180448 1.4883759
3.045892 0.091921508 1.4965125
3.0497942 0.064350367 1.4876045
3.0421441 0.11988251 1.4957287
3.3872678 -2.4317892 1.4204481
3.3804488 -2.3809783 1.4194485
3.3732274 -2.328238 1.4251469
3.3650756 -2.2682056 1.4284242
3.3684354 -2.293247 1.4289328
3.3598821 -2.2312803 1.4388444
3.3532197 -2.1816261 1.4378036
3.346595 -2.1322553 1.4367688
3.3400085 -2.0831654 1.4357399
3.3334591 -2.0343535 1.4347167
3.3235354 -1.9621451 1.4441984
3.3284009 -1.99841 1.4449819
3.3169105 -1.9145113 1.4541335
3.3104911 -1.8666548 1.4530687
3.304107 -1.819066 1.4520103
3.2977586 -1.7717432 1.4509574
3.2914453 -1.7246838 1.4499108
3.2846234 -1.6762407 1.463969
3.2868979 -1.6890601 1.4382997
3.27876 -1.631838 1.4586254
3.270843 -1.5745295 1.4680569
3.2631409 -1.5171001 1.4667054
