# .PCD v0.7 - Point Cloud Data file format
VERSION 0.7
FIELDS x y z
SIZE 4 4 4
TYPE F F F
COUNT 1 1 1
WIDTH 1494
HEIGHT 1
VIEWPOINT 0 0 0 1 0 0 0
POINTS 1494
DATA ascii
3.0468898 0.1440589 1.181306
3.0452785 0.16939494 1.1780065
3.04354 0.19804195 1.1779292
3.040638 0.24586183 1.1778004
3.0377316 0.29376984 1.1776711
3.0348182 0.34177858 1.1775416
3.0313148 0.39951041 1.177386
3.0283895 0.44772172 1.177256
3.0254579 0.4960348 1.1771257
3.0225205 0.54443711 1.1769952
3.0195775 0.59294188 1.1768644
3.0160379 0.65127081 1.1767071
3.013082 0.69998139 1.1765757
3.0101199 0.74879515 1.1764442
3.0071526 0.79769963 1.1763122
3.0041785 0.84670806 1.1761801
3.0011992 0.89580786 1.1760474
2.9982138 0.94501221 1.1759151
2.9950118 0.99403328 1.165916
2.9920139 1.0434353 1.1657729
2.9892154 1.0910573 1.1695901
2.9879856 1.1022924 1.1458246
2.9860001 1.14253 1.1654856
2.9829841 1.1922233 1.1653419
2.9799619 1.242023 1.1651975
2.9769349 1.2919161 1.165053
2.9738998 1.3419166 1.1649083
2.97086 1.3920107 1.164763
2.9675999 1.4419451 1.1546621
2.9645472 1.4922426 1.1545064
2.9614878 1.5426486 1.1543504
2.9584231 1.5931497 1.1541939
2.9553518 1.64376 1.1540371
2.9522743 1.6944659 1.1538801
2.9491916 1.7452819 1.1537231
2.9461012 1.7961941 1.1535655
2.9426875 1.8495739 1.1458699
2.9396863 1.8980758 1.1432012
2.9365768 1.9493072 1.1430324
2.9334612 2.0006363 1.142863
2.9311757 2.0398219 1.1467659
2.9299059 2.0515554 1.1225362
2.9278369 2.0933025 1.1425579
2.9247036 2.1449258 1.1423875
2.9215636 2.1966619 1.1422169
2.9184561 2.2463195 1.1380051
2.9156771 2.2897904 1.1317831
2.912519 2.3418248 1.1316011
2.9093542 2.3939595 1.1314189
2.9074521 2.4252915 1.1313093
2.9682398 1.4427488 1.1845286
2.9651885 1.4930439 1.1844031
2.9621296 1.5434477 1.1842771
2.9590654 1.5939465 1.1841511
2.9559951 1.6445541 1.1840245
2.9529185 1.6952577 1.1838979
2.9498363 1.7460716 1.1837717
2.9467468 1.7969811 1.1836447
2.9436512 1.8480012 1.1835171
2.9405499 1.8991182 1.1833895
2.9374413 1.950346 1.1832614
2.9343271 2.0016718 1.1831332
2.9318309 2.0428107 1.1830306
2.9287047 2.094332 1.182902
2.9255729 2.1459517 1.182773
2.9224334 2.1976845 1.1826438
2.9189334 2.2528055 1.1757601
2.9165502 2.2908065 1.1722858
2.9133921 2.3428376 1.1721455
2.9102292 2.3949685 1.1720051
2.9083276 2.4262989 1.1719204
3.4263153 -0.4040513 -1.2471911
3.4717579 -0.39496654 -1.2452091
3.5185943 -0.38560283 -1.2431657
3.7814612 -0.38753587 -1.2579241
3.8383493 -0.3770842 -1.2558861
3.8971949 -0.36627281 -1.2537781
3.9581003 -0.35508311 -1.2515961
4.3046246 -0.35433918 -1.2694666
4.3807611 -0.34158373 -1.2673324
3.5668893 -0.37594748 -1.2410591
3.616713 -0.36598659 -1.2388858
3.3310657 -0.32862359 -1.205876
3.3758121 -0.34223205 -1.2147797
3.4219356 -0.35623378 -1.2239454
3.4672599 -0.34643793 -1.2216146
3.5139723 -0.33634186 -1.2192125
3.5621381 -0.32593167 -1.2167356
3.6118264 -0.31519234 -1.2141806
3.6681385 -0.35570538 -1.2366424
3.7212443 -0.3450883 -1.2343258
3.7761154 -0.33411843 -1.2319323
3.8328395 -0.32277787 -1.229458
3.8915124 -0.31104785 -1.2268983
4.0211763 -0.34349447 -1.2493364
4.0865412 -0.33148557 -1.2469947
4.1543202 -0.31903273 -1.2445663
4.2246523 -0.30611116 -1.2420468
3.4175663 -0.30852497 -1.2007525
3.4627724 -0.2980215 -1.1980751
3.5093608 -0.28719628 -1.1953155
3.6631103 -0.30410832 -1.2115434
3.7160683 -0.29266238 -1.2088202
3.7707829 -0.28083682 -1.2060065
3.8273439 -0.26861221 -1.2030979
3.9522381 -0.2989077 -1.2242495
4.0151229 -0.28633529 -1.2215064
4.0802875 -0.27330744 -1.2186637
4.1478562 -0.25979894 -1.2157162
4.2179646 -0.24578273 -1.2126579
4.2976818 -0.29269397 -1.2394304
4.3735676 -0.27875167 -1.236712
4.2907586 -0.23122939 -1.2094824
3.2856245 -0.29263902 -1.1861656
3.3269272 -0.28237206 -1.1833967
3.3694363 -0.27180499 -1.1805466
3.5573978 -0.27603483 -1.1924702
3.6069517 -0.26452106 -1.1895353
3.8858457 -0.255968 -1.2000893
3.1987848 -0.22387186 -1.1484981
3.2415514 -0.25773793 -1.1670485
3.2815986 -0.24713284 -1.1640509
3.3227978 -0.23622259 -1.160967
3.3651996 -0.22499377 -1.1577929
3.4132071 -0.26092464 -1.1776123
3.4582944 -0.24971652 -1.1745895
3.5047612 -0.23816589 -1.1714743
3.5526695 -0.22625679 -1.1682626
3.6020889 -0.21397206 -1.1649492
3.6580944 -0.25263789 -1.186506
3.7109041 -0.24036744 -1.183378
3.7654643 -0.22769031 -1.1801466
3.8218622 -0.21458605 -1.1768059
3.9463906 -0.2428824 -1.1969758
4.0090866 -0.22933167 -1.1937519
4.0740514 -0.21529081 -1.1904113
4.1414094 -0.20073238 -1.1869473
4.3663979 -0.21610773 -1.2061831
3.2376318 -0.21295312 -1.1452864
3.4088569 -0.21343207 -1.1545244
3.4769993 -0.19538638 -1.1494234
3.653091 -0.2012938 -1.16153
3.7057533 -0.18820286 -1.1579993
3.7601585 -0.17467856 -1.1543518
3.8801942 -0.20103273 -1.173351
3.9405589 -0.18700674 -1.1697754
4.003067 -0.17248303 -1.1660732
4.0678325 -0.15743452 -1.1622369
4.2112966 -0.18562767 -1.1833537
4.2838569 -0.16994497 -1.1796223
4.3592472 -0.15365058 -1.1757454
4.1349816 -0.14183229 -1.1582597
3.1761184 -0.18539107 -1.1287838
3.2775798 -0.20172504 -1.1419836
3.318676 -0.19017419 -1.1385859
3.3609705 -0.17828655 -1.135089
3.4045167 -0.1660471 -1.1314889
3.5479522 -0.17659661 -1.144112
3.5972371 -0.16354483 -1.1404227
3.8163953 -0.16069931 -1.1505816
3.0777726 -0.12804464 -1.0960082
3.1169477 -0.15906674 -1.1130006
3.1723552 -0.14169079 -1.1075522
3.23177 -0.14596727 -1.1127362
3.2735701 -0.15641561 -1.1199642
3.3145633 -0.14422718 -1.1162543
3.356751 -0.13168356 -1.1124362
3.424778 -0.13610464 -1.1181427
3.4955931 -0.14044848 -1.1239592
3.5432458 -0.12705439 -1.1200192
3.5923967 -0.1132392 -1.1159552
3.6480989 -0.15007538 -1.136615
3.7006149 -0.13616803 -1.1326839
3.7548666 -0.12180108 -1.1286228
3.8109422 -0.10695112 -1.1244251
3.8745565 -0.14624146 -1.1466824
3.9347425 -0.13128015 -1.1426473
3.9970632 -0.11578858 -1.1384695
4.0616307 -0.099738091 -1.1341405
4.204648 -0.12564528 -1.1541333
4.2769742 -0.10883978 -1.1498494
4.352119 -0.09138006 -1.1453985
3.2695689 -0.11120453 -1.0979925
3.4449229 -0.10546738 -1.1044562
3.4910235 -0.091760308 -1.100284
3.6431198 -0.098982483 -1.1117613
3.6954899 -0.084262699 -1.1074313
3.8689342 -0.091593504 -1.1200838
3.9289432 -0.075701922 -1.1155916
3.991075 -0.059247792 -1.1109403
4.128571 -0.083097786 -1.1296526
4.1980176 -0.06583479 -1.1249969
4.2701135 -0.047913164 -1.1201634
4.3450122 -0.02929461 -1.115142
3.0396943 -0.097891152 -1.0794913
3.0742407 -0.085932016 -1.0755527
3.1115174 -0.094984829 -1.081871
3.1686001 -0.098081946 -1.0863646
3.2259235 -0.079171926 -1.0802785
3.3104601 -0.098381072 -1.0939716
3.3742023 -0.078391343 -1.0877036
3.5385494 -0.077629477 -1.0959826
3.5875692 -0.063054413 -1.0915463
3.749588 -0.069056988 -1.1029583
3.016252 -0.047952503 -1.06256
3.0707159 -0.043904275 -1.0551383
3.1261206 -0.046060085 -1.0590906
3.1835675 -0.0480856 -1.0630876
3.2220378 -0.034768194 -1.0587016
3.2635851 -0.043583214 -1.06513
3.3063655 -0.052635461 -1.0717379
3.369946 -0.031661421 -1.0649874
3.4404855 -0.05760482 -1.0811855
3.486465 -0.043185711 -1.0766642
3.533864 -0.028321087 -1.072003
3.5827513 -0.012990206 -1.0671958
3.6381531 -0.048014402 -1.0869683
3.6903772 -0.032486379 -1.0822418
3.7443228 -0.016446352 -1.0773592
3.8055024 -0.053341001 -1.0983353
3.8633261 -0.037088513 -1.0935546
3.9231572 -0.02027148 -1.0886078
3.9851041 -0.0028600842 -1.083486
4.0554461 -0.042200863 -1.1061217
4.1221795 -0.024528444 -1.1011261
4.1914067 -0.0061954707 -1.0959438
3.0086379 -0.00053811073 -1.0590171
3.436058 -0.0098521411 -1.0579681
3.4819164 0.0052757859 -1.053099
3.6331968 0.0028295517 -1.0622354
3.685276 0.01916191 -1.057114
3.8000774 0.00013130903 -1.072313
3.8577328 0.017274186 -1.0670947
3.917388 0.035011649 -1.0616955
4.0492792 0.015177846 -1.07818
4.1158056 0.033876643 -1.0726794
4.1848149 0.05327338 -1.0669734
4.2632709 0.012835771 -1.090564
4.3379259 0.032605991 -1.0849755
3.00561 0.04958266 -1.0597007
3.0025859 0.099643946 -1.0603832
2.9995661 0.14963728 -1.0610646
2.9965491 0.19957131 -1.0617456
2.9933105 0.24915788 -1.072314
2.9903016 0.29896376 -1.0729871
2.9860964 0.36858416 -1.0739274
2.9878979 0.33876127 -1.0735245
2.9842958 0.39838186 -1.0743299
2.9812994 0.44799435 -1.075
2.9783058 0.49754819 -1.0756694
2.9753165 0.54703522 -1.0763379
2.9723306 0.59646374 -1.0770056
2.9693489 0.64582568 -1.0776724
2.9663706 0.69512939 -1.0783385
2.9633965 0.74436671 -1.0790037
2.9598327 0.80337197 -1.0798008
2.9568658 0.85247701 -1.080464
2.9539042 0.90151596 -1.0811265
2.9509449 0.95049733 -1.0817882
2.9479899 0.99941307 -1.0824491
2.9450388 1.0482712 -1.083109
2.9420915 1.097064 -1.083768
2.9391475 1.1457996 -1.0844264
2.9362078 1.1944699 -1.0850838
2.9326839 1.2527962 -1.0858719
2.9297519 1.3013365 -1.0865276
2.9268236 1.3498118 -1.0871825
2.9238987 1.3982306 -1.0878363
2.9209776 1.4465849 -1.0884895
2.9180608 1.4948826 -1.0891421
2.915729 1.5334756 -1.0896636
3.0236359 0.0072223544 -1.0292574
3.0671983 -0.0019613355 -1.0347649
3.1279011 0.0062172711 -1.034022
3.1797829 -0.0043697804 -1.041847
3.2181597 0.0095408708 -1.0371706
3.2576175 0.023843557 -1.0323623
3.3232141 0.00025671721 -1.047166
3.3872504 0.022424489 -1.0398649
3.4316406 0.037791267 -1.034804
3.5291896 0.020870581 -1.0480801
3.5779448 0.036953986 -1.0429035
3.7390709 0.036031812 -1.0518241
3.0095196 0.056791872 -1.0182534
3.0636878 0.039897263 -1.0144329
3.1169934 0.060958996 -1.0070999
3.1760068 0.039254442 -1.0206513
3.2142901 0.05375576 -1.0156854
3.2738934 0.076333046 -1.0079539
3.3190851 0.046124101 -1.0248718
3.3829579 0.069276765 -1.0170879
3.4272337 0.085325852 -1.0116925
3.4773788 0.053624704 -1.0295891
3.5245261 0.069946125 -1.0242137
3.5731502 0.086778402 -1.0186697
3.628252 0.053549588 -1.0375624
3.6801872 0.070682094 -1.0320483
3.73383 0.088377967 -1.0263531
3.7946658 0.053466678 -1.0463569
3.8521547 0.071495131 -1.0407039
3.911633 0.090148255 -1.0348547
3.9791484 0.053375319 -1.0561055
4.043128 0.072398677 -1.0503149
4.1094489 0.092118099 -1.0443122
4.2564492 0.073407844 -1.0610509
4.3308611 0.09432292 -1.0548985
3.0034943 0.10074615 -1.0207477
3.4728513 0.1018613 -1.0061333
3.6233196 0.10414588 -1.0129497
3.7892671 0.10666558 -1.0204673
3.8465881 0.12557507 -1.0143811
3.9732094 0.10945876 -1.0287993
4.0369949 0.12946227 -1.0225265
4.1031113 0.15019657 -1.0160249
4.1782417 0.11257248 -1.0380863
4.2496467 0.13380373 -1.0316235
4.3238168 0.15585689 -1.0249106
3.0004735 0.15074527 -1.0214547
2.9974561 0.20068504 -1.0221605
2.9942164 0.2502774 -1.032756
2.9912066 0.30008891 -1.0334543
2.9869995 0.3697173 -1.0344299
2.9888015 0.33989099 -1.0340118
2.985199 0.3995184 -1.0348474
2.9822011 0.44913656 -1.0355427
2.9792066 0.49869603 -1.0362372
2.9762158 0.54818863 -1.0369307
2.9732294 0.59762287 -1.0376233
2.9702473 0.6469903 -1.0383153
2.9672675 0.69629967 -1.0390061
2.964293 0.74554259 -1.0396962
2.9607267 0.80455458 -1.0405231
2.9577603 0.85366511 -1.0412114
2.9547963 0.90270966 -1.0418985
2.9518366 0.95169652 -1.0425851
2.9486585 1.0003164 -1.0530665
2.9457064 1.0491788 -1.053745
2.9427586 1.0979755 -1.0544225
2.9398136 1.1467154 -1.0550992
2.936873 1.1953897 -1.0557753
2.9333487 1.253721 -1.0565853
2.9304161 1.3022652 -1.0572596
2.9274869 1.3507447 -1.0579329
2.924561 1.3991675 -1.0586051
2.9216399 1.4475257 -1.0592768
2.9187217 1.4958272 -1.0599475
2.9155459 1.5466838 -1.0648227
2.9120951 1.6015549 -1.0711384
2.9091887 1.6496627 -1.0718005
2.9062867 1.6977062 -1.0724615
2.9033871 1.7456939 -1.0731219
2.9004922 1.7936182 -1.0737813
2.8958669 1.8701792 -1.0748349
2.8976002 1.8414867 -1.07444
2.8941345 1.8988478 -1.0752293
2.8912511 1.9465816 -1.0758862
2.887795 2.0037861 -1.0766734
2.8849187 2.051393 -1.0773284
2.8820462 2.0989377 -1.0779828
2.8791776 2.1464272 -1.0786361
2.8774576 2.1748922 -1.0790279
3.0102968 0.10396653 -0.98705161
3.0707312 0.10038756 -0.98568791
3.1314068 0.11097606 -0.98378354
3.1703582 0.104508 -0.98894602
3.2104287 0.097876772 -0.99424565
3.2698846 0.12136889 -0.98606622
3.3357935 0.099780217 -0.99992496
3.3786755 0.11602356 -0.99436253
3.4228363 0.13275149 -0.98863411
3.5198741 0.11890589 -1.0004033
3.5683665 0.13648343 -0.99449402
3.6751108 0.12207474 -1.0070449
3.7286029 0.14059249 -1.0009459
3.9058933 0.14513886 -1.0080847
3.0035338 0.15420415 -0.97532374
3.0724711 0.1516638 -0.96109921
3.1277423 0.153759 -0.96299839
3.1647243 0.16957967 -0.95732921
3.2065754 0.14190404 -0.97285175
3.2658854 0.16630706 -0.96422619
3.3316298 0.14576517 -0.97757214
3.3744025 0.16266535 -0.97168797
3.4184499 0.18006895 -0.96562839
3.4683352 0.14998603 -0.98273236
3.5152326 0.1677504 -0.97664917
3.5635948 0.18606953 -0.97037596
3.6183996 0.15461926 -0.98839694
3.6700473 0.17334042 -0.98210317
3.7233891 0.19267569 -0.97560269
3.7838812 0.1597285 -0.99464333
3.8410373 0.1795145 -0.98812675
3.9001679 0.19998397 -0.98138523
3.9672852 0.16539116 -1.0015664
4.0308781 0.18636927 -0.99481463
4.1716876 0.17170265 -1.0092812
4.2428646 0.19402418 -1.0022817
2.9985895 0.20207763 -0.97266459
3.463829 0.19799913 -0.95938557
3.6134911 0.20496988 -0.96390373
3.7785096 0.21265589 -0.96888578
3.9613771 0.22117318 -0.97440642
4.0967903 0.20811278 -0.98781645
4.1651511 0.23066448 -0.98055792
4.2361021 0.2540701 -0.97302485
4.3167934 0.21720867 -0.99501157
2.995575 0.25195697 -0.97340107
2.9925938 0.29967302 -0.97806239
2.9893308 0.35124701 -0.98475391
2.9863276 0.4009394 -0.98548138
2.9833288 0.45056462 -0.9862082
2.9803329 0.50013125 -0.98693413
2.9773417 0.549631 -0.98765886
2.9743533 0.5990721 -0.98838288
2.9713693 0.64844668 -0.98910594
2.9683895 0.69776297 -0.98982817
2.9654126 0.74701279 -0.99054933
2.9618459 0.80603313 -0.99141359
2.9588776 0.8551507 -0.9921329
2.9559131 0.9042021 -0.99285126
2.9529524 0.95319605 -0.99356872
2.9497728 1.0018227 -1.004083
2.9468193 1.0506918 -1.0047925
2.9438696 1.0994954 -1.0055008
2.9409242 1.1482421 -1.0062085
2.9379821 1.1969233 -1.0069153
2.9344568 1.2552626 -1.0077623
2.9315224 1.3038135 -1.0084671
2.9285927 1.3522999 -1.009171
2.9256659 1.4007297 -1.0098741
2.9227433 1.4490943 -1.0105761
2.9198236 1.4974029 -1.0112776
2.9169083 1.5456469 -1.0119778
2.9134145 1.6034627 -1.0128173
2.9105067 1.6515782 -1.0135156
2.9076033 1.6996303 -1.0142134
2.9047308 1.7455783 -1.0187634
2.901587 1.7952347 -1.025304
2.8981161 1.8526752 -1.0261307
2.8952274 1.9004786 -1.0268186
2.8923421 1.9482186 -1.0275058
2.888885 2.0054312 -1.0283289
2.8860078 2.0530448 -1.0290142
2.8831348 2.1005957 -1.0296985
2.8802643 2.1480911 -1.030382
2.8785434 2.1765602 -1.0307916
3.088172 0.18050236 -0.94804466
3.0073094 0.20200752 -0.93623388
3.067162 0.21452646 -0.93056256
3.1240864 0.19645371 -0.94225615
3.1609802 0.21283989 -0.93630999
3.2144752 0.20602337 -0.94240499
3.2819858 0.21974321 -0.93935317
3.3254027 0.21453905 -0.94414204
3.3701386 0.20920223 -0.94906425
3.414072 0.22727868 -0.94267493
3.510602 0.21647996 -0.95295101
3.5588341 0.23553723 -0.94631553
3.6649957 0.22447947 -0.95722306
3.7181883 0.24462822 -0.9503231
3.8355002 0.23331374 -0.96194077
4.0247765 0.24312049 -0.96717799
2.9990726 0.25303519 -0.92486662
3.0636463 0.25623304 -0.91030318
3.1204376 0.23906058 -0.92155635
3.1572428 0.25600988 -0.91533458
3.2164669 0.26020885 -0.91642928
3.2779536 0.26479363 -0.91745716
3.3191938 0.28311044 -0.91081041
3.3658853 0.2556347 -0.92649162
3.4097056 0.2743808 -0.91977388
3.4593329 0.24590124 -0.9360925
3.5059824 0.26509503 -0.92930824
3.5540853 0.28488678 -0.92231262
3.6085949 0.2551983 -0.93946993
3.6599569 0.27549237 -0.93240416
3.7130003 0.29645053 -0.925107
3.7731519 0.26544815 -0.94319361
3.829978 0.28697327 -0.93582273
3.8944573 0.25468427 -0.95475614
3.9554834 0.27680513 -0.94731939
4.0186911 0.29971641 -0.9396168
4.0904856 0.26586759 -0.9596861
4.1586337 0.28945881 -0.95191622
4.3097916 0.27837914 -0.96520078
4.3863797 0.30364498 -0.9570688
2.9934392 0.3050071 -0.93065333
3.4548483 0.29369253 -0.91285366
3.6037102 0.30530491 -0.91509569
3.767808 0.31810588 -0.91756701
3.8887615 0.30924007 -0.92819768
3.9496064 0.3322877 -0.92030519
4.0841985 0.32346141 -0.93163419
4.152133 0.34808639 -0.92335546
4.2293587 0.31394207 -0.94385254
4.3028092 0.33936906 -0.93547809
4.3791461 0.36579537 -0.92677414
2.9904609 0.35266137 -0.93533951
2.9872465 0.4042339 -0.94008082
2.9885092 0.39299583 -0.916188
2.9844565 0.45199323 -0.93685681
2.9814601 0.50156689 -0.93761384
2.978467 0.55107367 -0.93837023
2.9754777 0.6005218 -0.9391256
2.9724932 0.64990342 -0.93987972
2.9695106 0.69922674 -0.94063294
2.9665337 0.7484836 -0.94138533
2.962965 0.80751228 -0.94228709
2.9599957 0.8566367 -0.94303745
2.9570303 0.90569502 -0.94378686
2.9540677 0.95469582 -0.94453537
2.9511099 1.0036306 -0.94528264
2.9481549 1.0525081 -0.94602931
2.9452963 1.098805 -0.94918442
2.9420352 1.1497693 -0.95730317
2.9390922 1.1984572 -0.95804071
2.935565 1.2568047 -0.95892453
2.9326296 1.3053627 -0.95966023
2.9296989 1.3538554 -0.96039462
2.9267707 1.4022918 -0.96112841
2.9238467 1.4506633 -0.96186125
2.9209266 1.4989786 -0.96259296
2.9180098 1.5472293 -0.96332401
2.9145141 1.6050532 -0.9641999
2.9116058 1.6531756 -0.96492893
2.9087009 1.7012339 -0.965657
2.9055519 1.7509613 -0.9722361
2.9026823 1.7968514 -0.97681022
2.89921 1.8542998 -0.97767335
2.8961172 1.9038906 -0.98229551
2.8973351 1.8932061 -0.95887136
2.893434 1.9498565 -0.97910881
2.8899755 2.0070767 -0.97996807
2.8870969 2.0546968 -0.98068345
2.8842225 2.1022542 -0.98139817
2.881351 2.149756 -0.98211163
2.8796301 2.1782291 -0.9825393
3.0089388 0.27260059 -0.89954722
3.116796 0.2815797 -0.90089941
3.0084043 0.31299576 -0.88575536
3.0601373 0.29785559 -0.89008486
3.1131625 0.32401165 -0.88028491
3.1535134 0.29908997 -0.8944031
3.2184067 0.31466505 -0.8903203
3.2739301 0.30974609 -0.8956089
3.3150668 0.32869005 -0.88865489
3.3616409 0.30196315 -0.90396929
3.4053483 0.32137573 -0.89692503
3.4503727 0.3413735 -0.88966817
3.5013733 0.31359601 -0.90572131
3.5493469 0.33411887 -0.89836693
3.6549306 0.32637966 -0.90764654
3.7078252 0.3481431 -0.89995402
3.8244696 0.34049377 -0.90977228
4.0126224 0.35615766 -0.91213119
2.9928498 0.3566646 -0.87900311
3.0739594 0.3482241 -0.86656845
3.1095357 0.36635643 -0.85971254
3.168612 0.35136354 -0.87003684
3.2699151 0.35460076 -0.87380821
3.3109488 0.37416929 -0.86654806
3.3574057 0.34818786 -0.8814975
3.401001 0.36826396 -0.87412786
3.4459081 0.38894451 -0.86653632
3.4967756 0.36198324 -0.88218945
3.5446205 0.38323358 -0.87447828
3.5988369 0.35529029 -0.89078015
3.6499162 0.37714174 -0.88294983
3.7026629 0.39970642 -0.8748638
3.7624769 0.37062964 -0.89200586
3.8189754 0.3938759 -0.88378918
3.883081 0.36365214 -0.90170896
3.9437447 0.38762134 -0.8933636
4.0779281 0.38089502 -0.90366012
4.1456509 0.40654767 -0.89487582
4.2226324 0.3736411 -0.91476434
4.2958465 0.40017942 -0.90584242
2.9879856 0.41371745 -0.88685906
2.9891868 0.39384827 -0.88654292
3.5939765 0.40515473 -0.86652362
3.8774152 0.41792101 -0.8752901
4.0065708 0.4124448 -0.88472056
4.0716753 0.43816876 -0.87576395
4.2159266 0.43316767 -0.88576001
4.371933 0.42775899 -0.8965705
2.9855847 0.45342237 -0.88749039
2.9825869 0.503003 -0.88827914
2.9795928 0.5525167 -0.88906658
2.9766026 0.6019721 -0.88985324
2.9736161 0.65136063 -0.89063877
2.9706335 0.70069093 -0.89142346
2.9676547 0.74995476 -0.89220709
2.9640851 0.80899179 -0.89314604
2.9611144 0.85812312 -0.89392745
2.9581475 0.90718842 -0.89470798
2.955184 0.95619601 -0.89548737
2.9522252 1.0051379 -0.89626586
2.9492688 1.0540221 -0.89704341
2.946053 1.1054981 -0.9020595
2.9431467 1.1512969 -0.90838116
2.9402018 1.1999917 -0.90914947
2.9366741 1.2583473 -0.9100703
2.9337373 1.3069119 -0.9108367
2.9308052 1.3554115 -0.91160184
2.9278755 1.4038546 -0.91236633
2.9249511 1.4522331 -0.91312957
2.922029 1.5005548 -0.91389203
2.9191117 1.5488122 -0.91465354
2.9156146 1.6066439 -0.91556609
2.9127049 1.654773 -0.91632551
2.9097986 1.7028379 -0.91708404
2.9068961 1.7508469 -0.91784155
2.9039974 1.7987921 -0.91859818
2.9005232 1.85625 -0.91950482
2.8970547 1.913625 -0.92041016
2.89821 1.8945107 -0.92010856
2.8947449 1.9518223 -0.92101276
2.8916426 1.9991922 -0.93144411
2.888762 2.0468271 -0.9321897
2.8853111 2.1039131 -0.93308336
2.8824387 2.1514218 -0.93382692
2.8807163 2.1798983 -0.93427265
3.0358562 0.37175703 -0.85323709
3.1460786 0.38498119 -0.85267049
3.2261219 0.37973213 -0.85940802
2.9886632 0.41457167 -0.85721654
3.0025492 0.40433705 -0.84197187
3.0686598 0.41075945 -0.83618999
3.1059165 0.40861446 -0.8391825
3.1629992 0.41595572 -0.83865184
3.2222233 0.42379013 -0.83799678
3.2659092 0.39935821 -0.85205454
3.3068399 0.41954845 -0.84448987
3.3510728 0.41731828 -0.84789038
3.3966632 0.41504571 -0.85138249
3.4414544 0.4364059 -0.84345782
3.4921889 0.41025722 -0.85871291
3.5399055 0.43223149 -0.85064638
3.6449146 0.42777908 -0.85831374
3.7571602 0.42301989 -0.8665095
3.8134956 0.44711983 -0.85787326
3.9378991 0.44280684 -0.86649388
4.2889037 0.46081072 -0.87629402
2.9865069 0.4572615 -0.84061867
3.0122056 0.44452679 -0.81696701
3.1023049 0.45078588 -0.81869435
3.1798301 0.44749886 -0.82435489
3.2183323 0.46775416 -0.81663126
3.2619119 0.44401848 -0.83034831
3.3027401 0.46482772 -0.8224802
3.4146729 0.47273976 -0.82456058
3.4876118 0.45841825 -0.83529097
3.5352015 0.48111311 -0.82687104
3.5891271 0.45489872 -0.84232563
3.6399255 0.47829211 -0.83373815
3.6975141 0.451141 -0.84983629
3.7518568 0.47527707 -0.84107792
3.8080301 0.5002265 -0.83202446
3.8717647 0.47204709 -0.84894067
3.9320688 0.49784479 -0.83969623
4.000535 0.4685784 -0.85738468
4.0654407 0.49528375 -0.84794533
4.1391869 0.46484354 -0.86647648
4.2092395 0.4925226 -0.85683936
4.3647399 0.4895367 -0.8664571
2.9837141 0.50443959 -0.83892739
3.6923776 0.50244719 -0.82487112
3.9945154 0.52455926 -0.83012301
4.132741 0.52297461 -0.83815759
4.2819805 0.52126378 -0.84683222
4.3575683 0.55112934 -0.83643401
2.9807186 0.5539605 -0.83974624
2.9777274 0.60342276 -0.84056419
2.9747405 0.65281838 -0.84138107
2.971756 0.70215559 -0.842197
2.9687762 0.75142646 -0.84301174
2.9652052 0.81047183 -0.84398818
2.9622331 0.85961008 -0.84480083
2.9592652 0.90868235 -0.84561211
2.9563007 0.95769686 -0.84642279
2.9533401 1.0066456 -0.84723228
2.9503832 1.0555367 -0.84804076
2.9474301 1.1043622 -0.84884816
2.9444804 1.1531307 -0.84965456
2.941535 1.2018337 -0.85046011
2.9380054 1.2601991 -0.85142523
2.934845 1.3084619 -0.86199856
2.9319119 1.3569679 -0.86279464
2.9289818 1.4054182 -0.86358964
2.9260554 1.4538031 -0.8643837
2.9231324 1.5021315 -0.8651768
2.9202137 1.5503957 -0.86596882
2.9167156 1.6082354 -0.86691791
2.9138045 1.6563711 -0.86770797
2.9108973 1.7044427 -0.86849672
2.9079938 1.7524583 -0.86928487
2.9050937 1.8004098 -0.87007165
2.901618 1.8578756 -0.87101477
2.8987255 1.9057002 -0.87179959
2.8958373 1.9534612 -0.87258339
2.8927341 2.0008378 -0.88304687
2.889853 2.0484788 -0.88382268
2.8863997 2.1055727 -0.88475239
2.8835263 2.1530876 -0.88552612
2.881804 2.1815681 -0.88598984
2.9920874 0.47559798 -0.80095339
3.0633745 0.47312644 -0.80589324
3.1386743 0.47051585 -0.81111115
3.2579231 0.48858207 -0.80868912
3.3447585 0.48624301 -0.81438303
2.9846163 0.50558913 -0.79943579
3.0071354 0.50540018 -0.78740066
3.0598612 0.51459265 -0.78574985
3.1095963 0.51363051 -0.78882939
3.1741509 0.51238674 -0.79282421
3.2144499 0.51162428 -0.79531127
3.253943 0.53304935 -0.78707647
3.2986493 0.51000744 -0.80051893
3.3405609 0.53205627 -0.79211128
3.4102969 0.51964647 -0.8017531
3.4830465 0.50646675 -0.81192404
3.5305085 0.52987874 -0.8031522
3.5842896 0.50452268 -0.81818604
3.6349483 0.5286814 -0.80922294
3.7465663 0.5274018 -0.81571078
3.8025784 0.55319619 -0.80624199
3.8661289 0.52603114 -0.82266045
3.9262538 0.55273563 -0.81297004
4.0592222 0.55224037 -0.8202036
4.2025714 0.55170655 -0.82800198
2.9823523 0.55552381 -0.78632176
3.0221071 0.53570712 -0.77360082
3.0563545 0.55597526 -0.76564693
3.1313 0.55569619 -0.76972401
3.2105761 0.55540097 -0.77403671
3.2945676 0.55508816 -0.77860588
3.3600421 0.56626183 -0.77667218
3.4281526 0.57813632 -0.77453995
3.4784913 0.55440319 -0.78861153
3.5258269 0.57852876 -0.77948964
3.5794635 0.55402708 -0.79410446
3.6299829 0.57894731 -0.78476751
3.6872544 0.5536257 -0.7999683
3.7412896 0.57939458 -0.7904079
3.8605075 0.57987356 -0.79644907
3.920455 0.60747999 -0.78631538
3.9885135 0.58038789 -0.80293578
4.0530219 0.60903937 -0.79253876
4.1263142 0.58094162 -0.80991876
4.1959238 0.61072028 -0.79924762
4.2750783 0.58153939 -0.81745714
4.3504181 0.61253762 -0.80650049
2.9788527 0.6048739 -0.79126036
3.6821437 0.60467684 -0.77512735
3.7971411 0.60602945 -0.78052616
4.119904 0.63874519 -0.78175932
4.2681966 0.64163828 -0.78816819
2.9758644 0.65427649 -0.79210848
2.9728794 0.70362079 -0.79295564
2.9698977 0.75289863 -0.79380172
2.9663253 0.81195223 -0.79481554
2.9633522 0.86109763 -0.7956593
2.9603834 0.91017675 -0.79650187
2.9574175 0.95919812 -0.79734349
2.9544559 1.0081537 -0.79818398
2.9514976 1.0570518 -0.79902351
2.9485435 1.1058843 -0.79986197
2.9455929 1.1546593 -0.80069929
2.942646 1.2033691 -0.80153549
2.9391141 1.2617428 -0.80253768
2.9359536 1.3100121 -0.81314397
2.9330192 1.3585255 -0.81397074
2.9300876 1.4069819 -0.81479645
2.9271612 1.4553735 -0.8156212
2.9242363 1.5037088 -0.81644493
2.9213161 1.5519798 -0.81726748
2.9178166 1.6098273 -0.81825328
2.9149046 1.6579695 -0.8190738
2.9119959 1.706048 -0.81989318
2.9090915 1.75407 -0.82071173
2.9061899 1.8020282 -0.82152891
2.9027133 1.8595018 -0.82250845
2.8998194 1.9073329 -0.82332343
2.8967314 1.9574058 -0.82660151
2.8985224 1.9366579 -0.8044256
2.894043 2.0028126 -0.82495064
2.891161 2.0504613 -0.82576263
2.8877068 2.1075644 -0.82673591
2.8848319 2.1550872 -0.82754558
2.8831086 2.1835728 -0.82803106
2.9813237 0.57607067 -0.76114982
3.0186863 0.576491 -0.75379062
3.0915146 0.57678366 -0.75748104
3.1684885 0.57709289 -0.76138157
3.2499714 0.57742035 -0.7655108
2.979528 0.60574472 -0.76167047
3.0136771 0.60656822 -0.75325614
3.0794163 0.60764068 -0.75468445
3.1485286 0.60876811 -0.75618607
3.2212811 0.60995507 -0.75776684
3.2979689 0.61120605 -0.75943309
3.3789206 0.61252666 -0.7611919
3.4689031 0.61394352 -0.76432592
3.5645504 0.61544752 -0.76767772
3.6505356 0.62941694 -0.76737034
3.7526302 0.63147211 -0.76959723
3.8613157 0.63366008 -0.77196789
3.9825268 0.63606501 -0.77582222
2.9765391 0.65515161 -0.7625373
3.0111451 0.65663636 -0.7543143
3.0767903 0.65896022 -0.75576818
3.1458025 0.6614033 -0.75729686
3.2184482 0.663975 -0.75890589
3.295022 0.66668582 -0.76060218
3.3758507 0.66954708 -0.7623927
3.4612994 0.67257202 -0.76428556
3.5524449 0.66370702 -0.76603609
3.6484361 0.66673869 -0.76815426
3.7504306 0.6699599 -0.77040493
3.8590074 0.67338908 -0.77280086
3.9748259 0.67704678 -0.77535665
4.0986347 0.68095696 -0.77808875
4.2312913 0.68514651 -0.78101599
4.3737788 0.6896466 -0.78416038
2.9735532 0.70450008 -0.7634033
3.0086155 0.70666313 -0.75537157
3.0741673 0.71023631 -0.75685132
3.1430798 0.71399283 -0.75840664
3.2156186 0.71794677 -0.7600441
3.292078 0.72211468 -0.76177031
3.3727846 0.72651392 -0.7635923
3.4581013 0.73116446 -0.76551861
3.5491028 0.7240293 -0.7673043
3.6456399 0.71646446 -0.76919889
3.7474999 0.72123802 -0.77148116
3.8559318 0.72631955 -0.77391076
3.971591 0.73173988 -0.77650213
4.0952268 0.73753393 -0.7792725
4.2276926 0.74374175 -0.78224051
4.3699703 0.75040936 -0.78542835
2.970571 0.75378209 -0.76426804
3.0060878 0.75664282 -0.75642794
3.0715466 0.76146293 -0.7579332
3.1403599 0.76653022 -0.7595157
3.213357 0.76108593 -0.76095402
3.2897253 0.76641715 -0.7627039
3.3703332 0.77204454 -0.76455104
3.4555445 0.77799314 -0.76650381
3.5457649 0.78429139 -0.76857126
3.6428461 0.76614654 -0.77024257
3.7445731 0.7724697 -0.77255642
3.8528585 0.77920055 -0.77501947
3.9683599 0.78637993 -0.77764672
4.0918226 0.79405415 -0.78045499
4.2240987 0.80227619 -0.7834636
4.3671165 0.7959407 -0.78637862
2.9669976 0.81284082 -0.76530439
3.0035625 0.8065812 -0.7574833
3.0689278 0.81264615 -0.75901431
3.1376429 0.81902194 -0.76062375
3.2105336 0.81496167 -0.76209044
3.2873745 0.81068498 -0.76363707
3.3678846 0.81753832 -0.76550913
3.452991 0.82478291 -0.76748842
3.543097 0.83245313 -0.76958388
3.6400537 0.81578481 -0.77128518
3.7416472 0.82365483 -0.77363062
3.8497891 0.83203208 -0.77612716
3.9651318 0.84096718 -0.77879
4.0892715 0.83640903 -0.78134108
4.221405 0.84613907 -0.78438026
4.3642654 0.84143108 -0.78732795
2.9640236 0.86199021 -0.76616693
3.001039 0.85647249 -0.75853771
3.0663123 0.86378008 -0.76009429
3.1354704 0.8609789 -0.76150942
3.2077127 0.86878955 -0.76322603
3.2844396 0.86596918 -0.7648024
3.3654385 0.86299551 -0.76646656
3.4504385 0.87153387 -0.76847208
3.540432 0.88057375 -0.77059549
3.6372647 0.86537951 -0.77232707
3.7387247 0.87479365 -0.7747038
3.8467212 0.88481414 -0.77723384
3.9619064 0.89550161 -0.77993214
4.0867224 0.87872857 -0.78222644
4.2187133 0.8899641 -0.78529602
4.3604674 0.90203071 -0.78859264
2.9610538 0.91107363 -0.76702821
2.998518 0.90632266 -0.75959134
3.0636992 0.91487062 -0.76117349
3.1327577 0.91337973 -0.76261556
3.2054572 0.9118135 -0.76413363
3.2815075 0.92120296 -0.76596665
3.3623838 0.91976374 -0.76766241
3.4478889 0.91824621 -0.76945508
3.5377688 0.92865324 -0.77160645
3.6344776 0.9149307 -0.773368
3.735805 0.92588609 -0.77577627
3.8436575 0.93754679 -0.77833945
3.9594903 0.93636942 -0.78078818
4.0833263 0.93510753 -0.7834059
4.215127 0.94834697 -0.78651595
4.3576212 0.94743961 -0.78954017
2.9580874 0.96009904 -0.76788849
2.9959989 0.95612592 -0.76064384
3.0610881 0.96591187 -0.76225162
3.1300478 0.96573502 -0.76372075
3.2026415 0.96554571 -0.76526719
3.2791634 0.96534961 -0.76689756
3.3593321 0.97647876 -0.76885712
3.4453421 0.96491987 -0.7704376
3.5351086 0.97669202 -0.77261662
3.6309972 0.97680604 -0.7746678
3.7328887 0.97693217 -0.77684754
3.8405962 0.99023008 -0.77944404
3.9570751 0.97720438 -0.78164339
4.0799332 0.99143016 -0.78458434
4.212441 0.99209636 -0.78743017
4.3547773 0.99280804 -0.79048717
2.9551253 1.0090588 -0.76874751
2.9934826 1.0058881 -0.76169568
3.0584788 1.0169101 -0.76332867
3.1278815 1.0075831 -0.76460409
3.1998277 1.0192301 -0.76639962
3.2768216 1.0094616 -0.76782733
3.3568935 1.0218081 -0.76981199
3.442162 1.0232058 -0.7716645
3.5324512 1.0246897 -0.77362609
3.6275215 1.0386182 -0.77596629
3.7299733 1.0279319 -0.77791786
3.8375373 1.0428641 -0.78054762
3.9538579 1.0316073 -0.78278291
4.0765443 1.0476965 -0.78576154
4.2097564 1.0358081 -0.78834361
4.3509893 1.0532451 -0.79174829
2.9521661 1.0579611 -0.7696057
2.9909682 1.0556035 -0.76274633
3.0563936 1.0576742 -0.76418978
3.125176 1.0598481 -0.76570731
3.1975789 1.0621396 -0.7673049
3.2738972 1.0645515 -0.76898867
3.3544564 1.0671012 -0.77076608
3.4389853 1.0814354 -0.77289009
3.5297961 1.0726467 -0.77463484
3.6247449 1.0880175 -0.77700436
3.7270617 1.0788857 -0.77898723
3.8352451 1.082309 -0.78137463
3.950644 1.0859575 -0.78392118
4.0740042 1.089861 -0.78664351
4.2061801 1.09404 -0.78956044
4.3481512 1.0985324 -0.7926935
2.9492116 1.1067975 -0.77046257
2.9884558 1.105278 -0.76379609
3.0537891 1.1085863 -0.76526511
3.1224723 1.1120677 -0.7668097
3.1947703 1.1157285 -0.7684353
3.2703905 1.1305933 -0.77038085
3.2715592 1.1085889 -0.76991707
3.3520212 1.1123577 -0.77171952
3.4364462 1.1279743 -0.77386987
3.527143 1.120563 -0.77564263
3.6219702 1.1373733 -0.77804154
3.7241535 1.1297936 -0.78005588
3.8329549 1.1217232 -0.78220105
3.9474325 1.1402553 -0.78505844
4.0714669 1.1319907 -0.78752494
4.2026076 1.1522117 -0.7907759
4.345315 1.1437793 -0.79363775
2.94626 1.1555769 -0.77131844
2.9859462 1.1549058 -0.76484489
3.0511866 1.1594557 -0.76633966
3.1192317 1.1746655 -0.76813114
3.120852 1.1433761 -0.76747054
3.1919641 1.1692703 -0.76956493
3.2686391 1.1635826 -0.77107632
3.3489799 1.1688756 -0.77291012
3.4339085 1.1744747 -0.77484858
3.5244923 1.1684383 -0.77664942
3.6185055 1.1990088 -0.77933681
3.6198907 1.1743634 -0.77881885
3.7212486 1.1806555 -0.7811237
3.8299036 1.1742346 -0.78330207
3.9442248 1.1945009 -0.78619462
4.0680857 1.1881167 -0.78869921
4.1999307 1.1958032 -0.79168677
4.3415375 1.2040544 -0.79489553
2.9433126 1.2042907 -0.77217335
2.9829369 1.2144032 -0.76610243
3.0485868 1.2102759 -0.76741308
3.1170735 1.2163585 -0.76901114
3.1897211 1.2120656 -0.77046758
3.2657228 1.218522 -0.77223456
3.345942 1.2253404 -0.77409953
3.4313741 1.2209365 -0.77582651
3.5218444 1.2162731 -0.77765554
3.6164284 1.2359556 -0.7801131
3.7176208 1.2441697 -0.78245723
3.7190714 1.2187731 -0.78192407
3.8268561 1.2266973 -0.78440237
3.9418211 1.2351522 -0.78704613
4.0647087 1.2441869 -0.78987223
4.1972561 1.2393568 -0.79259694
4.3387065 1.2492206 -0.79583812
2.9397798 1.2626691 -0.77319765
2.980432 1.263938 -0.76714933
3.0459895 1.2610536 -0.76848567
3.1149173 1.2580209 -0.76989067
3.1869197 1.2655122 -0.77159506
3.2628088 1.273411 -0.7733916
3.343514 1.2704701 -0.77505028
3.4288402 1.2673602 -0.77680391
3.5191984 1.2640672 -0.77866083
3.6136613 1.285182 -0.78114754
3.715446 1.2822413 -0.78325653
3.8238125 1.2791109 -0.78550178
3.9394202 1.2757714 -0.78789705
4.0621777 1.2862043 -0.79075128
4.1936932 1.2973783 -0.79380941
4.3358788 1.2943463 -0.79677999
2.9368405 1.3112526 -0.77405024
2.9779291 1.313426 -0.76819521
3.043395 1.3117821 -0.76955712
3.1122231 1.3100536 -0.77098888
3.1841211 1.3189113 -0.77272147
3.2604795 1.3172827 -0.77431643
3.3410873 1.3155634 -0.77600014
3.4263096 1.3137455 -0.77778018
3.5145726 1.3476107 -0.78041774
3.5165544 1.3118207 -0.77966511
3.6108961 1.3343651 -0.78218108
3.7125487 1.3329659 -0.78432131
3.8207707 1.331476 -0.78660011
3.9362216 1.3298864 -0.78903091
4.0596495 1.3281875 -0.79162973
4.1910229 1.3408575 -0.79471791
4.3321109 1.3544602 -0.79803449
2.9339051 1.3597713 -0.77490163
2.9754281 1.3628733 -0.76924038
3.0408015 1.362468 -0.77062768
3.1095324 1.3620417 -0.77208638
3.1818838 1.361593 -0.77362192
3.258152 1.36112 -0.77524042
3.3386631 1.3606207 -0.77694929
3.4231491 1.3716714 -0.77899939
3.5125923 1.3833752 -0.78117001
3.6081338 1.3835058 -0.78321373
3.7096543 1.3836443 -0.78538549
3.8177328 1.3837922 -0.78769743
3.9330258 1.3839495 -0.79016364
4.0562816 1.3841178 -0.79280031
4.188355 1.3842988 -0.79562569
4.3292871 1.3995059 -0.79897445
2.9309726 1.4082334 -0.77575195
2.97293 1.4122746 -0.7702843
3.0382109 1.413105 -0.77169734
3.1068435 1.4139786 -0.77318287
3.1790905 1.4148974 -0.77474642
3.2552457 1.4158669 -0.77639467
3.3356357 1.4168894 -0.77813464
3.419992 1.4295418 -0.78021759
3.5099545 1.4310274 -0.7821722
3.6053734 1.4326029 -0.78424543
3.7067618 1.4342773 -0.78644848
3.8146968 1.4360597 -0.78879374
3.9298334 1.4379609 -0.79129535
4.052918 1.4399931 -0.79396969
4.1848016 1.4421711 -0.79683512
4.3264666 1.4445107 -0.7999137
2.9280443 1.45663 -0.7766012
2.9704332 1.4616351 -0.77132756
3.0356236 1.4636996 -0.77276587
3.1041574 1.4658704 -0.77427793
3.1762991 1.4681551 -0.77586985
3.2523422 1.4705637 -0.77754772
3.3326116 1.4731059 -0.77931893
3.4174681 1.4757934 -0.78119117
3.5073185 1.4786394 -0.78317368
3.6026163 1.4816575 -0.78527635
3.7038727 1.4848645 -0.78751063
3.8116641 1.4882786 -0.78988898
3.9266443 1.49192 -0.79242587
4.0495572 1.4958131 -0.795138
4.1812534 1.499984 -0.79804367
4.3227096 1.5044644 -0.80116498
2.9251189 1.504971 -0.77744943
2.9679394 1.5109494 -0.7723698
3.0330377 1.5142457 -0.77383357
3.1020098 1.5073481 -0.77515364
3.174068 1.5107236 -0.77676785
3.250021 1.5142815 -0.77846938
3.3301935 1.5180371 -0.78026533
3.4149466 1.5220072 -0.78216386
3.5046849 1.5262108 -0.78417414
3.5998607 1.5306692 -0.78630626
3.7009859 1.5354061 -0.78857172
3.8086338 1.5404487 -0.7909832
3.9234576 1.5458276 -0.79355532
4.047039 1.537643 -0.79601336
4.1785941 1.5433064 -0.79894924
4.3198948 1.5493896 -0.80210274
2.9221983 1.5532472 -0.77829653
2.9654474 1.5602231 -0.77341115
3.0304537 1.5647492 -0.77490032
3.0993285 1.5591505 -0.7762472
3.1712818 1.5638866 -0.77788925
3.2471228 1.5688791 -0.77962029
3.3277779 1.5629323 -0.78121114
3.4124265 1.5681827 -0.78313577
3.5020528 1.5737422 -0.78517395
3.5971084 1.579638 -0.78733534
3.6981015 1.5859025 -0.78963184
3.8056068 1.5925708 -0.79207635
3.9210701 1.5862257 -0.79440182
4.0445228 1.5794384 -0.79688811
4.1759372 1.5865917 -0.79985416
4.3170834 1.594275 -0.80303991
2.9186978 1.6111014 -0.77931178
2.9629579 1.6094511 -0.77445161
3.027873 1.6152043 -0.77596593
3.0966487 1.6109085 -0.77733982
3.168498 1.6170032 -0.77900988
3.2442265 1.6234269 -0.78077018
3.3247609 1.6189985 -0.78239214
3.4099097 1.6143203 -0.78410697
3.499424 1.621233 -0.78617269
3.594358 1.6285644 -0.7883634
3.6952195 1.6363533 -0.79069096
3.8033376 1.6316319 -0.79289567
3.918684 1.6265914 -0.7952475
4.0411706 1.6351197 -0.79805344
4.1723981 1.6442561 -0.80105948
4.3133373 1.6540692 -0.80428809
2.9157848 1.6592488 -0.78015661
2.9604702 1.6586382 -0.77549112
3.0252938 1.6656172 -0.77703077
3.0939722 1.6626151 -0.77843124
3.1662722 1.6594586 -0.7799055
3.2419114 1.667026 -0.78168929
3.3217473 1.6750128 -0.78357202
3.4067659 1.6719368 -0.78531975
3.4967966 1.6686838 -0.78717071
3.59161 1.6774473 -0.78939062
3.6923409 1.6867585 -0.79174924
3.8010712 1.6706629 -0.79371428
3.9155054 1.6803696 -0.79637432
4.0378218 1.6907458 -0.7992177
4.1688619 1.7018616 -0.80226368
4.3105307 1.6988747 -0.80522346
2.9190869 1.7136879 -0.77022099
2.9669428 1.7051589 -0.77271271
3.0281377 1.7116098 -0.77284575
3.0923004 1.7183805 -0.77299392
3.1531477 1.7301006 -0.76772255
3.1640496 1.7018824 -0.78080034
3.2270546 1.7222939 -0.77373958
3.278625 1.7380681 -0.76189238
3.3281479 1.7272182 -0.77976227
3.403625 1.7294984 -0.78653133
3.4159808 1.7465417 -0.76726365
3.4941721 1.7160943 -0.78816789
3.5888643 1.7262886 -0.79041696
3.6894646 1.7371187 -0.79280651
3.7980509 1.7226636 -0.79480499
3.9123297 1.7340963 -0.79750007
4.0344758 1.7463164 -0.80038065
4.1662126 1.7450283 -0.80316615
4.3077264 1.7436409 -0.80615807
2.9101892 1.7556822 -0.77212399
3.489675 1.7509613 -0.77616245
3.5669036 1.7558525 -0.77316737
3.6480355 1.7609909 -0.7700212
3.7335067 1.7661307 -0.77968234
3.7957873 1.7616346 -0.79562235
3.8234 1.7718165 -0.77654165
3.9140792 1.7760868 -0.78578639
4.0185218 1.7838621 -0.78379947
4.1244707 1.7905552 -0.78050488
4.1644473 1.7737868 -0.80376726
4.2369404 1.7973456 -0.79192072
4.304924 1.7883751 -0.80709201
2.9072866 1.803647 -0.77297169
2.9038086 1.8611288 -0.77398765
2.9009142 1.9089663 -0.77483308
2.8974457 1.9662905 -0.77584618
2.899179 1.9376402 -0.7753399
2.8951359 2.0044591 -0.77652073
2.8922524 2.0521147 -0.777363
2.8887963 2.1092253 -0.77837223
2.8859205 2.1567543 -0.7792123
2.8841963 2.1852441 -0.7797159
2.9204965 1.7240045 -0.72126257
2.9836655 1.7203996 -0.72514409
3.0377297 1.7238545 -0.72159421
3.0941267 1.7272377 -0.72840285
3.1528864 1.7309883 -0.72477019
3.2142239 1.7349031 -0.72097826
3.2783122 1.7389932 -0.71701634
3.3455129 1.7427993 -0.73582119
3.4157033 1.7472675 -0.73202068
2.9112878 1.7572951 -0.72351992
3.4892693 1.7519505 -0.72803748
3.5664601 1.7568645 -0.72385788
3.6475506 1.7620265 -0.71946722
3.733109 1.7669261 -0.74077541
3.8229647 1.7726316 -0.7366004
3.9177337 1.7786491 -0.73219723
4.0178289 1.7850049 -0.72754639
4.1239023 1.791435 -0.73709005
4.2363176 1.7982497 -0.7472074
2.9083843 1.8052666 -0.72439814
2.9049044 1.8627558 -0.72545046
2.9020085 1.9105999 -0.72632635
2.8981404 1.9725423 -0.73231149
2.8998976 1.9470518 -0.72311258
2.8962283 2.0061059 -0.72807455
2.8933434 2.0537679 -0.72894698
2.8898859 2.1108863 -0.72999251
2.8870096 2.1584222 -0.7308628
2.8852844 2.1869154 -0.7313844
2.9229097 1.7243626 -0.66694528
2.983417 1.7214429 -0.6747371
3.037456 1.7249179 -0.67015183
3.0938249 1.728322 -0.6758759
3.152555 1.7320945 -0.67111802
3.213933 1.7358065 -0.67711204
3.2779932 1.7399151 -0.67216808
3.3450785 1.7439778 -0.67846489
3.4153252 1.7482316 -0.68505502
2.9126348 1.7571816 -0.66902876
3.4888568 1.7529366 -0.67994463
3.5660105 1.7578733 -0.67458242
3.6470604 1.7630591 -0.66894948
3.7325788 1.7679861 -0.68893224
3.8223858 1.7737174 -0.68338013
3.9171009 1.7797623 -0.67752445
4.0173101 1.7858613 -0.68538553
4.1233344 1.7923145 -0.69370586
4.2354894 1.799454 -0.68763328
2.909482 1.8068869 -0.67581016
2.9060006 1.8643837 -0.67689908
2.9031038 1.9122345 -0.67780519
2.8990541 1.9791238 -0.6790719
2.9007888 1.9504704 -0.67852926
2.8973207 2.0077531 -0.67961395
2.8944349 2.0554218 -0.68051672
2.8909769 2.1125481 -0.68159872
2.8880987 2.1600904 -0.68249905
2.886373 2.1885874 -0.68303871
2.9233479 1.7256792 -0.61793321
2.9831696 1.7224853 -0.62437028
3.0371823 1.7259805 -0.61875123
3.0935235 1.7294059 -0.62338746
3.1522241 1.7331996 -0.61750561
3.2135696 1.7369344 -0.62232089
3.2776747 1.7408371 -0.62734973
3.3446426 1.7451544 -0.62115347
3.4148479 1.749434 -0.62639457
2.9134569 1.7625721 -0.6224125
3.48844 1.7539198 -0.63188481
3.5655551 1.7588792 -0.62534142
3.6466875 1.7638311 -0.63108337
3.7320385 1.7690411 -0.63712639
3.8217964 1.7747989 -0.63019919
3.9166198 1.7805946 -0.63654596
4.0167885 1.7867162 -0.64325321
4.1225758 1.7934852 -0.6359008
4.234868 1.8003564 -0.64298522
4.354073 1.8076503 -0.65050864
2.9105792 1.8085072 -0.62720579
2.9070973 1.8660123 -0.62833112
2.9041986 1.9138694 -0.62926775
2.9013047 1.9616632 -0.63020301
2.8984137 2.0094011 -0.63113731
2.8955269 2.0570765 -0.63207024
2.8920674 2.1142108 -0.63318843
2.8891878 2.1617591 -0.63411891
2.8874621 2.1902604 -0.63467681
2.9237862 1.7269952 -0.56893218
2.9829221 1.7235272 -0.57403862
3.0369096 1.7270424 -0.56738716
3.0932221 1.7304888 -0.57094234
3.1519594 1.7340837 -0.57464767
3.2132063 1.7380614 -0.56757134
3.2773561 1.7417576 -0.58256119
3.3442945 1.7460949 -0.57534081
3.4143715 1.7506356 -0.56778157
2.9148045 1.7624598 -0.5678851
3.4880238 1.7549026 -0.58385938
3.5651002 1.7598846 -0.57613635
3.6463146 1.7646027 -0.59324092
3.7314954 1.7700942 -0.58535951
3.8212042 1.7758777 -0.57705921
3.9161344 1.781424 -0.59559393
4.0160828 1.7878516 -0.5871132
4.1219978 1.7943594 -0.59257585
4.2342391 1.8012557 -0.59836805
4.3531594 1.8088839 -0.58919013
2.9118972 1.8104522 -0.56886095
2.9084134 1.8679667 -0.57002997
2.9055138 1.915832 -0.57100308
2.9026184 1.9636335 -0.57197487
2.8993278 2.0159862 -0.57789326
2.9005232 2.002166 -0.56305015
2.8968382 2.0590622 -0.57391483
2.8934169 2.1132965 -0.58055633
2.8902783 2.1634283 -0.58572471
2.8885512 2.1919332 -0.58630061
3.3861251 -1.1003728 -0.42848784
3.4827614 -1.0854869 -0.42546231
3.664166 -1.085979 -0.43648452
3.7802844 -1.0691183 -0.43345171
3.9050946 -1.0509953 -0.43019181
4.0001626 -1.0685849 -0.44614792
4.1423039 -1.0492015 -0.44317281
4.2962856 -1.0282028 -0.43994999
2.9342299 1.729423 -0.52561188
2.9827242 1.72436 -0.53380138
3.0439601 1.7310326 -0.52809149
3.0929823 1.7313545 -0.52901238
3.153594 1.7357581 -0.53226268
3.2129889 1.7387378 -0.53474307
3.2770386 1.7426784 -0.53780246
3.3440332 1.7467999 -0.54100072
3.4140863 1.7513559 -0.53263843
2.9342856 1.7666984 -0.52167886
3.0429001 1.7722285 -0.51904064
3.1465435 1.776068 -0.52142149
3.2608986 1.7700276 -0.52414632
3.3824339 1.7740991 -0.52694213
3.487711 1.7556393 -0.54786152
3.514596 1.7785265 -0.52998233
3.5647593 1.7606375 -0.53925502
3.6508694 1.7801647 -0.54426795
3.66189 1.7717626 -0.53348231
3.7310891 1.7708843 -0.54655933
3.8171706 1.7887437 -0.53698665
3.9156494 1.7822535 -0.55466425
3.9872322 1.8072352 -0.54073161
4.0155535 1.7887022 -0.54503721
4.1216116 1.7949417 -0.5637089
4.1792684 1.8143504 -0.54514253
4.2336054 1.8021526 -0.55377609
2.9224949 1.8126655 -0.52443975
3.0326085 1.8192754 -0.51834971
3.135498 1.8249145 -0.52069676
3.2489953 1.8208656 -0.52338314
3.3695745 1.8270426 -0.5261364
3.5006552 1.8337576 -0.52912951
3.6466937 1.8295898 -0.53257543
3.8003283 1.8491371 -0.535972
3.8069439 1.825011 -0.53635681
3.976315 1.8453085 -0.54011327
4.1672239 1.8544126 -0.54447889
2.9184089 1.8641868 -0.52333349
3.0223894 1.8659863 -0.5176636
3.1245289 1.8733966 -0.51997602
3.2371688 1.8713586 -0.52262414
3.3568053 1.8796139 -0.52533627
3.4868174 1.8885832 -0.528283
3.6346245 1.8755162 -0.53185523
3.7904506 1.88516 -0.53539753
3.9618464 1.895767 -0.53929365
4.1472931 1.9207077 -0.54338062
4.1552405 1.8942707 -0.54381859
2.9122462 1.9145415 -0.52170074
3.0102134 1.9216399 -0.51684612
3.1136312 1.9215653 -0.51926005
3.2254291 1.9214613 -0.52187002
3.3466582 1.9213736 -0.52469981
3.4758277 1.9321232 -0.52761066
3.6196532 1.9324856 -0.53096175
3.7773571 1.9329152 -0.53463584
3.9474821 1.9458611 -0.5384801
4.1393747 1.9470446 -0.54294431
4.3485298 1.9622185 -0.54767758
2.9044542 1.9656787 -0.5236237
3.0001397 1.967689 -0.51616961
3.0985031 1.9884343 -0.51826632
3.104969 1.9598515 -0.51869106
3.2137685 1.9712281 -0.52112091
3.3340592 1.973208 -0.52390903
3.4649014 1.9753883 -0.52694142
3.6047964 1.9890201 -0.53007513
3.7643518 1.9803431 -0.53387946
3.9332209 1.995595 -0.53767234
4.1275578 1.9863498 -0.54229313
4.335434 2.0036461 -0.54697633
2.900023 2.0222428 -0.53433847
2.9010859 2.0099573 -0.52113533
2.9901366 2.013413 -0.51549798
3.0920658 2.0168853 -0.51784331
3.1975851 2.0402937 -0.52008134
3.2045021 2.0107749 -0.52052569
3.3215475 2.0246811 -0.5231238
3.4459386 2.0504618 -0.52577949
3.4540415 2.0183833 -0.52627593
3.5929942 2.0339017 -0.52936983
3.7450113 2.050879 -0.53275436
3.7546544 2.015712 -0.53331524
3.9190621 2.0449727 -0.53687036
4.1119008 2.0384281 -0.54143059
4.318089 2.0585167 -0.54604769
2.8979306 2.0607178 -0.52543581
2.9782176 2.0678947 -0.51469767
3.0813971 2.064044 -0.51714247
3.1907015 2.0696721 -0.51963925
3.309135 2.0757461 -0.52234477
3.4378777 2.0823746 -0.52528554
3.5812674 2.0784917 -0.52866882
3.7322197 2.0975008 -0.53200918
3.905004 2.0939977 -0.5360741
4.0924911 2.1029866 -0.54036099
4.1002321 2.0772412 -0.54078758
4.2965965 2.1265063 -0.54489678
4.3051667 2.0993969 -0.54535568
2.8941603 2.1199994 -0.53394985
2.966392 2.1219468 -0.51390386
3.068687 2.1202223 -0.51630741
3.1792936 2.1183579 -0.51890641
3.2943535 2.1365602 -0.52141702
3.2992644 2.1163557 -0.52172524
3.4271851 2.124706 -0.52463037
3.5667195 2.1338079 -0.52779925
3.7195134 2.143806 -0.53126895
3.8910418 2.1426718 -0.53528261
4.0809388 2.1414123 -0.53972447
4.2880607 2.1535087 -0.54443967
2.8913679 2.1650982 -0.53731412
2.9566073 2.1666753 -0.51324672
3.0581727 2.1666975 -0.51561666
3.1657081 2.1763394 -0.51803368
3.2845793 2.1767707 -0.52080357
3.4139161 2.1772397 -0.52381718
3.5522814 2.1887081 -0.52693623
3.706893 2.1897981 -0.53053367
3.8771734 2.1909988 -0.53449589
4.06563 2.1923268 -0.53888077
4.2753243 2.193799 -0.54375774
2.8896408 2.1936066 -0.53790814
2.9430165 2.228797 -0.51233423
2.9488263 2.2022398 -0.51272434
3.0435739 2.2312248 -0.51465756
3.0498142 2.2036419 -0.51506758
3.1544719 2.2242939 -0.51731193
3.2724338 2.2267385 -0.52004123
3.4007411 2.2293971 -0.5230099
3.5408168 2.2322998 -0.52625096
3.6912341 2.2468636 -0.52962142
3.6974802 2.2240987 -0.52998531
3.8634033 2.2389841 -0.53371459
4.050427 2.2428594 -0.53804177
4.2584538 2.2471683 -0.54285437
3.0352983 2.2678037 -0.51411384
3.1410956 2.2813811 -0.51645267
3.147768 2.2529044 -0.51688129
3.2603836 2.2763157 -0.51928484
3.3876743 2.2811294 -0.52220917
3.5294261 2.2756121 -0.52556992
3.6819062 2.2808578 -0.52907795
3.84973 2.2866313 -0.5329389
4.0353355 2.2930167 -0.53720897
4.2375364 2.3133006 -0.54173297
4.2458787 2.2869315 -0.54218048
3.1322408 2.3191719 -0.51588386
3.248415 2.3255553 -0.51853371
3.3747001 2.3324938 -0.52141416
3.5152931 2.32935 -0.52472508
3.6664629 2.3371372 -0.52817827
3.8361526 2.3339443 -0.53216863
4.0203562 2.3428032 -0.53638226
4.2250881 2.3526492 -0.54106545
3.2412758 2.3549266 -0.51808554
3.3643942 2.3732941 -0.52078265
3.501265 2.3826904 -0.52388662
3.6511397 2.3929791 -0.52728534
3.82267 2.3809264 -0.53140378
4.0054865 2.3922229 -0.53556168
4.2085977 2.4047742 -0.5401811
3.8126173 2.4159575 -0.53083336
3.9944024 2.4290612 -0.5349499
4.19631 2.4436154 -0.53952205
3.3206663 -1.0850472 -0.41561347
3.346343 -1.0552218 -0.39961463
3.4129958 -1.0700092 -0.41224366
3.5114527 -1.0539727 -0.40865016
3.5859661 -1.0695896 -0.42223126
3.6964312 -1.0525737 -0.41877288
4.0396123 -1.0314631 -0.42667848
3.2215762 -1.0275416 -0.37597466
3.2825985 -1.0410795 -0.3875367
3.3075976 -1.0112484 -0.37149453
3.3724899 -1.0248487 -0.38332209
3.454318 -1.0233157 -0.387263
