# .PCD v0.7 - Point Cloud Data file format
VERSION 0.7
FIELDS x y z
SIZE 4 4 4
TYPE F F F
COUNT 1 1 1
WIDTH 1474
HEIGHT 1
VIEWPOINT 0 0 0 1 0 0 0
POINTS 1474
DATA ascii
3.6420581 -0.012769073 -1.0685383
3.6930709 0.00522542 -1.0633476
3.7457116 0.023793682 -1.0579914
3.7934842 -0.0080831647 -1.0762944
3.8493965 0.010838509 -1.070986
3.9071779 0.030392736 -1.0655
3.9596739 -0.0029403865 -1.0848067
4.0212259 0.017008498 -1.0793815
4.1428976 0.0027296841 -1.0941911
4.210988 0.023822337 -1.0886534
4.3459158 0.0090121031 -1.1045897
3.9669235 0.050611615 -1.0598273
4.0849404 0.037657797 -1.0737662
4.1509304 0.059045032 -1.0679498
4.2193236 0.081210613 -1.0619221
4.2815967 0.045694932 -1.082911
4.3548646 0.068391711 -1.076952
3.1505826 -0.027977332 -1.043364
3.2590032 -0.024622306 -1.0489175
3.1035762 0.01096797 -1.0217509
3.1548514 0.013394073 -1.0239781
3.2060957 -0.0052127689 -1.0362022
3.2636259 0.018379197 -1.0287803
3.2986386 -0.0089369565 -1.0440743
3.3603382 0.015479952 -1.036535
3.4192338 -0.0046068579 -1.0499668
3.4634535 0.012258515 -1.0448649
3.5089839 0.02962397 -1.0396118
3.5983973 0.017773405 -1.0511405
3.0579629 0.048759103 -1.0007782
3.1231775 0.039125755 -1.0096574
3.1591344 0.05490227 -1.0045285
3.2105436 0.03703098 -1.0164137
3.2682645 0.061528519 -1.0085738
3.3057802 0.056575507 -1.0134017
3.34428 0.051453546 -1.018375
3.4053686 0.054765701 -1.0208282
3.4687817 0.058395386 -1.0232837
3.5144768 0.076478362 -1.0177003
3.5558846 0.047512114 -1.0342004
3.6042187 0.065946743 -1.0286236
3.6480434 0.035997048 -1.0457505
3.6992514 0.054794103 -1.0401912
3.7520959 0.074191809 -1.0344541
3.8000576 0.042963937 -1.0524614
3.8561938 0.062765673 -1.0467491
3.9142108 0.083230741 -1.0408456
4.0287352 0.071529761 -1.0539587
3.4295962 0.086439654 -1.0073686
3.4741297 0.10470214 -1.0016232
3.5615489 0.095106758 -1.0119483
3.6100621 0.11430544 -1.0060201
3.654052 0.08495339 -1.0228739
3.705456 0.10455906 -1.016943
3.7585061 0.12479255 -1.0108223
3.8066566 0.094219461 -1.0285306
3.8630185 0.11490827 -1.0224118
3.9742036 0.10439289 -1.0347409
4.0362759 0.12628853 -1.0284247
4.0927215 0.093184009 -1.0478834
4.1589999 0.11561396 -1.0415905
4.2902498 0.10419774 -1.0556706
4.3638563 0.12805295 -1.0491834
3.8132827 0.14568457 -1.0045021
3.9212725 0.13629162 -1.0160873
3.9815156 0.1584049 -1.0095471
4.1005373 0.14895645 -1.0218856
4.1671066 0.17243806 -1.0151122
4.2276964 0.13886192 -1.0350682
4.2989454 0.1629737 -1.0283034
4.37289 0.1879981 -1.0212826
4.2361078 0.19677815 -1.0080905
3.0284445 0.073215604 -0.98720598
3.0922155 0.064279467 -0.99565864
3.1960506 0.071099639 -0.99926245
2.9768627 0.11987178 -0.96347779
2.9995663 0.097141244 -0.97392821
3.0471373 0.10090131 -0.97527736
3.1184058 0.10218526 -0.97936565
3.1634314 0.096548073 -0.98501432
3.2004676 0.11332923 -0.97947884
3.253442 0.096280828 -0.99107581
3.3129556 0.12239311 -0.98258656
3.3491917 0.095875576 -0.99758154
3.3913877 0.11378422 -0.99185026
3.5199897 0.12350813 -0.9957068
2.9750237 0.14973746 -0.96254963
3.0033674 0.13645996 -0.95548755
3.0510833 0.14094226 -0.95650274
3.1003997 0.14572391 -0.95748109
3.1517549 0.15054809 -0.95857376
3.2048991 0.1557008 -0.95962822
3.2530527 0.15079334 -0.96513611
3.3177612 0.16647619 -0.96194708
3.3541207 0.14045486 -0.97671437
3.3964629 0.15903296 -0.97067451
3.4514453 0.15384705 -0.97676498
3.5255234 0.17071396 -0.97363096
3.5672345 0.14288217 -0.98961163
3.6159286 0.16285047 -0.98332971
3.6600838 0.13410088 -0.99990797
3.7116854 0.15452155 -0.99360257
3.7649419 0.1755974 -0.98709482
3.8698714 0.16726771 -0.99797291
4.0438504 0.18128636 -1.0027797
2.9719636 0.19943534 -0.96100509
3.3590672 0.18519238 -0.95577329
3.4848857 0.19782959 -0.95806134
3.5520103 0.20446812 -0.95933121
3.6218181 0.21158305 -0.96055156
3.6661396 0.18344083 -0.976852
3.7179391 0.20468274 -0.97016919
3.7714045 0.22660759 -0.96327174
3.8199363 0.19736063 -0.98037505
3.8767531 0.21984528 -0.97343242
3.9283643 0.1895768 -0.99122417
3.9888573 0.21264923 -0.98424447
4.1083879 0.20497654 -0.99577272
4.1752486 0.22951916 -0.98851395
4.3076797 0.22202462 -1.0008078
2.9689088 0.24904203 -0.9594636
3.672219 0.23297428 -0.95370567
3.8266168 0.24924882 -0.95614868
3.9354851 0.2430878 -0.96625555
3.9962313 0.26712728 -0.95883292
4.0514565 0.23652478 -0.97702205
4.1162734 0.26124611 -0.9695434
4.1834278 0.28685904 -0.96179521
4.2445588 0.25496113 -0.9809891
4.3164563 0.28135258 -0.97318345
2.9658616 0.29854488 -0.95792496
2.9628189 0.3479571 -0.95638961
2.9597828 0.39726609 -0.95485717
2.9567525 0.44648498 -0.95332772
2.953728 0.49560127 -0.95180136
2.9501066 0.55441809 -0.94997358
2.9470952 0.60333002 -0.94845349
2.9440897 0.65214032 -0.94693673
2.9410901 0.70086187 -0.94542283
2.9380963 0.74948251 -0.94391191
2.9357052 0.78831828 -0.94270509
2.9751492 0.15947208 -0.94272894
3.0699375 0.16948977 -0.94417489
2.973814 0.20302343 -0.93405616
3.009093 0.19568425 -0.92771095
3.0570507 0.20136166 -0.92817414
3.1045117 0.18664436 -0.9382996
3.1628227 0.20227358 -0.93471432
3.2093456 0.19821525 -0.93971121
3.2476351 0.2166636 -0.93346566
3.3024299 0.20129281 -0.94438523
3.4015567 0.20444465 -0.94942248
3.4452803 0.22425634 -0.94288737
2.9701116 0.25067592 -0.92433512
2.998668 0.24643403 -0.90289837
3.0610285 0.2417234 -0.90924913
3.1107066 0.24829145 -0.90940225
3.1442285 0.24586809 -0.91276455
3.1972857 0.25269705 -0.9130162
3.2522228 0.25993386 -0.91319811
3.3072019 0.2453635 -0.92374969
3.3665223 0.25261712 -0.92421234
3.4066682 0.25001997 -0.92809385
3.4505465 0.27053121 -0.92123646
3.4902933 0.24465209 -0.93615937
3.5576625 0.25231871 -0.93695676
3.6277297 0.26050419 -0.93768525
3.7242184 0.25504372 -0.9466427
3.7778928 0.27782419 -0.93935215
3.8836632 0.27264228 -0.9487893
2.9673302 0.29817975 -0.91899526
3.2182832 0.28367537 -0.8996743
3.2916985 0.27952069 -0.90648979
3.3322799 0.2996558 -0.89959353
3.4117985 0.29575998 -0.90668833
3.4558325 0.31697583 -0.89950615
3.4957209 0.29164842 -0.91417605
3.5422499 0.31339884 -0.90690416
3.5844223 0.28730273 -0.92209029
3.6559937 0.29615861 -0.92259932
3.7305226 0.30560574 -0.92302227
3.7844079 0.32924855 -0.91533571
3.8333249 0.30135059 -0.93182307
3.8906024 0.32566011 -0.92404312
3.942637 0.29682589 -0.94118112
4.0036368 0.32184058 -0.93331158
4.0590963 0.29200542 -0.95115107
4.1241932 0.31776679 -0.94319683
4.2530484 0.31341255 -0.95376235
2.9642851 0.3476153 -0.91749704
3.6844499 0.33262628 -0.90713954
3.8400614 0.35366708 -0.90739703
3.9498188 0.35079259 -0.91600007
4.0110745 0.37679052 -0.90767986
4.0667696 0.34772977 -0.92516679
4.1321487 0.37454021 -0.91673243
4.1916437 0.3444593 -0.93495488
4.2615757 0.37213451 -0.92640942
4.3252735 0.34095961 -0.94542903
2.9612458 0.3969475 -0.91600233
4.1998959 0.4023219 -0.9079923
4.3341322 0.40084755 -0.91754353
2.9581876 0.44425106 -0.9184525
2.9548206 0.49539706 -0.92272049
2.9511974 0.5542345 -0.92092621
2.9481835 0.60316366 -0.91943407
2.9451761 0.65199101 -0.91794509
2.9421742 0.70072973 -0.91645855
2.9391782 0.749367 -0.91497552
2.9358528 0.79987526 -0.91921633
2.9328446 0.84639204 -0.92164439
2.9292717 0.90440357 -0.91986418
2.9263012 0.95264649 -0.91838354
2.9222689 1.0152237 -0.92126203
2.92419 0.98924255 -0.91342127
2.9203761 1.0488461 -0.9154312
2.9174225 1.0968037 -0.91395944
2.9138858 1.1542338 -0.91219699
2.9109445 1.2019941 -0.91073132
2.9080095 1.2496562 -0.90926862
2.9050796 1.2972326 -0.90780854
2.901803 1.3446816 -0.91588539
2.8983021 1.4015331 -0.91412956
2.895391 1.4488124 -0.9126696
2.8924854 1.4959953 -0.91121233
2.8890061 1.5524988 -0.90946746
2.8861122 1.5994892 -0.90801626
2.883225 1.6463838 -0.90656805
2.8797665 1.7025429 -0.90483344
2.8768904 1.749247 -0.90339112
2.8740208 1.7958561 -0.90195197
2.8705833 1.8516734 -0.90022838
2.8677251 1.8980937 -0.89879459
2.8648727 1.9444199 -0.8973639
2.861721 1.99371 -0.89897752
2.8629365 1.9815255 -0.8868106
3.0480108 0.27304226 -0.89350259
2.9681902 0.30771643 -0.87974268
2.9983146 0.29613408 -0.87924868
3.0519612 0.31338927 -0.87458295
3.0994778 0.30079639 -0.88370216
3.1484799 0.28762576 -0.8931939
3.2039545 0.3167437 -0.88300949
3.2568262 0.30335248 -0.89286131
3.2964344 0.32357365 -0.8858602
3.3740134 0.32036251 -0.89250165
2.9661191 0.34718767 -0.86883628
3.0081673 0.34543753 -0.85646039
3.0559244 0.35386494 -0.85560298
3.0991101 0.35241669 -0.85913867
3.1548858 0.35053831 -0.86370897
3.2083998 0.35953307 -0.86296141
3.2614453 0.34692013 -0.87245476
3.3011868 0.36777991 -0.8651588
3.3580916 0.35505152 -0.87496132
3.4169481 0.34166545 -0.88520545
3.4611378 0.3635909 -0.8776961
3.5011692 0.33881956 -0.89211112
3.5478675 0.36131951 -0.88449407
3.5901947 0.33581129 -0.89941102
3.6396224 0.35891646 -0.89168614
3.7368519 0.35637009 -0.89930713
3.7909486 0.38088199 -0.8912214
3.8975706 0.37890017 -0.89919341
2.9630768 0.39654899 -0.86738801
3.2660804 0.39063764 -0.85197794
3.3420444 0.38922572 -0.85765761
3.4030912 0.39950997 -0.8567937
3.4664619 0.4103775 -0.85580575
3.5066369 0.38616645 -0.86996382
3.5535064 0.40942144 -0.86199915
3.5959904 0.38450563 -0.87664479
3.6456034 0.40840989 -0.86855221
3.6906013 0.38274711 -0.88371855
3.743207 0.4073379 -0.8754971
3.8468249 0.40619984 -0.88287008
3.9045684 0.43236399 -0.87423927
3.9570312 0.40498942 -0.89071137
4.0185442 0.43197891 -0.88193679
4.0744762 0.40369946 -0.89906818
4.1401396 0.43156803 -0.89014947
4.2701435 0.43112868 -0.89892954
2.9596989 0.44783247 -0.87171376
3.6018074 0.43338707 -0.85379118
3.6967773 0.43306613 -0.86020505
3.7495868 0.45851037 -0.85159135
3.7975168 0.43272576 -0.86700892
3.8536162 0.45895007 -0.8582412
3.9642754 0.45941767 -0.8653149
4.0822172 0.45991617 -0.87285423
4.2081861 0.4604485 -0.8809067
4.3430309 0.46101832 -0.88952649
2.9566445 0.49505642 -0.87420762
4.0260472 0.48740703 -0.85608226
4.1481657 0.48885196 -0.86344689
4.2165151 0.51884103 -0.85369718
4.2787504 0.49039704 -0.87132215
4.3519726 0.52147406 -0.86137646
2.9530158 0.55392832 -0.87246895
2.9499986 0.60288602 -0.87102318
2.9469881 0.65174192 -0.86958057
2.9439824 0.70050889 -0.8681404
2.9409835 0.74917459 -0.86670339
2.9379895 0.79775214 -0.86526895
2.9350021 0.84622872 -0.86383736
2.9316623 0.89876401 -0.86503643
2.9289854 0.94531441 -0.85850495
2.9251227 1.0007427 -0.8688876
2.9218433 1.0520306 -0.87056398
2.9231083 1.0392146 -0.85814154
2.9192026 1.0968114 -0.86603206
2.9158261 1.1504467 -0.86635315
2.9131408 1.1963326 -0.86115861
2.9097784 1.2497513 -0.8614862
2.9068444 1.2973548 -0.86007112
2.9035649 1.3448311 -0.86820054
2.9000602 1.4017146 -0.86649877
2.8971455 1.4490205 -0.86508363
2.8942366 1.4962304 -0.86367124
2.890753 1.5527655 -0.8619799
2.8878565 1.5997823 -0.86057323
2.8849649 1.6467028 -0.85916942
2.8815029 1.7028933 -0.85748839
2.8786237 1.7496237 -0.85609066
2.8757505 1.7962586 -0.85469544
2.8723664 1.8497608 -0.85545492
2.869103 1.8984612 -0.86107278
2.8662477 1.9448078 -0.85967737
2.8624852 2.0002127 -0.86742145
2.8637021 1.9880259 -0.85523868
2.9655237 0.40119022 -0.83377683
3.0119972 0.38530213 -0.83776194
3.0451059 0.40481889 -0.83066708
3.1097543 0.40386027 -0.83538532
3.1613197 0.41372895 -0.83409381
3.1939158 0.39197892 -0.84658223
3.2318044 0.41295481 -0.83910894
3.3059554 0.41214037 -0.84438515
2.9638114 0.44746497 -0.82202768
3.0013669 0.43541595 -0.81323802
3.0490489 0.44534591 -0.81166124
3.1138983 0.44537058 -0.81592524
3.165628 0.4560425 -0.81426275
3.1983299 0.43475044 -0.82654077
3.2535367 0.44542354 -0.8251068
3.3107409 0.45665577 -0.82353896
3.3469522 0.43424815 -0.83657855
3.408211 0.44548184 -0.83527714
3.471806 0.45733646 -0.83383471
3.5121257 0.43369007 -0.84773421
3.5591667 0.45770565 -0.83941907
3.6516075 0.4580963 -0.84532815
2.9588354 0.49464712 -0.81591958
3.0678895 0.47606999 -0.79829794
3.1336732 0.47684836 -0.80226523
3.2027578 0.47766578 -0.80643171
3.2581468 0.48920059 -0.80460018
3.3155429 0.50132692 -0.80261976
3.3518777 0.47943017 -0.8154245
3.394191 0.50285578 -0.8070783
3.4491363 0.50393796 -0.81018645
3.5203998 0.50533152 -0.81422275
3.5648479 0.50617319 -0.81675321
3.6076472 0.48245654 -0.83084941
3.6576352 0.50797689 -0.82201344
3.7029774 0.48358443 -0.83659852
3.7559924 0.50988883 -0.82758933
3.8041112 0.48478109 -0.84269768
3.8604362 0.51191902 -0.83351052
3.9115951 0.48605281 -0.8491798
3.97155 0.51407903 -0.83980966
4.0899925 0.5163815 -0.84652448
2.9552016 0.55356038 -0.81424838
3.6135094 0.53171515 -0.80781943
3.7092023 0.53430331 -0.81289834
3.7624242 0.5614745 -0.80349076
3.8107333 0.53704941 -0.81828713
3.8672843 0.56510842 -0.80867696
3.9186523 0.53996819 -0.82401502
3.9788551 0.56897497 -0.8141951
4.0335817 0.54307663 -0.83011478
4.0978022 0.57309711 -0.82007802
4.156229 0.54639387 -0.83662432
4.2248816 0.57750106 -0.82636309
4.2873974 0.54994148 -0.84358591
4.3609571 0.58221674 -0.83309305
2.9518166 0.6026082 -0.82256001
4.0411501 0.59898925 -0.80403399
4.1643291 0.60419536 -0.80968064
4.2960849 0.60976398 -0.81572056
2.9488018 0.6514926 -0.82116383
4.3699841 0.64324832 -0.80467486
2.9457934 0.70028806 -0.81977022
2.9427903 0.74898207 -0.81837946
2.9397931 0.79758763 -0.81699115
4.364872 0.81047106 -0.80252135
2.9368019 0.84609234 -0.81560564
4.3715482 0.85686529 -0.80401254
2.9338164 0.8945092 -0.81422275
4.2485423 0.91815221 -0.80157328
2.9308369 0.94282591 -0.81284297
4.132843 0.97578037 -0.79927838
4.2548227 0.96339262 -0.80301994
2.9269116 1.0006955 -0.82081014
4.1387424 1.0197885 -0.80067867
4.261127 1.0088087 -0.80447215
2.9226379 1.0584251 -0.838368
2.9242063 1.0468836 -0.81563842
4.0293703 1.0729084 -0.79847217
4.14466 1.0639296 -0.80208313
4.2695665 1.0695996 -0.80641598
2.9209843 1.0968195 -0.81804597
4.0349383 1.115875 -0.79983264
4.1506004 1.1082373 -0.80349272
4.2759204 1.1153706 -0.80787951
2.9180298 1.1447451 -0.81666785
3.9296401 1.1509312 -0.79726869
4.0405235 1.1589677 -0.80119735
4.1585493 1.1675379 -0.80537951
4.2822995 1.1613206 -0.809349
2.9150803 1.1925724 -0.81529266
3.8351569 1.2248282 -0.79612714
3.9366522 1.2068541 -0.79903173
4.0461273 1.2022187 -0.80256701
4.1645355 1.2121822 -0.80679995
4.2886982 1.2074147 -0.81082284
2.9115491 1.2498466 -0.81364554
3.8401251 1.2657636 -0.79741138
3.9436927 1.2630166 -0.80080199
4.0536289 1.2600991 -0.80439997
4.1685371 1.2420355 -0.80774987
4.1725478 1.2719567 -0.80870181
4.2951226 1.2536896 -0.81230259
2.9086127 1.2974772 -0.81227595
3.7455194 1.2949439 -0.79504228
3.8451066 1.3068128 -0.79869896
3.9507608 1.3194193 -0.80257899
4.061162 1.3182356 -0.80624092
4.1785831 1.3169755 -0.81013417
4.3037214 1.3156321 -0.81428331
2.9056818 1.34501 -0.81090897
3.658884 1.3485427 -0.79360706
3.7517939 1.3482814 -0.79670918
3.850106 1.3480047 -0.79999143
3.9560812 1.3618729 -0.80391663
4.0668316 1.3619987 -0.80762595
4.1846371 1.3621315 -0.81157094
4.3101959 1.3622718 -0.8157745
2.9021721 1.4019326 -0.80927235
3.5779645 1.4121712 -0.79263705
3.6648264 1.4006232 -0.79522824
3.7580931 1.4018357 -0.79838258
3.8567944 1.4031187 -0.80172056
3.9614201 1.4044791 -0.80525887
4.0725203 1.4059236 -0.80901617
4.1907129 1.4074599 -0.81301308
4.3166962 1.409096 -0.81727183
2.8992534 1.4492707 -0.80791098
3.4995637 1.4603466 -0.79132915
3.5821939 1.4503561 -0.79382145
3.6707926 1.4529095 -0.79685611
3.7644181 1.4556079 -0.80006266
3.8635111 1.4584637 -0.80345684
3.9667749 1.4472077 -0.80660504
3.9703548 1.4757754 -0.80750507
4.0801334 1.4647074 -0.81087637
4.198843 1.4681284 -0.8149423
4.3253975 1.4717749 -0.81927609
2.8963404 1.4965119 -0.80655241
3.5035799 1.4976707 -0.79248291
3.5878518 1.501433 -0.79540575
3.6767821 1.5054035 -0.79849023
3.7707689 1.5095994 -0.80174994
3.8702567 1.5140413 -0.80520052
3.9757402 1.5187508 -0.80885887
4.085865 1.5089587 -0.81227672
4.2049627 1.5138041 -0.81639457
4.3319492 1.5189705 -0.82078522
2.8925021 1.5530323 -0.81444198
3.3560746 1.5737988 -0.78962594
3.4286973 1.542739 -0.79120779
3.5089512 1.5475926 -0.79402596
3.5935311 1.5527076 -0.79699624
3.682796 1.5581059 -0.80013072
3.7771461 1.563812 -0.80344391
3.8753324 1.5558703 -0.80651271
3.9811411 1.5618501 -0.81021684
4.0916176 1.5533749 -0.81368238
4.2111063 1.5596552 -0.81785238
4.3385229 1.5663524 -0.82229918
2.8896019 1.6000755 -0.81308013
3.3597155 1.6095767 -0.79072487
3.4350841 1.6037985 -0.79308927
3.514343 1.5977027 -0.79557502
3.5992322 1.6041806 -0.79859281
3.6888337 1.6110184 -0.80177808
3.7835493 1.6182467 -0.80514491
3.8804269 1.5978465 -0.80782962
3.9865618 1.6051054 -0.81157964
4.0993156 1.6128173 -0.8155635
4.2172675 1.6056473 -0.81931472
4.2213888 1.6364033 -0.82029277
4.3451176 1.6138847 -0.82381821
2.8867075 1.6470225 -0.81172103
3.2914271 1.6501019 -0.78954643
3.3645833 1.6574231 -0.79219455
3.4414983 1.6651204 -0.79497868
3.5197551 1.6480024 -0.79712981
3.6049559 1.6558541 -0.80019557
3.694895 1.664142 -0.80343181
3.7883682 1.6592121 -0.80642503
3.8872433 1.6540115 -0.80959165
3.9938154 1.6629884 -0.81340331
4.1051111 1.6575657 -0.81697953
4.2255187 1.6672302 -0.82127291
4.3517385 1.6616067 -0.82534301
2.8832409 1.7032444 -0.81009352
3.1626868 1.7146653 -0.78700161
3.2272732 1.7002873 -0.78877044
3.2960646 1.6969324 -0.79098082
3.3694689 1.7054418 -0.79366952
3.4466519 1.7143897 -0.79649675
3.5251884 1.6984925 -0.7986908
3.610702 1.707728 -0.80180466
3.7009804 1.7174783 -0.80509198
3.7932029 1.7003176 -0.8077094
3.894088 1.7104139 -0.81136137
3.9992757 1.706558 -0.81477594
4.1109285 1.7024812 -0.81840086
4.2317333 1.713614 -0.82274765
4.3583808 1.7094808 -0.82687289
2.8803594 1.7500007 -0.8087399
3.2938869 1.7296411 -0.79008675
3.3550999 1.7336875 -0.78863436
3.5292761 1.7364802 -0.79986513
3.615025 1.74676 -0.80301529
3.7013881 1.7559549 -0.80504858
3.789562 1.7513719 -0.80637205
3.8646581 1.7667173 -0.80238134
3.89924 1.7528651 -0.81269306
3.9524398 1.7725035 -0.80094713
4.004755 1.7502861 -0.81615376
4.0447426 1.7785881 -0.79943937
4.1264505 1.7700607 -0.81281942
4.2379665 1.760141 -0.82422692
4.3628225 1.7414987 -0.827896
2.8774827 1.796662 -0.8073892
4.2425919 1.7912675 -0.81051576
4.3506675 1.7983816 -0.80914903
2.8737259 1.855161 -0.80974454
2.8708277 1.8989211 -0.81387097
2.8679693 1.9452933 -0.81251937
2.8651154 1.9915835 -0.81117058
2.9679263 0.50439149 -0.77994519
3.0070872 0.49534649 -0.78512543
3.0550117 0.5065003 -0.78298295
3.1024396 0.49718443 -0.79053855
3.1539223 0.50867403 -0.78847098
3.207201 0.52072579 -0.78625464
3.2800822 0.52269697 -0.79012281
3.3568208 0.52477252 -0.79419559
2.9567099 0.55719197 -0.76750869
2.9966693 0.54495239 -0.76085705
3.0589867 0.54735208 -0.763825
3.1065621 0.5387454 -0.77105314
3.1582081 0.55104244 -0.76861238
3.2116592 0.56393117 -0.76600969
3.2454641 0.54355907 -0.77792287
3.302572 0.55658817 -0.77549446
3.3617814 0.57027602 -0.77289134
3.3992813 0.54888964 -0.78553039
3.442975 0.57370758 -0.7766133
3.4825542 0.55177557 -0.78964895
3.5496335 0.56607819 -0.78727245
3.6636868 0.55805272 -0.79860747
2.9536362 0.60232997 -0.77403718
2.9970913 0.59481037 -0.75087494
3.0577772 0.59829772 -0.75300038
3.1213431 0.60195053 -0.75522637
3.1869316 0.59498858 -0.7572301
3.2568555 0.59873927 -0.75967157
3.3303525 0.60268164 -0.76223773
3.4077041 0.60683084 -0.76493847
3.4892514 0.61120498 -0.76779443
3.5764642 0.61588115 -0.77116674
3.6193941 0.58116388 -0.78470045
3.6697619 0.60832489 -0.77510959
3.7154522 0.58522367 -0.78910387
3.768882 0.61326849 -0.77929467
3.8173821 0.58953178 -0.79377627
3.874161 0.61851931 -0.78373992
3.9257381 0.59411138 -0.79874367
3.9861922 0.62410682 -0.78847027
4.1056466 0.63006461 -0.79351401
4.2332869 0.63643074 -0.79890341
2.9506185 0.65124297 -0.77268755
3.0017047 0.64516008 -0.75240469
3.0626211 0.64982438 -0.75457054
3.1264343 0.65471053 -0.7568388
3.1922851 0.64901185 -0.75888574
3.2613637 0.64301813 -0.76103252
3.3351071 0.64810085 -0.76363832
3.4127235 0.65345049 -0.76638061
3.4945285 0.65908891 -0.76927114
3.5808694 0.66504002 -0.77232182
3.6691513 0.64598781 -0.77475405
3.7655885 0.65189773 -0.77814132
3.8678515 0.65816456 -0.78173327
3.9746904 0.65097004 -0.78511018
3.978281 0.67867386 -0.78598762
4.0901885 0.65760624 -0.78915507
4.2133546 0.66468292 -0.7934683
4.3449798 0.6722458 -0.79807776
2.9479311 0.70010132 -0.77146399
3.0063369 0.69572151 -0.75394058
3.0674844 0.70157278 -0.75614661
3.1305227 0.69708121 -0.75813341
3.1976593 0.7032485 -0.76054806
3.2670209 0.69859052 -0.76274073
3.3398771 0.69368136 -0.76504362
3.4177613 0.70024049 -0.76782805
3.499856 0.70715392 -0.77076316
3.5865111 0.71445167 -0.77386111
3.675123 0.69672322 -0.77634048
3.7719321 0.70413578 -0.77978134
3.8746016 0.71199727 -0.78343046
3.9818792 0.70643759 -0.78686684
4.0959444 0.70054173 -0.79052109
4.2195148 0.70905888 -0.79488742
4.3515878 0.71816218 -0.79955393
2.9472361 0.74911475 -0.7709983
3.0109863 0.74646914 -0.7554822
3.0723653 0.7535162 -0.7577287
3.1356504 0.75024867 -0.75975722
3.2019749 0.74680924 -0.76188266
3.272702 0.75438821 -0.76445585
3.3458652 0.75089407 -0.76680768
3.4228177 0.7472012 -0.76928073
3.505203 0.75539947 -0.77226055
3.5921738 0.76405394 -0.7754063
3.6811182 0.7476598 -0.7779333
3.778301 0.75658727 -0.78142798
3.8813803 0.7660563 -0.78513479
3.9872911 0.74820364 -0.78818947
4.1036477 0.75800252 -0.7923494
4.2256947 0.75357163 -0.79631072
4.2298269 0.78333807 -0.79726243
4.3582163 0.76422477 -0.80103457
2.9467204 0.79814541 -0.77060068
3.0156546 0.79743111 -0.75703019
3.0753036 0.78478301 -0.75868082
3.0772662 0.80567276 -0.75931698
3.1407974 0.80362189 -0.76138711
3.2073886 0.80147564 -0.76355696
3.2761223 0.7879833 -0.76548856
3.2784059 0.81043184 -0.76617807
3.3518782 0.80834484 -0.76857913
3.4278924 0.79433417 -0.77073884
3.51057 0.80382633 -0.77376378
3.5978589 0.81384802 -0.77695751
3.6871369 0.79879892 -0.77953237
3.7846968 0.80925322 -0.78308147
3.8864815 0.80674291 -0.78641754
3.9945345 0.804093 -0.78995937
4.1113853 0.81572092 -0.79418576
4.2339687 0.81317341 -0.79821634
2.9462149 0.84717774 -0.77020717
3.0203412 0.84858167 -0.75858402
3.0812032 0.84756494 -0.760593
3.1449311 0.84648585 -0.76269609
3.2128234 0.856359 -0.76523769
3.2818398 0.84418285 -0.76721478
3.356708 0.85449731 -0.77000183
3.434263 0.85350251 -0.77256906
3.5159583 0.85243583 -0.77527261
3.6035666 0.86383498 -0.77851456
3.6931806 0.85014141 -0.781138
3.7911181 0.86213517 -0.78474158
3.8916018 0.84757268 -0.78770471
4.0018091 0.86022556 -0.79173696
4.1172104 0.85917139 -0.79556829
4.240201 0.85806513 -0.79965198
2.9457188 0.89621198 -0.76981711
3.0241039 0.88965368 -0.75983173
3.0269334 0.92053938 -0.76076996
3.0861399 0.90010047 -0.76219296
3.1501184 0.9002738 -0.76433879
3.2171886 0.90044034 -0.76658773
3.2875831 0.90063107 -0.76894867
3.3615527 0.90081477 -0.77142894
3.4406598 0.91292465 -0.77440703
3.5213659 0.90122867 -0.77678716
3.6092956 0.91401601 -0.78007782
3.6992474 0.90168881 -0.78274971
3.7975662 0.91523409 -0.78640872
3.8984523 0.90220404 -0.7894271
4.0091152 0.91660297 -0.79352224
4.1211052 0.88822544 -0.79649264
4.1250091 0.91734469 -0.79741919
2.9452331 0.9452486 -0.76943111
3.0297704 0.95150697 -0.76171064
3.0910985 0.95286429 -0.76380014
3.1553264 0.9542712 -0.76598781
3.2215688 0.94467223 -0.76794231
3.2933505 0.95730984 -0.77068955
3.3664148 0.94729841 -0.77286118
3.4457967 0.9606663 -0.77588272
3.526794 0.95020628 -0.77830732
3.6150475 0.96439195 -0.78164721
3.7053392 0.9534421 -0.7843681
3.8040407 0.96855164 -0.78808266
3.9053316 0.95706701 -0.79115683
4.0146141 0.95903993 -0.79486626
4.1289215 0.94652963 -0.79834765
2.9287016 1.0006481 -0.77268112
2.9756756 1.0008388 -0.76124769
3.0335636 0.99290693 -0.7629683
3.0960755 1.0058289 -0.76541305
3.1595082 0.99763739 -0.76731217
3.2270663 1.0001829 -0.76964229
3.297982 1.0028384 -0.77208805
3.3712943 0.99394906 -0.77429861
3.450953 1.0085841 -0.77736396
3.5322399 0.99936891 -0.77983242
3.620821 1.0149643 -0.78322244
3.7114546 1.0054029 -0.7859928
3.8089135 1.0086771 -0.78934222
3.9122403 1.0121628 -0.79289383
4.020134 1.0016315 -0.796215
2.9257319 1.0487875 -0.77134347
2.9802177 1.0516657 -0.76278794
3.0383222 1.0448498 -0.76454616
3.1000729 1.0483624 -0.76670855
3.1647565 1.0520568 -0.76897407
3.2325852 1.0559154 -0.77134919
3.3026309 1.048527 -0.77349144
3.3774195 1.0525078 -0.77610284
3.4561281 1.0566791 -0.77885085
3.5377064 1.0487177 -0.78136325
3.6266146 1.0657336 -0.78480309
3.7175956 1.0575721 -0.7876243
3.8138027 1.0489408 -0.79060632
3.9191778 1.0674931 -0.79463828
4.0256691 1.0443476 -0.79756767
2.9218187 1.1064252 -0.77935332
2.9269538 1.093004 -0.76677376
2.984776 1.1026784 -0.76433378
3.0430987 1.0969867 -0.76613003
3.1050882 1.1017326 -0.76833403
3.1700258 1.1066892 -0.77064252
3.2370181 1.1006801 -0.7727201
3.307296 1.0943761 -0.77489984
3.3835704 1.111313 -0.77791482
3.4613218 1.1049522 -0.78034288
3.5431933 1.0982547 -0.7828998
3.6324303 1.1167011 -0.78638983
3.7222154 1.0968299 -0.78885168
3.7253025 1.1230716 -0.7896716
3.8203442 1.1028106 -0.79229754
3.9243991 1.1091381 -0.79595113
2.9194531 1.1447734 -0.77828038
2.9324415 1.1482185 -0.76382619
2.9884365 1.1436377 -0.76557487
3.0478957 1.1493466 -0.76772052
3.1101224 1.1553069 -0.76996571
3.1742573 1.1505665 -0.77198249
3.2414668 1.1455986 -0.77409589
3.3131511 1.1519234 -0.77666736
3.3885121 1.1585555 -0.77937043
3.466536 1.1534045 -0.78184068
3.548701 1.1479799 -0.78444213
3.636806 1.1550516 -0.78758365
3.7299447 1.16254 -0.790905
3.8269126 1.1569036 -0.79399568
2.9165018 1.1926223 -0.77694142
2.9368277 1.1985129 -0.76534653
2.9930284 1.1950248 -0.7671321
3.0527108 1.2019027 -0.76931715
3.1141658 1.198331 -0.77127612
3.178503 1.1945914 -0.77332693
3.2470491 1.2019731 -0.77582234
3.3190308 1.2097083 -0.77844232
3.3934712 1.2059695 -0.78083128
3.4704585 1.1898562 -0.78296757
3.4730797 1.2142175 -0.78372067
3.55423 1.1978952 -0.78599042
3.6411965 1.1935273 -0.78878146
3.736156 1.2153413 -0.79255497
3.8318546 1.1976132 -0.79527324
2.9129672 1.2499229 -0.77533811
2.9412291 1.2489883 -0.76687247
2.9976375 1.2466007 -0.76869488
3.0565772 1.2441059 -0.77059919
3.118222 1.2414967 -0.7725907
3.1212733 1.27396 -0.77357948
3.1838312 1.2498392 -0.77501416
3.2526543 1.2585746 -0.77755582
3.3237531 1.256127 -0.77986807
3.3984489 1.2535553 -0.78229761
3.477021 1.2508503 -0.78485304
3.5597796 1.2480012 -0.78754467
3.6470692 1.2449961 -0.7903837
3.7408302 1.2550755 -0.79379654
2.9100275 1.2975752 -0.77400476
2.9456489 1.2996715 -0.76840454
3.0022657 1.2983936 -0.77026427
3.0614281 1.2970582 -0.77220762
3.1243322 1.3065126 -0.77457094
3.1891801 1.3053049 -0.77670795
3.2571573 1.3040388 -0.77894813
3.3284931 1.3027104 -0.78129905
3.4034445 1.3013144 -0.78376919
3.4822938 1.2998459 -0.7863676
3.5653515 1.2982992 -0.78910476
3.6529651 1.2966676 -0.79199219
2.9070942 1.3451298 -0.77267414
2.9500844 1.3505374 -0.76994222
3.0069113 1.3503777 -0.7718395
3.0662978 1.3502103 -0.77382225
3.128422 1.3500355 -0.77589643
3.1934769 1.3498526 -0.77806848
3.2616744 1.3496606 -0.78034538
3.3332491 1.3494591 -0.78273499
3.4084582 1.3492473 -0.78524607
3.4875848 1.3490249 -0.78788781
3.5695436 1.3361433 -0.79027861
3.5723448 1.3614372 -0.79106325
2.9035811 1.402078 -0.77108073
2.9545386 1.4016137 -0.77148622
3.0115759 1.4025811 -0.77342141
3.0692289 1.3822049 -0.77479416
3.0711873 1.4035805 -0.77544349
3.1325254 1.3937029 -0.77722639
3.197787 1.3945513 -0.77943337
3.2662079 1.3954407 -0.78174746
3.3380232 1.3963746 -0.78417617
3.4134903 1.3973554 -0.78672832
3.4928966 1.3983879 -0.78941393
3.5751519 1.3867798 -0.79184937
2.9041848 1.4508612 -0.7711463
2.9590089 1.4528751 -0.77303582
3.0162582 1.4549779 -0.77500916
3.075115 1.4464476 -0.77674574
3.1376746 1.4484982 -0.7788952
3.2031975 1.4506464 -0.78114659
3.2718983 1.4528985 -0.78350699
3.3428135 1.443457 -0.7856223
3.4172761 1.4335464 -0.78784347
3.419806 1.4577323 -0.7885887
3.4968929 1.4355259 -0.79056191
2.908474 1.5012393 -0.77266568
2.9625983 1.4940332 -0.77428013
3.0200183 1.4970511 -0.7762841
3.0800395 1.5002058 -0.77837873
3.142844 1.5035067 -0.78057063
3.2086282 1.5069641 -0.78286636
3.2776113 1.5105903 -0.78527385
3.3488259 1.5025556 -0.78743762
3.42361 1.4941003 -0.78970921
2.9012427 1.552634 -0.78121221
2.9661984 1.5353192 -0.77552813
2.9689059 1.5663642 -0.77646661
3.024735 1.5498377 -0.77788359
3.0839946 1.5433756 -0.77969015
3.1469953 1.5476843 -0.78191602
3.212991 1.5521977 -0.78424782
3.2822001 1.5569316 -0.7866931
3.3536539 1.5500038 -0.78889501
2.9034421 1.5963188 -0.77998662
2.9716201 1.5974904 -0.77740765
3.0294697 1.6028212 -0.77948904
3.0889571 1.5975434 -0.78133559
3.1522048 1.6031216 -0.78360438
3.2162719 1.5862201 -0.78528678
3.2184646 1.608953 -0.78598112
3.2868056 1.6034353 -0.78811735
2.887754 1.6472143 -0.78322613
2.9205692 1.6433048 -0.77695048
2.9761584 1.649529 -0.77898079
3.033272 1.645366 -0.78077835
3.0939388 1.6519177 -0.78298742
3.1574347 1.6587753 -0.78529954
3.2217607 1.6431301 -0.78702474
2.884681 1.7067344 -0.76893193
2.9278769 1.7006226 -0.76492649
2.9775817 1.7050668 -0.76434964
3.030072 1.702951 -0.76713818
3.0864184 1.7057542 -0.77479726
3.1383314 1.7103583 -0.77108002
3.1815753 1.723007 -0.76156765
2.8824432 1.7463909 -0.7587322
3.2381296 1.7267611 -0.75959927
3.2970045 1.73067 -0.75755
3.3583443 1.7347419 -0.75541496
3.4211814 1.7386276 -0.76449913
3.4878922 1.7430503 -0.7624231
3.5563569 1.7472904 -0.77207738
3.6291776 1.7521107 -0.77008057
3.7054017 1.757157 -0.76799047
3.785274 1.7624443 -0.76580048
3.8690622 1.7679909 -0.76350272
3.9570615 1.7738166 -0.7610898
4.0495987 1.7799425 -0.75855237
2.8792164 1.7970653 -0.7600258
4.145329 1.7859259 -0.76988703
4.2479682 1.7927107 -0.76745176
4.3563409 1.7998749 -0.76488072
2.8757677 1.8529762 -0.75846148
2.8728995 1.8994733 -0.75716048
2.8700371 1.9458767 -0.75586206
2.8671799 1.9921976 -0.75456595
4.3957882 -1.9152147 -0.73258907
4.3776493 -1.9044598 -0.75863159
2.889528 1.7052658 -0.70653564
2.9340463 1.7080108 -0.71331626
2.9809997 1.7111546 -0.71064192
3.0297034 1.7144152 -0.70786774
3.0793629 1.7174871 -0.7150473
3.1318395 1.7209957 -0.7122519
3.1854239 1.7243152 -0.71980828
2.8847609 1.7414739 -0.70462501
3.1883149 1.7252973 -0.68842161
3.24213 1.7281011 -0.71699709
3.3011656 1.7320424 -0.7140705
3.3626764 1.7361493 -0.71102113
3.4268224 1.740432 -0.70784122
3.4937756 1.744902 -0.70452195
3.5612667 1.7488111 -0.7247631
3.6343067 1.7536736 -0.7216813
3.7107666 1.7587636 -0.7184552
3.7908912 1.7640977 -0.71507448
3.8749502 1.7696937 -0.71152782
3.9632411 1.7755718 -0.70780259
4.0544662 1.7812995 -0.71757448
2.8812659 1.7948359 -0.7086153
4.1504469 1.7873265 -0.72784394
4.2533607 1.7941586 -0.72426182
4.362031 1.801373 -0.72047913
2.87766 1.8496684 -0.71309692
2.8750415 1.8943725 -0.70810068
2.8717623 1.9463633 -0.70859075
2.8689017 1.9927099 -0.70733881
2.89342 1.7067045 -0.65967941
2.9380724 1.7094795 -0.66563123
2.9851696 1.7126545 -0.66207916
3.0340245 1.7159483 -0.65839452
3.0838397 1.7190533 -0.66466975
3.1364849 1.7225976 -0.66089356
2.8865032 1.7418469 -0.65709364
3.1912119 1.7262818 -0.6569683
3.2471416 1.7297791 -0.66358143
3.3053336 1.7334172 -0.67047435
3.3659291 1.7372055 -0.67764938
3.3681014 1.7379107 -0.65536129
3.4313426 1.7418773 -0.66236645
3.4984903 1.7463851 -0.65804589
3.5649536 1.7499523 -0.68919075
3.5686464 1.7510952 -0.65353167
3.6394453 1.7552381 -0.67313719
3.7147975 1.7599704 -0.68120939
3.7174864 1.7607753 -0.65632772
3.7965207 1.7657547 -0.66419023
3.8808525 1.7714002 -0.65938669
3.9678884 1.7768915 -0.66772872
4.0593472 1.7826606 -0.67648256
2.882633 1.8002284 -0.66270554
4.15729 1.7891994 -0.67162663
4.2605724 1.7960947 -0.66650599
2.8798087 1.8445297 -0.66392696
2.8769333 1.8910906 -0.66271448
2.8734896 1.9468503 -0.66126239
2.8706257 1.9932226 -0.6600548
2.8973241 1.7081479 -0.61268067
2.9429197 1.7112473 -0.60823208
2.9893508 1.7141587 -0.61338246
3.0383575 1.7174854 -0.60878205
3.088331 1.7206243 -0.61412722
3.1392796 1.7235613 -0.63000166
2.8882475 1.742221 -0.6095047
3.1420798 1.7245268 -0.59904528
3.1950827 1.7275975 -0.61494118
3.2521684 1.7314619 -0.61000371
3.31056 1.7351407 -0.61581016
3.3724561 1.7393249 -0.61068475
3.4358757 1.7433261 -0.61676562
3.5032172 1.7478721 -0.61143816
3.5735815 1.7526226 -0.60587168
3.6445954 1.7568055 -0.62444824
3.7215283 1.7619849 -0.61892992
3.8021607 1.7674134 -0.61314631
3.886766 1.7731096 -0.6070779
3.9725385 1.7782115 -0.62754369
2.8847785 1.7983599 -0.60810822
4.0642328 1.7840225 -0.63529783
4.0674944 1.7849317 -0.6077795
4.1641493 1.7910759 -0.61521447
4.2659941 1.7975495 -0.62306118
4.2696104 1.79852 -0.59402889
2.8818929 1.8450469 -0.606947
2.8790126 1.891639 -0.60578787
2.8755653 1.9474359 -0.60440004
2.8726974 1.993839 -0.60324579
2.9020233 1.7098848 -0.55611014
2.9469712 1.712725 -0.56025088
2.9935453 1.7156677 -0.56453198
3.0427036 1.7190279 -0.55900991
3.0928354 1.7222 -0.56343985
2.8899937 1.7425948 -0.56186533
3.1458211 1.7258167 -0.55768371
3.1999354 1.7292464 -0.56225091
3.2562015 1.7328122 -0.56701124
3.3158023 1.7368693 -0.56097639
3.3779142 1.7410972 -0.55468726
3.4404213 1.7447792 -0.5710386
3.5079584 1.749364 -0.56469858
3.5628366 1.7720394 -0.54190624
3.5785308 1.7541546 -0.55807364
3.6497598 1.7583774 -0.57561493
3.6851864 1.7723207 -0.54624861
3.7269306 1.7636019 -0.56894016
3.8118412 1.7706428 -0.56285059
3.8912122 1.7743946 -0.56774235
3.9787545 1.7799764 -0.57381809
2.8865201 1.7987649 -0.56052291
3.5629511 1.8088222 -0.54174459
3.6853254 1.8105124 -0.54608148
3.8174477 1.8123378 -0.55076385
3.9605303 1.8143142 -0.55583453
4.1009188 1.8062551 -0.56763458
4.1693039 1.7924852 -0.57278341
4.2855291 1.8188038 -0.56735224
2.8836317 1.8454782 -0.55940628
3.5631039 1.8578829 -0.54152906
3.6855102 1.8614533 -0.5458585
3.8176694 1.8653082 -0.55053306
3.9607289 1.8556875 -0.55565524
4.1162329 1.8596262 -0.56115818
4.2858076 1.863921 -0.56715888
2.880749 1.8920964 -0.55829203
3.5632563 1.9069639 -0.54131317
3.6856947 1.9124157 -0.54563558
3.8178358 1.9050508 -0.55035985
3.9609275 1.897077 -0.55547583
4.1164684 1.9028081 -0.5609718
4.2860861 1.909058 -0.56696546
2.8772964 1.9479243 -0.55695772
3.4496572 1.9492526 -0.53708971
3.5634091 1.9560655 -0.54109752
3.6858802 1.9634006 -0.54541242
3.8180022 1.9448082 -0.55018663
3.9611917 1.952284 -0.55523646
4.1167822 1.9604073 -0.56072354
4.286458 1.9692659 -0.56670743
2.8744259 1.9943533 -0.555848
3.4497795 1.9966233 -0.53688025
3.5635607 2.005187 -0.54088134
3.6860652 2.0144074 -0.54518902
3.8182242 1.9978383 -0.54995561
3.9614568 2.0075173 -0.55499697
4.1170969 2.0180345 -0.56047499
4.2867365 2.014441 -0.56651366
3.4499018 2.0440125 -0.53667057
3.5637112 2.054328 -0.54066491
3.6862488 2.0654352 -0.54496545
3.8184464 2.0508919 -0.54972446
3.9617214 2.0627761 -0.55475736
4.1173325 2.0612729 -0.56028855
4.2870154 2.0596354 -0.56632006
3.4500246 2.0914207 -0.53646088
3.5638244 2.0911973 -0.54050243
3.5639 2.115783 -0.54039413
3.6863863 2.1037197 -0.54479748
3.8186681 2.1039689 -0.54949307
3.9619868 2.1180611 -0.55451775
4.1175685 2.1045287 -0.56010211
4.2873869 2.1199203 -0.56606162
3.4501781 2.1507089 -0.53619874
3.5640132 2.1526721 -0.54023159
3.686523 2.1420181 -0.54462945
3.8188877 2.1570692 -0.54926109
3.9621851 2.1595409 -0.55433786
4.1178827 2.1622264 -0.55985332
4.2876663 2.1651533 -0.56586766
3.4503312 2.2100248 -0.53593636
3.5641639 2.2018743 -0.54001486
3.6867061 2.1931005 -0.54440534
3.8191082 2.2101932 -0.54902923
3.9623823 2.2010357 -0.5541575
4.1181192 2.2055173 -0.55966663
4.2879457 2.2104053 -0.56567371
3.4504545 2.2574999 -0.53572649
3.5643148 2.2510974 -0.53979796
3.6868896 2.2442052 -0.54418117
3.8193283 2.263341 -0.54879695
3.9626448 2.2563837 -0.55391693
4.1183538 2.2488251 -0.55947953
4.2882252 2.2556727 -0.5654797
3.4505765 2.3049939 -0.53551632
3.5644658 2.3003407 -0.53958112
3.6870723 2.295332 -0.54395676
3.8195479 2.3165123 -0.54856479
3.9629078 2.3117578 -0.55367625
4.1186657 2.3065915 -0.55922985
4.2885036 2.3009591 -0.56528544
3.4506998 2.3525066 -0.53530622
3.5646167 2.3496044 -0.53936398
3.6872554 2.3464804 -0.54373235
3.8197134 2.356406 -0.54839051
3.9631703 2.3671575 -0.5534355
4.118978 2.3643868 -0.55898005
4.2888732 2.3613651 -0.56502575
3.5647299 2.3865652 -0.53920114
3.6873934 2.384856 -0.54356402
3.8198786 2.3963149 -0.54821622
3.9633675 2.4087241 -0.5532549
4.1192122 2.4077508 -0.55879259
4.2891512 2.4066894 -0.56483102
4.2893362 2.4369156 -0.56470114
2.9072237 1.7120866 -0.51890111
2.9494081 1.7136135 -0.5313952
2.9969089 1.7168777 -0.5253588
2.8991387 1.7469333 -0.52599078
2.9839149 1.7506351 -0.52144998
3.0653691 1.7501981 -0.52434379
3.0955446 1.7231476 -0.53295243
3.1520588 1.7497325 -0.52742356
3.249428 1.751456 -0.53200477
3.3433282 1.7601191 -0.53416711
3.4491601 1.7599566 -0.537925
2.8954396 1.7993102 -0.52656984
2.9839461 1.800823 -0.52122462
3.0654204 1.8019488 -0.52411222
3.152132 1.8031471 -0.52718544
3.2446029 1.8044245 -0.53046256
3.3434277 1.8057897 -0.53396487
3.4492846 1.8072519 -0.53771639
2.8982286 1.8473952 -0.52331436
2.9839773 1.8510332 -0.52099901
3.0654604 1.8433664 -0.52392668
3.1521897 1.8458966 -0.52699471
3.2446809 1.8485949 -0.53026628
3.3435273 1.8514783 -0.53376257
3.4494088 1.8545667 -0.53750765
2.8919864 1.8943254 -0.52508795
2.9840083 1.9012632 -0.52077335
3.06551 1.8951592 -0.52369469
3.1522603 1.8993556 -0.52675575
3.2447572 1.8927811 -0.53006965
3.3436267 1.8971843 -0.53356016
3.4495335 1.9019004 -0.5372988
2.8928149 1.947126 -0.523157
2.9840398 1.9515162 -0.52054775
3.0655599 1.9469732 -0.52346241
3.1523318 1.9528376 -0.52651691
3.2448521 1.948038 -0.52982348
3.3437247 1.9429073 -0.53335726
2.8913858 1.9947464 -0.52250564
2.9840715 2.0017889 -0.52032179
3.0656099 1.9988111 -0.52323031
3.1523888 1.9956405 -0.52632558
3.2449472 2.0033185 -0.52957737
3.3438466 2.0000865 -0.53310335
2.9073157 2.0241184 -0.51749575
2.9840961 2.0420232 -0.52014101
3.06566 2.0506704 -0.52299792
3.1524596 2.0491672 -0.52608657
3.2450233 2.0475624 -0.5293802
3.3439693 2.057292 -0.53284955
2.9841142 2.0722075 -0.52000535
3.0657001 2.0921748 -0.52281195
3.1525311 2.1027167 -0.52584732
3.2450998 2.0918229 -0.52918327
3.3440671 2.1030765 -0.53264624
3.0657301 2.1233122 -0.52267253
3.1525879 2.1455741 -0.52565587
3.2451949 2.1471727 -0.52893662
3.3441651 2.1488791 -0.53244299
3.1526308 2.1777267 -0.52551222
3.24529 2.2025464 -0.5286901
3.3442628 2.1946995 -0.53223956
3.2453473 2.2357831 -0.52854216
3.3443854 2.2520006 -0.53198528
3.3444836 2.2978587 -0.53178167
3.1579177 -1.1260808 -0.41636249
3.2490749 -1.112734 -0.41524053
3.3464701 -1.0984745 -0.41404206
3.4507658 -1.0832046 -0.41275865
3.5399456 -1.1036209 -0.4311077
3.6586678 -1.0875055 -0.43038255
3.5627224 -1.0668129 -0.4113808
3.7867272 -1.0701224 -0.4296003
3.9252717 -1.0513161 -0.42875415
4.0756431 -1.0309043 -0.42783549
4.2058468 -1.053802 -0.45061073
4.3817091 -1.0318056 -0.45062625
4.2394242 -1.0086725 -0.42683512
3.0777636 -1.1418846 -0.3777459
3.0790358 -1.1120949 -0.38811857
3.1754472 -1.0939256 -0.39895695
3.2677946 -1.0794196 -0.39724809
3.0738461 -1.0787221 -0.37654459
3.1139555 -1.0601327 -0.37485111
3.1932034 -1.0613538 -0.38132608
3.2111921 -1.028358 -0.36346549
3.2867641 -1.0456591 -0.37901467
3.3766594 -1.0463947 -0.38598222
3.4722571 -1.0473024 -0.39346454
3.5858355 -1.0294614 -0.39136273
3.6832163 -1.0491713 -0.4098981
3.8132613 -1.0301315 -0.40829772
3.3059895 -1.0114437 -0.36053568
3.4940567 -1.0108855 -0.37389362
3.609292 -0.99155402 -0.37104672
3.7081409 -1.0102497 -0.38909942
3.8402193 -0.98950267 -0.38665533
3.9540427 -1.0095197 -0.40656519
4.1069446 -0.98713326 -0.40468353
3.7334507 -0.97072649 -0.36797953
3.8676105 -0.94822073 -0.36466509
3.9832914 -0.96702874 -0.38400778
4.1387877 -0.94260299 -0.3811301
4.2736044 -0.96273255 -0.40263262
4.3083997 -0.91595888 -0.37799102
3.0793388 -1.1429573 -0.33713639
3.0767238 -1.1008166 -0.33636791
3.0734608 -1.0482266 -0.33540881
3.0715232 -1.0066326 -0.32457107
3.1394687 -1.0119382 -0.34870827
3.1567674 -0.97926116 -0.33098274
3.2294157 -0.99492896 -0.34537056
3.3254757 -0.9767642 -0.34180617
3.4074097 -0.993348 -0.35740143
3.0787179 -0.96982646 -0.31556708
3.1742883 -0.94616401 -0.31302935
3.2478802 -0.96105874 -0.32703671
3.345228 -0.94161129 -0.32282075
3.428293 -0.95732164 -0.33799091
3.5273886 -0.95520163 -0.34396884
3.6331005 -0.95307899 -0.35042632
3.759155 -0.93058765 -0.34653053
4.0130291 -0.92382586 -0.36107233
3.2665906 -0.92673862 -0.30845922
3.4494715 -0.92078614 -0.31830603
3.5613713 -0.89843094 -0.31345969
3.6572683 -0.91402233 -0.32949439
3.7852597 -0.88981795 -0.32474446
3.8954434 -0.90626943 -0.34231812
4.0432663 -0.87989271 -0.33774909
4.1711845 -0.89729345 -0.3571645
4.3438311 -0.86833012 -0.35289881
3.9237297 -0.86363196 -0.3196058
4.0740185 -0.8352108 -0.31402859
4.2041526 -0.85118461 -0.33277625
4.3799162 -0.81982207 -0.32734352
3.0813107 -1.1442997 -0.28632548
3.0786924 -1.1021324 -0.28559783
3.0754251 -1.0495095 -0.28468972
3.0728168 -1.0074908 -0.28396469
3.0695622 -0.95506668 -0.28306013
3.1043975 -0.93201792 -0.29972637
3.0667045 -0.90298009 -0.27203539
3.1212552 -0.89925098 -0.28191668
3.1920364 -0.91263831 -0.29484347
3.2100155 -0.87867558 -0.27642059
3.2855508 -0.89195907 -0.28963315
3.3652515 -0.90597546 -0.30357435
3.4709508 -0.88372958 -0.29834071
3.6818016 -0.87437081 -0.30824351
3.0934708 -0.86528862 -0.25607637
3.1383269 -0.86606812 -0.26388082
3.2521074 -0.85503829 -0.26178944
3.3047643 -0.85670996 -0.27055317
3.3846877 -0.85817838 -0.27243969
3.4305925 -0.84350526 -0.26821724
3.4927366 -0.84614146 -0.27808875
3.5282891 -0.83716023 -0.2597529
3.5821016 -0.84684491 -0.28010896
3.6329017 -0.83043277 -0.27550295
3.7255087 -0.82865524 -0.27668595
3.8117769 -0.84840298 -0.30261382
3.9524817 -0.82029212 -0.29651952
3.8031707 -0.81941295 -0.27511716
3.8641453 -0.81549072 -0.28383082
3.9268351 -0.81138551 -0.26582542
3.9923627 -0.8071686 -0.27468851
4.0603728 -0.80279207 -0.28388739
4.1307173 -0.79822731 -0.27914277
4.2207623 -0.79886949 -0.29108161
4.2801533 -0.78856969 -0.28395069
4.3596187 -0.78345454 -0.29409119
3.0832844 -1.1456439 -0.23544911
3.0806634 -1.1034503 -0.23476246
3.0773921 -1.050794 -0.23390546
3.0747802 -1.0087488 -0.23322132
3.0715215 -0.95629215 -0.23236759
3.0682688 -0.90393472 -0.23151559
3.0770218 -0.86963511 -0.22864965
3.1311097 -0.86278641 -0.23127943
3.1702361 -0.86027122 -0.23761922
3.2103536 -0.85766375 -0.23337609
3.2729902 -0.85360765 -0.23230031
3.3381488 -0.84938776 -0.23112859
3.3833113 -0.84645247 -0.22652172
3.4300604 -0.8434459 -0.23338127
3.4782984 -0.84034336 -0.24045932
3.527714 -0.83710063 -0.22379769
3.5791371 -0.83379221 -0.2309497
3.6322794 -0.83037317 -0.23834091
3.6872301 -0.82683766 -0.24598357
3.7436323 -0.82313991 -0.22826658
3.8024676 -0.81935346 -0.23599957
3.8634117 -0.815431 -0.2440097
3.9260702 -0.81132579 -0.22529095
3.9915638 -0.80710936 -0.23339815
4.0595379 -0.80273318 -0.24181241
4.1298447 -0.79816854 -0.2362587
4.2029037 -0.7934252 -0.2304907
4.2791986 -0.78851175 -0.23935145
4.3586178 -0.7833972 -0.24857509
3.0852613 -1.1469898 -0.18451539
3.0826371 -1.1047693 -0.18386981
3.0793617 -1.05208 -0.1830641
3.0767465 -1.0100086 -0.18242081
3.0734842 -0.95751894 -0.18161818
3.0702271 -0.90512884 -0.18081713
3.08041 -0.86944997 -0.18209702
3.1304235 -0.86269033 -0.17897934
3.1695254 -0.86017478 -0.18456724
3.2096169 -0.85756671 -0.17955591
3.2765386 -0.85324347 -0.18222865
3.3373263 -0.84928966 -0.17486432
3.3826289 -0.84637403 -0.18081853
3.4293506 -0.8433671 -0.18695936
3.4775608 -0.84026432 -0.19329581
3.526948 -0.83702159 -0.17588517
3.5783401 -0.83371294 -0.18224677
3.6314507 -0.83029366 -0.18882111
3.6863661 -0.82675815 -0.19561897
3.7427332 -0.82306051 -0.17704695
3.8015306 -0.81927383 -0.18387559
3.8624344 -0.81535184 -0.19094886
3.9253054 -0.81126654 -0.18477753
3.9904993 -0.80703032 -0.17838091
4.0584254 -0.8026545 -0.18575034
4.128973 -0.79810977 -0.19340421
4.2019911 -0.79336655 -0.1867965
4.2779245 -0.78843439 -0.1799283
4.3572826 -0.78332043 -0.18793142
3.08724 -1.148337 -0.13351601
3.0846124 -1.1060905 -0.13291162
3.0813329 -1.0533679 -0.13215727
3.0787148 -1.0112698 -0.13155505
3.0754483 -0.95874739 -0.13080361
3.0721877 -0.90632427 -0.13005356
3.0810585 -0.86999035 -0.13096136
3.1297381 -0.86259389 -0.12671611
3.1688154 -0.8600781 -0.13155334
3.2090278 -0.85748923 -0.13653113
3.2672634 -0.85369885 -0.12836212
3.3366694 -0.84921145 -0.12988707
3.3819466 -0.84629548 -0.1351455
3.4286418 -0.84328818 -0.14056867
3.4766405 -0.8401655 -0.13438845
3.5261824 -0.83694232 -0.12800589
3.5775435 -0.83363354 -0.13357821
3.6306214 -0.83021438 -0.13933675
3.6855042 -0.82667875 -0.14529108
3.7418349 -0.82298112 -0.12586522
3.8005941 -0.81919432 -0.13179095
3.8614578 -0.81527233 -0.13792887
3.924541 -0.81120729 -0.14429063
3.9897015 -0.80697119 -0.13714528
4.0573144 -0.80257583 -0.12973386
4.1278105 -0.79803145 -0.13630432
4.2010798 -0.7933085 -0.14313316
4.2769704 -0.78837645 -0.13539299
4.3562832 -0.78326309 -0.14248194
3.0892208 -1.1496857 -0.082459092
3.0865905 -1.1074127 -0.081895985
3.0833073 -1.0546571 -0.081193194
3.0803719 -1.0062723 -0.07851097
3.077075 -0.9557265 -0.08191292
3.0741506 -0.90752161 -0.079233095
3.081708 -0.8705312 -0.079815105
3.12919 -0.86251712 -0.084935151
3.1681049 -0.85998178 -0.078582771
3.208292 -0.85739255 -0.082789175
3.270813 -0.85333478 -0.07836403
3.3360124 -0.84913313 -0.084939234
3.3812642 -0.84621692 -0.089502737
3.4277565 -0.84319007 -0.082625799
3.4757202 -0.84006691 -0.075527921
3.5254176 -0.83686352 -0.08015985
3.5767481 -0.83355427 -0.084943973
3.6297936 -0.83013475 -0.089887924
3.6846416 -0.82659936 -0.094999887
3.7409372 -0.82290173 -0.07472153
3.7996583 -0.81911516 -0.079745539
3.8604817 -0.81519306 -0.084949486
3.9235227 -0.81112826 -0.090343229
3.9889042 -0.80691218 -0.095937103
4.0564814 -0.80251706 -0.087749876
4.1266499 -0.79795337 -0.079251647
4.1998653 -0.79323089 -0.084956288
4.2760162 -0.78831875 -0.090889595
4.3552837 -0.78320575 -0.097065732
3.0912046 -1.1510369 -0.031336293
3.0885706 -1.1087364 -0.030814514
3.0852838 -1.055948 -0.03016337
3.0820036 -1.0032737 -0.029513612
3.0787294 -0.95069945 -0.028865099
3.0761156 -0.90872002 -0.028347269
3.0823591 -0.87107289 -0.02865684
3.1285052 -0.86242104 -0.032745838
3.1673961 -0.85988533 -0.025650263
3.207557 -0.85729587 -0.029086351
3.2701917 -0.8532567 -0.034445271
3.3353558 -0.84905481 -0.040020637
3.3804121 -0.84611881 -0.032493263
3.4268715 -0.84309149 -0.024728335
3.4749849 -0.83998799 -0.028477058
3.5246527 -0.83678412 -0.032346949
3.5759525 -0.83347547 -0.036343992
3.6289661 -0.83005571 -0.040474504
3.6837802 -0.82651973 -0.044745378
3.7400403 -0.82282233 -0.023615636
3.7987232 -0.81903601 -0.027739465
3.8595071 -0.81511402 -0.032010898
3.9225054 -0.8110491 -0.036437966
3.9878418 -0.80683339 -0.041029349
4.0556488 -0.80245805 -0.045794338
4.1257801 -0.79789472 -0.036491632
4.1989551 -0.79317236 -0.041354209
4.2747459 -0.78824186 -0.031594239
4.3539529 -0.78312945 -0.036555044
3.0931907 -1.1523888 0.019844294
3.090553 -1.1100621 0.020324588
3.0872624 -1.05724 0.020923987
3.0839779 -1.0045327 0.021522105
3.0807002 -0.95192552 0.022119075
3.0780828 -0.90991974 0.022595763
3.0830114 -0.87161529 0.022512138
3.1278217 -0.86232531 0.019406617
3.1668291 -0.85980844 0.016665444
3.2276306 -0.85588503 0.012392759
3.2906919 -0.85178649 0.018998533
3.3345361 -0.84895718 0.016084969
3.3795614 -0.84602082 0.024472192
3.4261646 -0.84301305 0.021553367
3.4742503 -0.8399092 0.018541723
3.5238891 -0.83670533 0.015432775
3.5751579 -0.83339596 0.012221754
3.628139 -0.82997656 0.0089034885
3.6829197 -0.82644057 0.0054725409
3.7393675 -0.82276285 0.014690071
3.7977891 -0.81895673 0.024227381
3.8585327 -0.81503499 0.020887107
3.9214885 -0.81097031 0.01742512
3.9867806 -0.80675459 0.013834715
4.0545406 -0.80237985 0.01010859
4.1249104 -0.7978363 0.0062389076
4.1977425 -0.79309499 0.016736895
4.198349 -0.79313362 -0.012302533
4.2737942 -0.78818393 0.012845427
4.3529549 -0.78307223 0.0087947994
3.0945184 -1.1431488 0.071200728
3.0918789 -1.1008068 0.071639374
3.0892165 -1.0605428 0.06796132
3.0855596 -1.0055413 0.062396705
3.0822787 -0.95290756 0.062952369
3.0796587 -0.91088104 0.063396007
3.0846226 -0.87056744 0.069565088
3.1271379 -0.86222935 0.071516976
3.1661212 -0.85971212 0.069522232
