# .PCD v0.7 - Point Cloud Data file format
VERSION 0.7
FIELDS x y z
SIZE 4 4 4
TYPE F F F
COUNT 1 1 1
WIDTH 1496
HEIGHT 1
VIEWPOINT 0 0 0 1 0 0 0
POINTS 1496
DATA ascii
3.5750468 -0.80143833 -0.57699203
3.0890288 -0.73132062 -0.57638413
3.1006477 -0.70800912 -0.57610214
3.2114766 -0.71983647 -0.57619137
3.3239808 -0.74508762 -0.57643914
3.459183 -0.74631739 -0.5763914
3.6059773 -0.74765253 -0.5763396
3.1182346 -0.67272323 -0.57567537
3.2365975 -0.6710943 -0.57560134
3.3440723 -0.70744264 -0.57598317
3.3575966 -0.68209994 -0.57567608
3.4881835 -0.69392651 -0.57575631
3.6374011 -0.69300866 -0.57567668
3.141952 -0.62513661 -0.57509965
3.2620771 -0.62165624 -0.57500303
3.3780859 -0.64371061 -0.57521123
3.5176299 -0.64072818 -0.57511139
3.661284 -0.65147817 -0.57517284
3.1659977 -0.57689142 -0.57451612
3.2879224 -0.57150745 -0.5743959
3.398777 -0.60494077 -0.5747416
3.4127083 -0.57883692 -0.57442546
3.5475342 -0.58670366 -0.57445657
3.685488 -0.60938835 -0.57466221
3.8436079 -0.61931133 -0.57470703
3.3075402 -0.53344315 -0.57393527
3.433815 -0.53928888 -0.57394642
3.5702541 -0.54565811 -0.57395899
3.7181988 -0.55250704 -0.57397205
3.870187 -0.57490408 -0.57416773
3.3273954 -0.49491754 -0.57346898
3.4551337 -0.49934292 -0.57346243
3.4694905 -0.47244322 -0.57313669
3.5932713 -0.50407481 -0.57345492
3.7430661 -0.50926417 -0.57344753
3.897069 -0.52999175 -0.57362241
3.9151957 -0.49970824 -0.57325464
3.3541918 -0.44292313 -0.5728395
3.4839559 -0.44533893 -0.57280833
3.6243668 -0.44789836 -0.57277399
3.7598259 -0.48011979 -0.57309389
3.7767243 -0.45073465 -0.57273734
3.9334774 -0.46916401 -0.57288384
3.4985318 -0.41802758 -0.57247752
3.3006127 -1.0328006 -0.57986516
3.441674 -1.0333787 -0.5798074
3.5876248 -1.0470099 -0.57990259
3.7466388 -1.0618615 -0.5800063
3.9205527 -1.0781044 -0.58011949
3.3205485 -0.99678016 -0.57942802
3.4705184 -0.98321486 -0.57919824
3.6188776 -0.99478889 -0.57926792
3.772059 -1.021134 -0.57951075
3.7891946 -0.99368048 -0.57917678
3.9576652 -1.0212183 -0.57942677
3.4924288 -0.94511044 -0.57873553
3.6426303 -0.95509994 -0.57878554
3.8064737 -0.9659965 -0.5788399
3.9859059 -0.97792995 -0.57889956
3.5146213 -0.906515 -0.57826692
3.6667027 -0.91487706 -0.5782966
3.8238986 -0.93807983 -0.57850027
3.8414707 -0.90992677 -0.57815778
4.0145631 -0.93400347 -0.57836455
3.5370457 -0.86751962 -0.57779378
3.5521514 -0.84125245 -0.57747507
3.699235 -0.86051929 -0.57763606
3.8681281 -0.86721802 -0.57763827
3.7323031 -0.80527008 -0.57696503
3.8950896 -0.82402182 -0.57711279
3.7574458 -0.76326394 -0.576455
3.9224403 -0.78020465 -0.57657993
3.7829361 -0.72067606 -0.57593781
3.9594383 -0.72093511 -0.57585949
3.8173985 -0.66309953 -0.57523859
3.9875906 -0.67583525 -0.57531124
4.0161576 -0.63007283 -0.57475507
4.0450616 -0.58376968 -0.57419235
3.1116619 -0.58803678 0.22873752
3.0783515 -0.55657476 0.23018815
3.0819526 -0.51151925 0.23493312
3.0864565 -0.45516008 0.24086855
3.2908788 -0.45403719 0.22739141
3.3379123 -0.47349 0.22750397
3.0992849 -0.39306778 0.24019627
3.1577992 -0.39899859 0.2270727
3.2008798 -0.41681546 0.22717594
3.2452209 -0.43515384 0.22728212
3.0946493 -0.3522808 0.24035828
3.103076 -1.0034218 0.23229049
3.1450398 -1.0297523 0.23246761
3.0524766 -0.95469153 0.23377939
3.0511529 -0.89834905 0.23933907
3.2826197 -0.89265466 0.23114227
3.3297477 -0.9188416 0.23131226
3.0547338 -0.85354567 0.2440712
3.1924601 -0.84255719 0.23081706
3.236877 -0.86723781 0.23097731
3.0583162 -0.80871534 0.24880607
3.1073785 -0.79528177 0.23051016
3.1493115 -0.81858182 0.23066147
3.0633366 -0.76263613 0.24246345
3.4840305 -0.76839614 0.22985421
3.5373151 -0.79420483 0.23001404
3.0664551 -0.70651436 0.24830525
3.3338411 -0.69565058 0.22940378
3.3823678 -0.71915495 0.22954936
3.4324071 -0.74339187 0.22969939
3.0709436 -0.65034837 0.25423318
3.2410581 -0.6507107 0.22912551
3.2867589 -0.67284614 0.22926261
3.0745373 -0.60538375 0.2589789
3.1535652 -0.60833263 0.22886313
3.1966791 -0.62921536 0.22899251
3.7115479 -0.62802243 0.22839828
3.7722456 -0.65312654 0.22854353
3.0781329 -0.56039214 0.26372737
3.5411413 -0.55754369 0.2279904
3.596091 -0.58027041 0.22812195
3.6528628 -0.60375059 0.22825782
3.0822558 -0.50887543 0.27142704
3.4363678 -0.5142101 0.22773962
3.487927 -0.53553474 0.22786303
3.0866067 -0.4542945 0.27266282
3.3863866 -0.49353838 0.22762005
4.0403247 -0.49212652 0.22686411
3.090735 -0.40270627 0.28037006
3.8383896 -0.42279828 0.22650193
3.9033177 -0.4450894 0.22661839
3.9705861 -0.46818405 0.22673906
3.0943406 -0.35759178 0.28513145
3.7150831 -0.38046476 0.22628082
3.7756824 -0.40126961 0.22638948
3.0535669 -1.3908483 0.23565136
3.0152414 -1.3491373 0.23664413
3.3215046 -1.3683425 0.23515587
3.0187962 -1.3046507 0.24135618
3.2284575 -1.3032281 0.23470585
3.2742834 -1.3352972 0.23492749
3.0223534 -1.2601373 0.24607114
3.1407495 -1.2418499 0.23428167
3.1839647 -1.2720925 0.23449071
3.0268037 -1.2044567 0.25196898
3.0579329 -1.1838955 0.23388107
3.0987556 -1.2124628 0.23407851
3.4244173 -1.2050518 0.2336465
3.4761655 -1.2375218 0.23386483
3.0313168 -1.1476244 0.24674992
3.3742657 -1.1735829 0.23343478
3.034883 -1.1030054 0.25147277
3.2784612 -1.1134694 0.23303054
3.3256359 -1.1430699 0.23322962
3.7043672 -1.1269991 0.23266356
3.0384512 -1.0583595 0.25619829
3.2104495 -1.0707945 0.23274358
3.5885618 -1.0626519 0.23224582
3.6454995 -1.0942893 0.23245125
3.0420213 -1.0136865 0.26092678
3.5334604 -1.0320348 0.23204713
3.0464869 -0.95780623 0.26684147
3.4284222 -0.97367001 0.23166822
3.4801083 -1.0023892 0.23185463
3.9643934 -1.001063 0.23129486
3.0509562 -0.90188646 0.27276045
3.3783257 -0.94583416 0.2314875
3.8316989 -0.93679154 0.23089688
3.8968647 -0.96835518 0.23109229
3.054534 -0.85711944 0.27749884
3.7079751 -0.87686515 0.23052581
3.7687733 -0.90631318 0.23070814
3.0581136 -0.81232512 0.28224015
3.5923419 -0.82085741 0.23017903
3.6491976 -0.84839582 0.23034956
3.0616958 -0.76750386 0.28698432
3.0661767 -0.7114377 0.29291868
3.967505 -0.73388404 0.22901092
4.037384 -0.76278532 0.22917818
3.0703847 -0.65865821 0.29474634
3.8350611 -0.67910647 0.22869389
3.9001074 -0.70600891 0.22884957
3.0743217 -0.60915935 0.29246503
3.0779147 -0.5642041 0.29721993
3.0824087 -0.50797009 0.30316782
3.0860064 -0.46295586 0.30792904
4.1126709 -0.51696461 0.22699384
3.0954499 -0.4040685 0.32960379
3.1309371 -0.41290629 0.31627947
3.20573 -0.4297168 0.34365219
3.2349162 -0.42370903 0.32296634
3.0940325 -0.36289161 0.3298111
3.0967357 -0.32907531 0.33339047
3.0124099 -1.3856311 0.26639539
3.3701854 -1.4024092 0.23539136
3.8248746 -1.4563242 0.23533629
3.0150175 -1.3533654 0.28101325
3.7007401 -1.3784339 0.23481251
3.761735 -1.4167058 0.23506983
3.0185685 -1.3089263 0.28573388
3.6417828 -1.3414404 0.23456369
3.0221801 -1.263381 0.27937227
3.5295866 -1.2710414 0.23409025
3.5847628 -1.3056625 0.23432307
4.0313973 -1.3087142 0.23384325
3.0266266 -1.2077448 0.28527796
3.8935795 -1.2321354 0.23334606
3.9612358 -1.2697288 0.23359014
3.0310764 -1.1520697 0.29118788
3.8282959 -1.1958606 0.23311059
3.0343206 -1.1115887 0.29922491
3.0355902 -1.0952271 0.28600168
3.7652633 -1.1608363 0.23288326
3.0372498 -1.0751841 0.3105709
3.0382645 -1.0617663 0.28955102
3.041832 -1.0171292 0.29428589
3.0462942 -0.96129382 0.30020857
4.0344148 -1.0349784 0.23150481
3.0507603 -0.90541911 0.30613536
3.053441 -0.87187409 0.30969363
3.0674613 -0.72000515 0.37095946
3.0701668 -0.66402912 0.37672877
3.1981218 -0.66801679 0.36630756
3.0873303 -0.61383992 0.37585187
3.1418419 -0.62434638 0.36513156
3.1697135 -0.64597338 0.36571395
3.3700476 -0.60979462 0.36403203
3.0801744 -0.5728898 0.37544316
3.3073335 -0.56494653 0.36283821
3.3383753 -0.58714521 0.36342913
3.0818934 -0.51694632 0.38112235
3.217808 -0.50092512 0.36113423
3.2470675 -0.52184916 0.36169118
3.2769032 -0.54318541 0.36225903
3.5263367 -0.52159244 0.3608855
3.0863824 -0.46077895 0.38709295
3.1609547 -0.4602676 0.36005205
3.1891086 -0.48040175 0.36058789
3.457515 -0.47653717 0.35970306
3.4915645 -0.49882782 0.36028814
3.0900512 -0.41450515 0.38074386
3.1333299 -0.44051147 0.35952628
3.3149855 -0.4413873 0.35147601
3.4241676 -0.4547056 0.35913014
3.093648 -0.36950034 0.38552451
3.0964251 -0.33440062 0.37798315
3.0386593 -1.059692 0.37941748
3.0587707 -1.0841647 0.3794511
3.0413294 -1.0262825 0.38298154
3.1875482 -1.0240948 0.37724245
3.0457826 -0.97056663 0.38892531
3.1176794 -0.96130419 0.37551981
3.159174 -0.99859488 0.37654287
3.0505795 -0.91030967 0.38788611
3.0772142 -0.92493904 0.37452209
3.2814744 -0.92004085 0.37378681
3.3276858 -0.95872617 0.37483907
3.0535524 -0.87310958 0.39185351
3.0548308 -0.85663974 0.37867039
3.2218571 -0.87013316 0.37242925
3.4807551 -0.88732529 0.3722139
3.0573752 -0.82551396 0.40439928
3.0575092 -0.82312167 0.38224101
3.1504564 -0.81036115 0.37080336
3.1785781 -0.83390236 0.37144369
3.4300692 -0.84799552 0.37115479
3.6869593 -0.83642459 0.37006432
3.0667489 -0.76788735 0.39503181
3.1228647 -0.78726327 0.37017506
3.3331161 -0.77276516 0.36912864
3.3807669 -0.80973959 0.3701244
3.6298888 -0.79561245 0.36897802
3.0663779 -0.7125147 0.40523869
3.2566125 -0.71340227 0.36752987
3.2867277 -0.73677015 0.36815923
3.5385745 -0.73031199 0.36723983
3.5744674 -0.75597942 0.36792302
3.0699563 -0.66774631 0.41001117
3.2270827 -0.69048893 0.36691278
3.486244 -0.69288903 0.36624372
3.0735366 -0.62295091 0.41478652
3.4023697 -0.63290894 0.36464721
3.4353619 -0.65650249 0.3652752
3.0771186 -0.57812846 0.41956472
3.6352351 -0.59288496 0.36275649
3.6731462 -0.61770421 0.36340785
3.081599 -0.52206099 0.4255417
3.561856 -0.54484606 0.36149579
3.5981474 -0.56860471 0.36211938
3.0860839 -0.46595421 0.43152285
3.0896735 -0.42103708 0.43631113
3.0932651 -0.37609291 0.44110227
3.0960379 -0.34104103 0.43358809
3.4699159 -1.2778553 0.38420463
3.0263824 -1.2144457 0.39862561
3.0404551 -1.242285 0.38434589
3.211225 -1.2306138 0.38349909
3.4026206 -1.2173777 0.38254541
3.4359157 -1.2473 0.38336629
3.0304773 -1.1631426 0.40187961
3.1539524 -1.1755974 0.38197839
3.3700073 -1.1880684 0.38174129
3.618994 -1.2025905 0.38147259
3.03403 -1.11869 0.40663177
3.0853112 -1.1096598 0.3801558
3.1123528 -1.1356361 0.3808738
3.3224001 -1.1452844 0.38056743
3.5277295 -1.1261897 0.37939435
3.563601 -1.1562191 0.38021123
3.0375853 -1.0742109 0.41138679
3.2610152 -1.0901186 0.37905389
3.4926195 -1.0967981 0.37859482
3.7406201 -1.0889668 0.37764448
3.7811635 -1.1204263 0.37849164
3.041142 -1.029705 0.41614473
3.2164762 -1.050092 0.37795573
3.4245889 -1.0398473 0.37704569
3.4582472 -1.0680236 0.37781209
3.7009895 -1.0582155 0.37681627
3.0455916 -0.97403371 0.42209613
3.3754764 -0.9987334 0.37592739
3.6243455 -0.99874401 0.37521458
3.6622405 -1.0281488 0.37600654
3.0500438 -0.9183234 0.42805189
3.5510037 -0.94183445 0.37368196
3.5872753 -0.96997929 0.37443995
3.0536087 -0.87372386 0.43281978
3.5155051 -0.91428947 0.37294006
3.0571744 -0.82909763 0.43759048
3.7261517 -0.86445189 0.37081027
3.0616364 -0.77327549 0.44355822
3.0657797 -0.72154874 0.45281905
3.0670638 -0.70501095 0.43966305
3.0696049 -0.67392945 0.46537417
3.0697451 -0.67145836 0.44324756
3.0732512 -0.62794662 0.45909452
3.0768297 -0.58317232 0.46388113
3.0813062 -0.52716523 0.46986842
3.0857856 -0.47111863 0.47586018
3.0893714 -0.42624998 0.48065686
3.0929599 -0.38135412 0.48545629
3.0965505 -0.33643124 0.49025887
2.9780002 -1.8222383 0.40904784
3.0789585 -1.8096434 0.40322673
3.0258052 -1.2230254 0.44004911
3.6760395 -1.2503453 0.38277155
3.7152188 -1.2831434 0.38366371
3.0293515 -1.1786513 0.44480628
3.033787 -1.1231503 0.45075619
3.0373385 -1.0787188 0.45551956
3.0408919 -1.0342604 0.46028578
3.045337 -0.97864866 0.46624774
3.0497842 -0.92299771 0.47221375
3.0533452 -0.87844586 0.47698992
3.0569079 -0.83386731 0.48176903
3.0613647 -0.77810496 0.48774707
3.0658247 -0.72230363 0.49372923
3.0693951 -0.67763114 0.49851841
3.0729675 -0.63293183 0.50331044
3.0762203 -0.59235394 0.51138729
3.0775077 -0.57576084 0.49825931
3.0809405 -0.53353071 0.52515036
3.0810864 -0.53098655 0.50305599
3.0854886 -0.4762724 0.52010518
3.0890703 -0.43145192 0.52491033
3.0926542 -0.38660437 0.52971804
3.0962417 -0.34172985 0.53452891
2.9682896 -2.2082984 0.41531283
2.9506741 -2.16555 0.41629761
3.0648394 -2.1596875 0.41360819
2.9541698 -2.1218185 0.42100888
3.0386343 -2.1242845 0.41263497
2.9676604 -2.070507 0.4207291
3.0129082 -2.0895281 0.41167963
3.1397254 -2.0717976 0.41080314
3.1677673 -2.1078658 0.41179091
2.9617245 -2.0301461 0.42356664
3.1122119 -2.0364096 0.40983409
3.2777257 -2.0525036 0.40984952
3.4284666 -2.0314326 0.40880883
2.9655864 -1.9786227 0.42539388
3.0719633 -1.9846412 0.40841639
3.2181678 -1.9797336 0.40786511
3.2476542 -2.0157607 0.40884757
3.3954711 -1.993229 0.40777183
2.9699678 -1.9238026 0.43129563
3.0199301 -1.9177145 0.40658361
3.1892509 -1.9444025 0.4069016
3.363147 -1.9558035 0.40675586
3.5574319 -1.9685419 0.40659314
2.9751961 -1.877739 0.42986631
3.1330607 -1.875747 0.40502942
3.1608872 -1.9097465 0.40595657
3.3004351 -1.8831944 0.40478498
3.331475 -1.9191331 0.40576053
3.4870203 -1.891497 0.40451252
3.5218501 -1.9296086 0.40554178
3.6963229 -1.9008105 0.40420699
2.9778631 -1.8250195 0.44193023
3.1057558 -1.8423853 0.40411955
3.270009 -1.8479664 0.40382874
3.4529178 -1.8541816 0.40350491
3.6578496 -1.8611454 0.40314204
3.0061133 -1.789569 0.45002079
3.0115435 -1.7885402 0.41751891
3.102854 -1.7962663 0.43111646
3.2020295 -1.8041301 0.4340806
3.2401783 -1.8134277 0.40289116
3.3078752 -1.8125226 0.4372378
3.3124378 -1.8118104 0.41332853
3.4260342 -1.8207792 0.41585499
3.5478313 -1.8303963 0.41858912
3.6816921 -1.8403673 0.40818596
3.0289323 -1.4112742 0.50065041
3.0139179 -1.3743826 0.50153255
3.0174396 -1.3301767 0.50629276
3.1218991 -1.3474203 0.49969822
3.0209744 -1.285947 0.51105767
3.0799451 -1.2823727 0.4989301
3.0965667 -1.3081424 0.49923438
3.2297821 -1.2929758 0.4988457
3.0250411 -1.2345304 0.49994457
3.0635214 -1.2569077 0.49862951
3.0290551 -1.1841395 0.49981588
3.0334854 -1.1287127 0.50577873
3.0370319 -1.0843401 0.51055247
3.0405803 -1.039941 0.51532888
3.0450191 -0.98440313 0.52130371
3.0494606 -0.92882657 0.52728271
3.0530167 -0.88433421 0.53206921
3.0565746 -0.83981502 0.53685862
3.0610259 -0.78412724 0.54284954
3.06548 -0.72840059 0.5488447
3.0690453 -0.68378794 0.55364418
3.072613 -0.63914835 0.55844653
3.0761831 -0.59448212 0.56325167
3.0806489 -0.53861016 0.56926256
3.0851176 -0.48269892 0.57527757
3.0884862 -0.44069678 0.58426219
3.0897398 -0.42414713 0.55924588
3.0919249 -0.39775509 0.59186298
3.0924263 -0.39053515 0.56285685
3.0949602 -0.35954493 0.58853424
3.0962567 -0.34284168 0.57543111
2.9793556 -2.5868652 0.42646748
2.9422476 -2.5294282 0.42487353
3.0506902 -2.5105608 0.42401463
3.0772865 -2.5499711 0.42510509
2.926137 -2.4739702 0.42702258
3.024585 -2.4718781 0.42294431
3.1532757 -2.4702783 0.42253923
2.9296138 -2.430465 0.43172252
2.9989572 -2.4339025 0.42189342
3.1253378 -2.4307122 0.42144787
3.2628782 -2.4272404 0.42096305
2.9449537 -2.3769507 0.43070287
3.0979276 -2.3918936 0.42037714
3.232914 -2.3867586 0.41985023
3.3802419 -2.3811545 0.4192751
2.9383512 -2.3207946 0.4325763
3.0578303 -2.3351078 0.41881078
3.2035353 -2.3470671 0.41875917
3.3480308 -2.3397241 0.41814053
2.9418366 -2.2771878 0.43728387
3.0187163 -2.2797139 0.4172827
3.160594 -2.2890532 0.41716439
3.3164704 -2.2991304 0.41702878
3.4715106 -2.2892725 0.41630667
3.506223 -2.3316848 0.41746324
2.9453235 -2.2335553 0.44199425
2.9932733 -2.2436817 0.41628879
3.1187401 -2.2325082 0.41560996
3.2552238 -2.2203531 0.41487157
3.2855408 -2.2593484 0.41593939
3.4375238 -2.2477477 0.41517419
3.6418102 -2.2784469 0.41551381
2.9496858 -2.1789765 0.44788629
3.0915363 -2.195756 0.41459966
3.2255001 -2.1821222 0.41382462
3.4042413 -2.207082 0.41406512
3.5676095 -2.1925356 0.41318184
3.6043026 -2.2350204 0.41433495
3.7881484 -2.220993 0.41341054
2.9540515 -2.1243606 0.45378244
3.1963534 -2.1446338 0.41279787
3.3397007 -2.1282253 0.41191459
3.3716407 -2.1672497 0.41297895
3.5317042 -2.1509635 0.41205329
3.7475047 -2.1765203 0.41220957
2.9575455 -2.080637 0.45850265
3.3084025 -2.0899844 0.41087174
3.4965606 -2.1102736 0.41094887
3.7077763 -2.1330497 0.41103566
3.9023819 -2.1132505 0.40991086
3.9465625 -2.1587989 0.41113383
2.9610422 -2.0368876 0.46322548
3.4621561 -2.0704391 0.40986758
3.6309474 -2.0489829 0.40876544
3.6689339 -2.0905478 0.40988791
3.8592381 -2.0687706 0.40871656
2.9654164 -1.982163 0.46913338
3.5937889 -2.0083239 0.40766752
3.8170934 -2.0253205 0.40754998
2.9697933 -1.9274005 0.47504532
3.7759147 -1.9828668 0.40641016
4.0234165 -1.9990938 0.40620285
2.9732971 -1.8835599 0.47977811
3.7356679 -1.9413737 0.40529615
3.9327629 -1.9113308 0.40386176
3.9775429 -1.9546829 0.40501821
2.9768033 -1.8396931 0.48451376
3.8198833 -1.8518767 0.42466909
3.889039 -1.8690012 0.40273261
3.9724445 -1.8639218 0.42806214
2.9898503 -1.7924964 0.49351978
3.0931358 -1.7979969 0.48681444
3.1936371 -1.8055317 0.48009944
3.3010662 -1.8135861 0.47292149
3.4161665 -1.8222157 0.46523088
3.5397894 -1.8314842 0.45697081
3.6729186 -1.8414655 0.44807553
3.8135035 -1.8526125 0.4522689
2.9855292 -1.7308627 0.5073005
3.1006305 -1.742937 0.5047769
2.9890416 -1.6869165 0.51204789
3.0590041 -1.6720229 0.50393337
3.0754952 -1.7001166 0.50426751
3.2077384 -1.702144 0.50409788
2.9925559 -1.6429439 0.51679832
3.0346556 -1.6305435 0.50344002
3.1630502 -1.6294482 0.50323629
3.1807487 -1.6582385 0.50357765
3.3127301 -1.6432949 0.50319189
3.3322637 -1.6735804 0.50354934
3.0000715 -1.5834943 0.51488155
3.1369336 -1.5869637 0.50273275
3.2744102 -1.583881 0.50249034
3.293447 -1.6133977 0.50283879
3.4352145 -1.5959479 0.5024066
3.0014031 -1.5318948 0.5177421
3.1028094 -1.531453 0.50207478
3.2463331 -1.5403494 0.50197619
3.4041471 -1.5501314 0.50186789
3.5670881 -1.5449711 0.50156122
3.004926 -1.4878187 0.52250028
3.0694978 -1.4772633 0.50143254
3.2096739 -1.4835107 0.50130504
3.3736224 -1.5051166 0.50133854
3.5445838 -1.5134755 0.50119257
3.0089905 -1.4368907 0.52578574
3.0450053 -1.4374205 0.50096029
3.182745 -1.4417596 0.50081211
3.3437583 -1.4610745 0.5008207
3.5114403 -1.4670904 0.50064963
3.685076 -1.4575869 0.50027394
3.0132015 -1.3843423 0.53588337
3.1563654 -1.4008584 0.50032914
3.3047884 -1.4036052 0.50014484
3.4682441 -1.4066308 0.4999423
3.6610205 -1.4257019 0.49990422
3.0172713 -1.3333449 0.53917634
3.2668045 -1.3475897 0.49948615
3.4262114 -1.3477799 0.49925601
3.6139231 -1.3632733 0.4991802
3.6373055 -1.3942672 0.49953955
3.8371942 -1.3971002 0.49928528
3.0208039 -1.2891505 0.5439474
3.3953805 -1.3046107 0.49875289
3.5908656 -1.332711 0.49882567
3.024338 -1.2449294 0.54872125
3.028759 -1.1896148 0.5546928
3.0331831 -1.1342614 0.56066853
3.0367253 -1.0899478 0.5654524
3.0402689 -1.0456076 0.57023919
3.0447018 -0.99014378 0.57622677
3.0491381 -0.93464124 0.58221859
3.0526893 -0.89020813 0.58701539
3.0562429 -0.84574842 0.59181511
3.0606878 -0.79013503 0.59781885
3.065136 -0.73448265 0.60382688
3.068697 -0.6899296 0.6086365
3.0722599 -0.64534986 0.61344916
3.0758255 -0.60074335 0.61826468
3.0802851 -0.54494613 0.6242882
3.0847476 -0.48910975 0.6303162
3.0883198 -0.44440943 0.63514173
3.0921187 -0.39666027 0.633609
3.0962002 -0.34554467 0.63745332
3.1671233 -2.8774953 0.4345327
3.0105028 -2.8202863 0.43327767
3.1387491 -2.8335767 0.43331391
2.9849741 -2.7790778 0.43213117
3.1109154 -2.7904963 0.43211836
3.2479918 -2.8029246 0.43210459
2.9051828 -2.737891 0.45322508
2.9599087 -2.7386158 0.43100524
3.0836089 -2.7482302 0.43094552
3.2181375 -2.7586863 0.43088043
3.3649819 -2.7700984 0.4308095
2.9097681 -2.6803718 0.45477062
2.9352946 -2.6988826 0.42989969
3.0436642 -2.6864033 0.42922974
3.160162 -2.6727767 0.42850333
3.1888669 -2.7153118 0.42968029
3.3014371 -2.6801054 0.42832714
3.3328855 -2.7246428 0.42955559
3.4559796 -2.6881232 0.42813456
3.4905729 -2.7348597 0.42941922
2.9138665 -2.6288931 0.45409572
3.0047002 -2.6260939 0.42755616
3.1320069 -2.631057 0.42734891
3.2706189 -2.6364608 0.42712325
3.4221108 -2.6423659 0.4268766
3.5883663 -2.6488471 0.42660606
2.9171474 -2.5879836 0.46290702
2.9182599 -2.5732214 0.43822819
3.1043866 -2.5901287 0.42621636
3.2404113 -2.5936797 0.42594314
3.3889439 -2.5975575 0.42564487
3.5517948 -2.6018085 0.42531776
3.7311375 -2.6064899 0.42495763
2.9212847 -2.5365028 0.47724557
2.9221492 -2.5247374 0.44895196
3.2107964 -2.551739 0.42478633
3.3564577 -2.5536675 0.42443842
3.5160093 -2.5557804 0.42405736
3.6915369 -2.5581048 0.42363816
3.8855674 -2.560674 0.42317468
2.9259434 -2.4784937 0.49229372
2.9260397 -2.4762337 0.45968038
3.1817565 -2.5106125 0.42365181
3.324631 -2.5106697 0.42325646
3.4809849 -2.5107317 0.42282367
3.6528199 -2.5107996 0.42234802
3.8425555 -2.5108745 0.42182291
2.9285469 -2.445919 0.49582732
2.9296682 -2.4310491 0.47114581
3.2934437 -2.4685354 0.42209822
3.4466975 -2.4666302 0.4216159
3.6149571 -2.4645381 0.42108643
3.8005426 -2.4622314 0.42050248
2.9333396 -2.3851562 0.47736645
3.4131236 -2.4234474 0.42043328
3.5779216 -2.4192872 0.41985238
3.7594945 -2.4147043 0.41921246
4.0062857 -2.4596791 0.41985631
2.9373045 -2.3356447 0.48586303
3.5416853 -2.3750131 0.41864496
3.7193763 -2.3682547 0.41795158
3.915905 -2.3607845 0.4171856
3.9605494 -2.4096344 0.41850489
2.9416914 -2.2804117 0.48087901
3.6801581 -2.3228474 0.41671902
3.8723147 -2.3130879 0.41589755
2.9451754 -2.2368245 0.48559737
3.8297412 -2.2665033 0.41463959
2.9495327 -2.182303 0.49149948
2.9538934 -2.127744 0.49740583
3.9918156 -2.2054536 0.41238642
2.9573843 -2.0840664 0.50213408
2.9608777 -2.0403633 0.5068652
2.9652467 -1.9856957 0.51278311
2.969619 -1.9309906 0.51870525
2.9731195 -1.8871963 0.5234462
2.9766216 -1.8433759 0.52818984
3.9619644 -1.8650247 0.47108978
2.9810028 -1.7885624 0.53412372
3.1261742 -1.7864522 0.50529438
3.2537866 -1.7770522 0.50498581
3.272629 -1.8077037 0.50534922
3.4109011 -1.8110195 0.50352418
3.5317805 -1.8325627 0.49514437
3.5890076 -1.8227499 0.50507367
3.6641836 -1.8425541 0.48774087
3.7590284 -1.8135999 0.50470567
3.7958798 -1.8513787 0.49243593
2.9853864 -1.7337105 0.54006141
3.2351813 -1.7467871 0.50462705
3.3822567 -1.7510931 0.50446475
3.5548337 -1.7723523 0.50448102
3.7338107 -1.7783064 0.50429243
3.918257 -1.7665496 0.50386983
2.9888959 -1.6897987 0.54481512
3.352052 -1.7042612 0.50391179
3.4993269 -1.6904964 0.5035184
3.5212853 -1.7228786 0.50389916
3.6967106 -1.7263837 0.50368464
3.8907702 -1.7301321 0.5034458
2.9924073 -1.645861 0.54957145
3.4776669 -1.6585531 0.50314277
3.6603177 -1.6754501 0.50308847
3.8503652 -1.6765993 0.50282228
4.0614843 -1.6777363 0.50252479
2.9968002 -1.5909004 0.55552107
3.4562979 -1.6270398 0.50277221
3.6130462 -1.6092921 0.50231415
3.6365144 -1.6421367 0.5026986
3.8107615 -1.6241286 0.50221127
4.0318918 -1.640722 0.50209618
3.0011957 -1.5359018 0.56147486
3.5899067 -1.5769068 0.50193506
3.7593758 -1.5560471 0.50141841
3.7848792 -1.5898367 0.50181198
3.9740999 -1.5684179 0.501261
4.0027642 -1.6042863 0.50167465
3.004715 -1.4918722 0.56624126
3.7342429 -1.5227486 0.50103056
3.9458773 -1.533101 0.50085378
3.0082357 -1.4478165 0.57101041
3.7094772 -1.4899318 0.50064898
3.9043984 -1.4811968 0.50025511
3.0126398 -1.3927085 0.57697606
3.8637526 -1.430334 0.49966854
3.0170474 -1.3375621 0.58294582
3.020576 -1.2934144 0.58772504
3.0241065 -1.2492404 0.592507
3.0285227 -1.1939842 0.59848869
3.0329423 -1.1386896 0.6044746
3.0364807 -1.0944231 0.6092667
3.0400205 -1.05013 0.61406153
3.0444489 -0.99472535 0.62005931
3.0488803 -0.93928182 0.62606132
3.0524282 -0.89489603 0.63086623
3.0559778 -0.85048378 0.63567418
3.0604181 -0.7949295 0.64168811
3.0648613 -0.73933661 0.64770633
3.0684187 -0.69483125 0.65252417
3.0719779 -0.65029907 0.65734488
3.0755394 -0.60574019 0.66216856
3.0799942 -0.55000281 0.66820252
3.0844524 -0.49422616 0.67424053
3.0880213 -0.4495737 0.67907417
3.0915916 -0.40489447 0.68391097
3.0960591 -0.34900641 0.68996114
3.423532 -3.0630405 0.43930221
3.5723901 -3.0638316 0.43891186
3.373606 -2.9890606 0.4372552
3.5359414 -3.0122132 0.4374879
3.2255614 -2.967947 0.43704277
3.3412354 -2.941093 0.43592787
3.5002778 -2.9617057 0.43609482
3.6752684 -2.9843855 0.43627852
3.1960552 -2.9222767 0.43577546
3.3095219 -2.8941002 0.43462747
3.4653738 -2.9122739 0.43473125
3.6366787 -2.9322498 0.43484533
3.8258545 -2.9543095 0.43497127
3.2784474 -2.8480537 0.43335336
3.4312046 -2.863884 0.43339652
3.5989411 -2.8812664 0.43344378
3.7839735 -2.9004407 0.43349606
3.397748 -2.8165023 0.43208951
3.5620294 -2.8313975 0.432073
3.7430544 -2.8478096 0.43205482
3.9435232 -2.8659861 0.43203443
2.9050753 -2.7406301 0.49660212
3.5259147 -2.7826064 0.43073171
3.7030649 -2.7963748 0.43064612
3.8990145 -2.811604 0.43055147
2.9093974 -2.686563 0.50247926
3.6257501 -2.6969306 0.4279229
3.6639733 -2.7460942 0.42926919
3.8555567 -2.7585075 0.42910343
2.9137213 -2.6324582 0.50836045
3.7923841 -2.6813216 0.42699838
2.9171832 -2.5891452 0.51306885
3.974731 -2.6639087 0.42597717
2.9215138 -2.5349662 0.51895815
3.9296131 -2.611671 0.42455906
2.9258468 -2.4807501 0.5248515
2.929316 -2.4373472 0.52956933
2.9327874 -2.3939183 0.53429019
2.937094 -2.3403833 0.55104703
2.9376166 -2.3329735 0.52450198
2.9405689 -2.2969108 0.5557757
2.9416983 -2.2819355 0.53113604
2.9449892 -2.2409012 0.53997117
2.9491336 -2.188966 0.54287422
2.9533122 -2.136873 0.55440116
2.9571824 -2.0883429 0.55654311
2.9606714 -2.0446968 0.56128412
2.965035 -1.9901011 0.56721479
2.9694016 -1.9354678 0.57314944
2.9728975 -1.8917309 0.57790047
2.9763954 -1.847968 0.5826543
2.9807701 -1.7932265 0.58860058
3.9550097 -1.8657529 0.49960017
3.9745138 -1.8410833 0.50473791
2.9851487 -1.7384471 0.59455097
3.9461684 -1.8035289 0.50430053
2.9886532 -1.694593 0.59931469
2.9921606 -1.6507128 0.60408121
2.9965475 -1.5958246 0.61004341
3.0009375 -1.5408987 0.61600995
3.0044515 -1.4969271 0.62078637
3.0079679 -1.4529296 0.62556565
3.0123668 -1.3978944 0.63154393
3.0167687 -1.3428209 0.63752633
3.0202923 -1.2987314 0.64231557
3.023818 -1.2546158 0.6471076
3.028228 -1.199433 0.65310204
3.0327027 -1.1431087 0.64819032
3.0362365 -1.0988891 0.6529904
3.0397732 -1.0546433 0.65779352
3.0441968 -0.99929726 0.66380137
3.0486236 -0.94391274 0.66981363
3.0521674 -0.89957428 0.67462665
3.0557134 -0.85520923 0.67944252
3.0601492 -0.79971421 0.68546659
3.0645876 -0.74418056 0.691495
3.0681407 -0.69972265 0.69632101
3.0716968 -0.65523797 0.70115
3.0761437 -0.5995934 0.70719028
3.0805945 -0.54390979 0.71323484
3.0841575 -0.49933201 0.71807402
3.0877225 -0.45472723 0.72291583
3.09129 -0.41009593 0.72776061
3.0957518 -0.35426769 0.73382092
3.6477456 -3.1705506 0.44185555
3.4748807 -3.1391301 0.44140762
3.6096485 -3.1165974 0.44036728
3.7964561 -3.1481116 0.44077921
3.9576247 -3.1237931 0.43961275
3.755126 -3.0922742 0.43924427
3.7147408 -3.0377131 0.43774444
3.9126434 -3.0659382 0.43802834
3.8687327 -3.0094602 0.43648154
3.9891231 -2.9217005 0.43355399
2.9049687 -2.7433636 0.53989083
2.9092858 -2.6893523 0.5457781
2.9136055 -2.6353047 0.55166912
2.9170642 -2.5920358 0.55638534
2.9205244 -2.5487421 0.5611043
2.9248526 -2.4945877 0.56700712
2.9291844 -2.4403958 0.57291389
2.9326515 -2.3970118 0.57764268
2.9369893 -2.3427453 0.58355767
2.9413295 -2.2884414 0.5894767
2.9448044 -2.2449682 0.59421521
2.9482429 -2.2022927 0.60979253
2.948319 -2.2006457 0.5881204
2.9517207 -2.1587794 0.61453867
2.9530845 -2.1411972 0.60006171
2.9569814 -2.0926092 0.61082208
2.9604661 -2.0490205 0.61557323
2.964824 -1.9944961 0.62151629
2.9691846 -1.9399341 0.62746352
2.972676 -1.8962547 0.63222444
2.9761691 -1.8525492 0.63698834
2.9805388 -1.7978796 0.64294726
2.9849114 -1.7431722 0.64891034
2.9884114 -1.6993756 0.65368396
2.991914 -1.6555532 0.65846044
2.9962952 -1.6007373 0.66443533
3.0006795 -1.5458834 0.67041421
3.004189 -1.5019701 0.67520076
3.0077012 -1.4580305 0.67998993
3.012094 -1.4030677 0.6859808
3.0164897 -1.3480669 0.69197583
3.020009 -1.3040359 0.69677508
3.0235298 -1.2599784 0.70157719
3.0279348 -1.2048687 0.70758402
3.0324023 -1.1486193 0.70270371
3.0359323 -1.1044583 0.70751393
3.0394642 -1.0602711 0.71232694
3.0438817 -1.0049986 0.71834755
3.0483029 -0.9496876 0.72437227
3.0518425 -0.90540791 0.72919542
3.0553837 -0.86110187 0.73402131
3.0598128 -0.80568063 0.74005812
3.0642457 -0.75022089 0.74609894
3.0677948 -0.70582211 0.7509352
3.0713453 -0.66139674 0.75577414
3.0757871 -0.60582644 0.76182711
3.0802317 -0.55021727 0.76788449
3.0837896 -0.50569874 0.77273339
3.0873506 -0.46115369 0.77758545
3.0909131 -0.41658202 0.78244036
3.0953686 -0.36082846 0.7885133
3.0988591 -0.31752145 0.80430377
2.9048352 -2.7467721 0.59387332
2.9089382 -2.695354 0.59678131
2.9130831 -2.6436808 0.60825175
2.9169145 -2.5956404 0.61040241
2.9204013 -2.551672 0.60434061
2.9247251 -2.4975734 0.61025327
2.9290524 -2.4434381 0.61617011
2.9325161 -2.4000995 0.62090677
2.9368489 -2.3458891 0.62683153
2.941185 -2.291642 0.63276058
2.9446559 -2.248214 0.63750708
2.9481297 -2.2047606 0.64225632
2.9524736 -2.1504061 0.64819705
2.9568214 -2.0960143 0.65414184
2.9602609 -2.0533321 0.66972178
2.9603426 -2.0516088 0.64808017
2.963742 -2.0097744 0.67448562
2.9646976 -1.9971275 0.65403062
2.9684801 -1.950217 0.67226094
2.9724994 -1.8998652 0.67558002
2.9759889 -1.8562053 0.68035179
2.9803538 -1.8015928 0.68632072
2.9847221 -1.746943 0.69229358
2.988219 -1.7031926 0.69707543
2.9917173 -1.6594161 0.70185977
2.996094 -1.6046578 0.70784456
3.0004737 -1.5498619 0.71383351
3.0039794 -1.5059946 0.71862787
3.0074878 -1.4621013 0.72342521
3.0118759 -1.4071968 0.72942597
3.0162673 -1.3522539 0.73543102
3.0197828 -1.3082691 0.74023825
3.0233004 -1.2642583 0.74504828
3.0277002 -1.2092067 0.75106519
3.0321033 -1.1541166 0.75708616
3.0356288 -1.1100143 0.76190645
3.0391564 -1.0658855 0.76672959
3.0435679 -1.0106862 0.77276272
3.0479832 -0.95544851 0.77879983
3.0515177 -0.91122758 0.78363305
3.0550544 -0.86698031 0.78846896
3.059478 -0.81163275 0.79451829
3.0639055 -0.75624669 0.80057168
3.0674493 -0.71190703 0.80541784
3.0709953 -0.66754079 0.81026685
3.0754311 -0.61204433 0.8163324
3.0798697 -0.5565092 0.82240206
3.0834236 -0.51205027 0.82726127
3.0869796 -0.46756452 0.8321234
3.0905368 -0.42305237 0.83698827
3.0949869 -0.36737329 0.84307373
3.0985498 -0.32280329 0.84794497
2.9047019 -2.7501726 0.64772779
2.9081464 -2.7070799 0.65245694
2.9124548 -2.6531768 0.65837222
2.9167657 -2.5992365 0.66429138
2.9202478 -2.5553248 0.65825772
2.9245663 -2.501297 0.66418272
2.9288883 -2.4472315 0.67011184
2.9323475 -2.4039497 0.67485827
2.9361901 -2.3557742 0.67703605
2.9403467 -2.3039582 0.68854117
2.9444716 -2.2522616 0.69149321
2.9479406 -2.2088645 0.69625235
2.9522796 -2.1545808 0.70220536
2.9566209 -2.10026 0.70816249
2.9600966 -2.0567732 0.71293145
2.9635749 -2.0132606 0.71770334
2.9679253 -1.9588327 0.72367227
2.9722347 -1.9052669 0.74044716
2.9723668 -1.9025681 0.70804119
2.9757187 -1.8616755 0.74523085
2.9758539 -1.8589427 0.71281892
2.9800313 -1.8080735 0.76201349
2.9801695 -1.8052989 0.72960532
2.9844854 -1.7516452 0.74639344
2.987978 -1.7079523 0.751185
2.9914722 -1.6642334 0.75597936
2.9958429 -1.6095469 0.7619766
3.0000627 -1.5566151 0.763412
3.0037704 -1.510011 0.76196623
3.0072749 -1.4661639 0.76677138
3.0116594 -1.4113169 0.77278215
3.016046 -1.3564322 0.77879697
3.0195572 -1.3124938 0.78361219
3.0230715 -1.2685294 0.78843021
3.0274665 -1.2135358 0.79445696
3.0318649 -1.1585042 0.80048794
3.0353861 -1.1144482 0.80531615
3.0389102 -1.0703663 0.81014729
3.0433176 -1.0152253 0.81619018
3.0477278 -0.96004617 0.82223743
3.0512593 -0.9158721 0.82707846
3.0547917 -0.8716718 0.83192241
3.0592113 -0.81638288 0.83798176
3.0636337 -0.76105571 0.84404498
3.0671737 -0.71676314 0.84889919
3.0707159 -0.67244405 0.85375613
3.0751469 -0.61700678 0.85983163
3.0795813 -0.56153083 0.86591125
3.0831316 -0.51711917 0.87077844
3.086683 -0.47268105 0.8756485
3.090755 -0.42180294 0.8834275
3.0950537 -0.36788592 0.8849299
3.0982413 -0.32807413 0.89149618
2.9045951 -2.7528865 0.69070923
2.908036 -2.7098382 0.69544619
2.9123404 -2.6559911 0.70137119
2.9166472 -2.6021068 0.70730036
2.920095 -2.5589697 0.71204692
2.924408 -2.5050113 0.71798414
2.9287243 -2.4510164 0.72392541
2.9321787 -2.4077907 0.72868174
2.9356368 -2.3645391 0.73344105
2.9399602 -2.3104382 0.73939395
2.9442875 -2.2562995 0.74535108
2.9477518 -2.2129591 0.7501201
2.9520855 -2.158746 0.75608522
2.9564214 -2.104496 0.76205474
2.9598927 -2.0610657 0.76683348
2.9633663 -2.0176101 0.77161503
2.967711 -1.9632529 0.77759635
2.9720588 -1.9088585 0.78358167
2.9755394 -1.8653129 0.78837299
2.9795537 -1.815017 0.79173124
2.9837174 -1.7630644 0.80180001
2.9877379 -1.7127006 0.80516559
2.9911785 -1.6699989 0.8207534
2.9912767 -1.6680794 0.79918677
2.9937963 -1.6372451 0.82435971
2.9959517 -1.6098602 0.81430316
3.0001662 -1.5569898 0.81575584
3.0035098 -1.5150194 0.81600958
3.0070097 -1.4712298 0.82082462
3.0113881 -1.416455 0.82684761
3.0157688 -1.3616422 0.83287489
3.0192759 -1.3177619 0.83769989
3.0227852 -1.2738556 0.84252781
3.0271747 -1.2189343 0.84856689
3.0315678 -1.1639752 0.85461038
3.0350845 -1.1199774 0.85944813
3.0386035 -1.0759536 0.86428922
3.0430055 -1.0208856 0.8703447
3.0474098 -0.96577942 0.87640411
3.050936 -0.92166388 0.88125533
3.0544643 -0.87752211 0.88610893
3.0588779 -0.82230663 0.8921805
3.0632944 -0.76705265 0.89825636
3.0668299 -0.72281873 0.90312034
3.0703678 -0.67855859 0.9079873
3.0747929 -0.62319493 0.91407514
3.079293 -0.56654209 0.9093309
3.0828393 -0.52217764 0.91420603
3.0863872 -0.47778687 0.91908401
3.0908253 -0.4222596 0.92518568
3.0952663 -0.36669376 0.93129146
3.0985003 -0.32635799 0.93939072
2.9044626 -2.7562704 0.74430919
2.9078991 -2.7132783 0.74905574
2.9121978 -2.6595001 0.75499296
2.9165289 -2.6049709 0.75022203
2.9199731 -2.5618787 0.75497621
2.9234192 -2.5187607 0.75973344
2.9277308 -2.4648271 0.76568401
2.9320447 -2.410856 0.77163845
2.9354985 -2.3676498 0.77640551
2.9398177 -2.3136046 0.78236818
2.9441409 -2.2595224 0.78833514
2.9476013 -2.2162268 0.79311186
2.9515917 -2.1662374 0.79646063
2.9557345 -2.1145482 0.80649638
2.9597301 -2.0644917 0.80985266
2.9631996 -2.0210817 0.81464201
2.9675398 -1.9667808 0.82063305
2.9718835 -1.9124432 0.82662791
2.9753604 -1.8689431 0.8314271
2.9788392 -1.8254173 0.83622944
2.983191 -1.7709726 0.84223622
2.9875457 -1.7164904 0.84824735
2.9910324 -1.6728746 0.85305941
2.995393 -1.618317 0.85907876
2.9994483 -1.567693 0.86828923
3.0006804 -1.5518093 0.85554034
3.0031977 -1.5210136 0.8806923
3.0033019 -1.5190179 0.85915577
3.0058184 -1.4882264 0.88431203
3.0070541 -1.4723028 0.87156123
3.0111175 -1.4215808 0.88078421
3.0154929 -1.3668404 0.88682359
3.018995 -1.3230174 0.89165848
3.0225 -1.2791687 0.89649624
3.0268846 -1.2243201 0.9025476
3.031271 -1.1694332 0.90860307
3.0347834 -1.1254935 0.91345096
3.0382972 -1.0815277 0.91830176
3.0426936 -1.0265324 0.92436939
3.0470924 -0.97149909 0.9304412
3.0506141 -0.92744184 0.93530208
3.0541372 -0.88335836 0.94016558
3.0585449 -0.82821584 0.94624966
3.0629561 -0.77303517 0.95233768
3.0664866 -0.7288599 0.95721132
3.0700197 -0.68465847 0.96208817
3.0744395 -0.62936819 0.96818823
3.0789342 -0.57279104 0.96347493
3.0824757 -0.52848554 0.96835977
3.0860188 -0.48415369 0.97324771
3.0904515 -0.42870045 0.97936183
3.0948861 -0.37320846 0.98548001
3.0984371 -0.32878405 0.99037808
2.9043305 -2.7596471 0.79778242
2.9077628 -2.7167099 0.80253875
2.9111969 -2.6737473 0.80729771
2.9157288 -2.6167843 0.80552763
2.9198213 -2.5655057 0.80851132
2.9232631 -2.5224438 0.81327802
2.9275687 -2.4685798 0.81924069
2.9318771 -2.4146786 0.82520711
2.9353261 -2.3715279 0.82998401
2.9396405 -2.3175533 0.83595878
2.9439583 -2.2635415 0.8419376
2.9474139 -2.2203019 0.84672421
2.9508724 -2.1770372 0.85151345
2.955198 -2.1229191 0.85750419
2.9595268 -2.068764 0.86349893
2.9629917 -2.0254102 0.86829805
2.9673266 -1.9711802 0.87430102
2.9716642 -1.9169132 0.88030815
2.9751368 -1.8734698 0.88511717
2.978611 -1.830001 0.88992894
2.9829576 -1.7756273 0.89594823
2.9873066 -1.7212162 0.90197116
2.9908373 -1.6767019 0.89606094
2.9951932 -1.6222017 0.90209001
2.999552 -1.5676638 0.90812296
3.003042 -1.5240034 0.91295278
3.0065336 -1.4803171 0.91778535
3.0105417 -1.4302506 0.92549706
3.0127041 -1.4027776 0.91549802
3.0152175 -1.3720247 0.94063264
3.0153277 -1.3699527 0.91912669
3.0178409 -1.339204 0.9442659
3.0190818 -1.3232147 0.93154114
3.0222726 -1.2834092 0.93956786
3.0266521 -1.2286183 0.94562906
3.0310345 -1.1737894 0.95169431
3.0345423 -1.1298958 0.95654982
3.0380528 -1.0859762 0.96140832
3.0424449 -1.0310391 0.96748585
3.0468392 -0.97606373 0.97356731
3.0503566 -0.93205297 0.97843605
3.0538769 -0.88801622 0.98330766
3.0582798 -0.832932 0.98940116
3.0626855 -0.77780962 0.99549896
3.0662134 -0.73368132 1.0003804
3.0697432 -0.68952662 1.0052651
3.0741575 -0.63429499 1.0113751
3.0785751 -0.57902497 1.0174892
3.0821123 -0.53477836 1.0223838
3.0856514 -0.49050534 1.0272814
3.0900772 -0.43512571 1.0334079
3.0945065 -0.37970757 1.0395383
3.098053 -0.33534223 1.0444461
2.9042251 -2.7623417 0.84046018
2.9076536 -2.7194488 0.84522396
2.9110842 -2.6765306 0.84999055
2.9153752 -2.6228461 0.8559531
2.9196694 -2.5691249 0.86191946
2.9231069 -2.5261185 0.86669606
2.927407 -2.4723239 0.87267065
2.9317098 -2.4184921 0.87864918
2.9351549 -2.3753977 0.88343549
2.9391255 -2.3256483 0.88680744
2.9432502 -2.2741835 0.89683014
2.9472265 -2.2243671 0.90020955
2.9506807 -2.1811588 0.90500838
2.9550004 -2.1271107 0.91101104
2.9593241 -2.0730259 0.91701788
2.9627848 -2.0297284 0.92182666
2.967114 -1.9755692 0.92784178
2.971446 -1.9213729 0.93386102
2.9749141 -1.8779861 0.9386797
2.9783843 -1.8345737 0.94350117
2.9827249 -1.7802708 0.94953221
2.9870684 -1.7259308 0.95556754
2.9905939 -1.681475 0.94968528
2.9944615 -1.6329906 0.95197326
2.9986324 -1.5809944 0.96354347
3.0027835 -1.528976 0.96661073
3.0062704 -1.485347 0.97145313
3.0106328 -1.4307733 0.97751027
3.0149977 -1.3761618 0.98357147
3.0184925 -1.3324424 0.98842376
3.0219884 -1.2886972 0.99327904
3.0263045 -1.235049 1.0100859
3.0264783 -1.2318364 0.97788495
3.0303688 -1.18432 1.0193366
3.03111 -1.1741227 0.99152285
3.0341232 -1.1375785 1.0317634
3.0343025 -1.134289 0.99956053
3.0377486 -1.0915239 1.0151631
3.0421343 -1.036659 1.0212526
3.0465236 -0.98175597 1.0273461
3.050036 -0.93780327 1.0322247
3.0535519 -0.89382458 1.0371059
3.0577455 -0.84126973 1.0402192
3.0624166 -0.78257442 1.0385718
3.0659404 -0.73849261 1.0434611
3.0694659 -0.69438475 1.0483536
3.0738761 -0.6392116 1.0544733
3.0782888 -0.58400023 1.0605971
3.0818219 -0.53980041 1.0654994
3.0853577 -0.49557447 1.070405
3.0897794 -0.4402537 1.0765411
3.0942039 -0.38489443 1.0826812
3.0977461 -0.34057626 1.0875969
3.1003282 -0.3086372 1.1020635
2.9040935 -2.7657025 0.89368165
2.9075181 -2.7228644 0.8984549
2.9109435 -2.6800013 0.90323108
2.9152298 -2.6263859 0.90920532
2.9195182 -2.5727339 0.9151839
2.9227927 -2.5316374 0.915474
2.9272783 -2.4753122 0.91531354
2.9315765 -2.4215362 0.92130178
2.9350173 -2.3784859 0.92609566
2.9384606 -2.3354106 0.93089241
2.9427679 -2.2815301 0.93689233
2.9470773 -2.227612 0.94289643
2.9505277 -2.184448 0.94770306
2.9548435 -2.1304562 0.95371538
2.9591622 -2.0764275 0.95973176
2.9626195 -2.0331748 0.96454829
2.9660788 -1.9898969 0.96936733
2.9704065 -1.935762 0.97539574
2.9747362 -1.8815901 0.98142797
2.9782026 -1.838223 0.98625726
2.9825392 -1.7839768 0.99229783
2.9868784 -1.7296935 0.99834269
2.9903512 -1.6862369 1.0031818
2.9938269 -1.6427547 1.0080239
2.9981749 -1.5883645 1.0140803
3.0025249 -1.533937 1.0201411
3.0060079 -1.4903649 1.0249931
3.0103643 -1.4358625 1.0310624
3.0147238 -1.3813224 1.0371355
3.0182135 -1.3376606 1.0419976
3.0217056 -1.2939727 1.0468624
3.0260735 -1.2393254 1.0529476
3.0304444 -1.1846404 1.0590371
3.0339434 -1.1408622 1.0639119
3.0374448 -1.0970582 1.0687895
3.0414619 -1.0468756 1.0765458
3.0436399 -1.019214 1.0666188
3.0461447 -0.9885689 1.0917126
3.0462706 -0.98630047 1.0702815
3.0497162 -0.94353986 1.0858849
3.0532274 -0.89961898 1.090776
3.0578983 -0.84103441 1.0926449
3.0620806 -0.7885161 1.0922841
3.0655994 -0.74449253 1.0971833
3.0691204 -0.70044291 1.1020852
3.0735252 -0.64534271 1.1082169
3.0779326 -0.59020448 1.1143529
3.081461 -0.54606307 1.1192651
3.0849915 -0.50189573 1.1241801
3.0894077 -0.44664827 1.1303283
3.0938263 -0.39136252 1.1364807
3.0973639 -0.34710309 1.1414057
3.1000185 -0.31389216 1.1451018
2.9039624 -2.7690549 0.94677776
2.907382 -2.7262719 0.95156056
2.910804 -2.6834638 0.95634609
2.9147475 -2.6340609 0.95973068
2.9188473 -2.5829079 0.96972603
2.9229863 -2.5308537 0.96698409
2.9262583 -2.4897766 0.96729189
2.9305518 -2.4360752 0.97329146
2.9348464 -2.3823373 0.97929519
2.9382858 -2.3393173 0.98410147
2.9425871 -2.2855062 0.9901132
2.9468911 -2.2316582 0.99612933
2.9503369 -2.18855 1.0009453
2.9546473 -2.1346281 1.0069695
2.9589608 -2.0806694 1.0129977
2.9624135 -2.0374725 1.0178237
2.9658687 -1.9942509 1.0226524
2.9701896 -1.9401863 1.0286925
2.9745145 -1.8860848 1.0347368
2.9779768 -1.8427742 1.0395755
2.982307 -1.7885985 1.0456283
2.9866407 -1.7343857 1.051685
2.9899557 -1.6927757 1.0520287
2.9936299 -1.6466004 1.0507271
2.9979734 -1.592267 1.0567935
3.0023191 -1.5378964 1.0628639
3.0057981 -1.4943697 1.0677233
3.01015 -1.4399242 1.0738021
3.0145049 -1.3854414 1.0798848
3.0179911 -1.341825 1.0847543
3.0214801 -1.2981831 1.0896269
3.0258434 -1.2435931 1.0957218
3.0302095 -1.1889653 1.1018209
3.0337048 -1.1452332 1.1067035
3.0372026 -1.1014751 1.1115888
3.0415778 -1.0467398 1.1177
3.0459559 -0.99196672 1.1238154
3.0494611 -0.94811821 1.1287107
3.0529683 -0.90424359 1.1336094
3.0572894 -0.85053194 1.1504366
3.0574212 -0.84819317 1.129037
3.0617452 -0.79444373 1.1458684
3.0652595 -0.75047815 1.1507772
3.0687761 -0.70648664 1.1556888
3.0731747 -0.65145922 1.1618325
3.0775762 -0.5963937 1.1679804
3.0811005 -0.55231094 1.1729022
3.0846264 -0.5082019 1.1778269
3.0890365 -0.45302743 1.1839867
3.0934503 -0.39781499 1.1901513
3.0969825 -0.35361439 1.195086
3.0996342 -0.32044744 1.1987894
2.9030294 -2.7817469 0.97737426
2.9064462 -2.7390008 0.9821623
2.9107199 -2.6855371 0.98815089
2.9141414 -2.6427376 0.9929449
2.9184203 -2.5892007 0.99894184
2.9227033 -2.5356283 1.0049427
2.9261315 -2.4927409 1.0097463
2.9304192 -2.4390943 1.0157554
2.9347103 -2.3854122 1.0217686
2.9381456 -2.3424368 1.0265822
2.9424431 -2.288681 1.0326036
2.9467425 -2.2348883 1.0386291
2.9501851 -2.1918249 1.043453
2.9544907 -2.1379588 1.0494863
2.9587994 -2.0840561 1.0555242
2.9622488 -2.0409043 1.0603576
2.9657001 -1.9977268 1.0651939
2.9700174 -1.9437186 1.0712438
2.9743373 -1.8896734 1.0772973
2.9777958 -1.8464074 1.0821438
2.9821217 -1.7922883 1.0882058
2.9864509 -1.7381318 1.0942719
2.9902377 -1.6905296 1.0924386
2.9934335 -1.6504382 1.0933439
2.9977715 -1.5961615 1.0994197
3.0021138 -1.5418475 1.1054996
3.005589 -1.4983664 1.1103668
3.0099361 -1.4439777 1.116455
3.0142865 -1.3895519 1.1225473
3.0177691 -1.3459812 1.1274244
3.0212541 -1.3023847 1.1323044
3.0256128 -1.2478518 1.1384089
3.0299752 -1.1932814 1.1445173
3.0334668 -1.149595 1.1494075
3.0369608 -1.105883 1.1543007
3.0413315 -1.0512052 1.160421
3.0457053 -0.99648964 1.1665461
3.0492067 -0.95268703 1.1714494
3.0527101 -0.90885878 1.1763555
3.0570927 -0.8540355 1.1824924
3.0614777 -0.79917431 1.1886333
3.0646734 -0.75931478 1.1967009
3.0659344 -0.74307621 1.1840966
3.0684326 -0.7125147 1.2091532
3.0685699 -0.71010548 1.1877849
3.0710676 -0.67954826 1.2128459
3.073261 -0.65169919 1.2029775
3.0772924 -0.60133326 1.2107797
3.0808122 -0.55729705 1.2157093
3.0848484 -0.50687528 1.2235208
3.0891075 -0.45345506 1.2251662
3.0931492 -0.40296459 1.2329853
3.0966785 -0.35881084 1.2379276
3.0998902 -0.31875098 1.2460283
2.9105134 -2.6017835 -1.7023765
2.9141505 -2.556253 -1.6981142
2.9177899 -2.5106938 -1.6938492
2.9214323 -2.4651062 -1.6895819
2.9259877 -2.4080808 -1.6842434
2.9305468 -2.3510139 -1.6789014
2.9341965 -2.3053272 -1.6746244
2.9378486 -2.2596121 -1.6703451
2.941503 -2.2138689 -1.666063
2.9451597 -2.1680968 -1.6617783
2.949734 -2.1108403 -1.6564186
2.9543111 -2.0535424 -1.6510547
2.9579756 -2.0076706 -1.6467606
2.9616432 -1.9617701 -1.6424638
2.965312 -1.915841 -1.6381643
2.9689837 -1.8698834 -1.633862
2.9735763 -1.8123945 -1.6284806
2.9784467 -1.7516882 -1.614719
2.9818032 -1.7098074 -1.6067563
2.9854836 -1.6637331 -1.6024398
2.9891667 -1.6176305 -1.5981202
2.9928522 -1.5714989 -1.5937978
2.9965396 -1.5253383 -1.5894729
3.0011528 -1.4675956 -1.5840627
3.0057688 -1.4098107 -1.5786487
3.009465 -1.3635492 -1.5743142
3.0131624 -1.3172585 -1.5699769
3.0168633 -1.2709391 -1.5656372
3.020566 -1.2245907 -1.5612948
3.0242712 -1.1782131 -1.5569493
3.0289056 -1.1201987 -1.5515138
3.0335438 -1.062142 -1.5460743
3.0372567 -1.0156628 -1.5417194
3.040972 -0.96915424 -1.5373617
3.0446901 -0.9226166 -1.5330018
3.0484102 -0.87604976 -1.5286385
3.0521324 -0.82945371 -1.5242728
3.0567889 -0.77116579 -1.5188116
2.9104245 -2.6040521 -1.666459
2.9140587 -2.5585582 -1.6621888
2.9176953 -2.5130367 -1.6579164
2.9213345 -2.4674861 -1.6536411
2.9255285 -2.4149048 -1.6511166
2.929888 -2.3604944 -1.6411886
2.934088 -2.3078384 -1.6386571
2.9377375 -2.2621613 -1.6343699
2.9413891 -2.2164555 -1.6300801
2.9450426 -2.1707208 -1.6257875
2.9492395 -2.1182692 -1.6184492
2.9514825 -2.0897226 -1.630262
2.954145 -2.0571663 -1.6030499
2.9542282 -2.0553553 -1.6270394
2.9578483 -2.0104268 -1.6107428
2.9604666 -1.9788142 -1.5715424
2.9616694 -1.9628303 -1.5990276
2.9651344 -1.919616 -1.5901368
2.968802 -1.873709 -1.5858244
2.9731717 -1.8189116 -1.5837001
2.9773357 -1.7671363 -1.5677487
2.9816072 -1.713809 -1.5587
2.9852841 -1.6677861 -1.5543729
2.9889627 -1.621734 -1.5500429
2.9926445 -1.5756536 -1.5457103
2.9963279 -1.5295441 -1.5413752
3.0009356 -1.4718653 -1.535952
3.0055468 -1.4141444 -1.5305251
3.0092385 -1.3679341 -1.5261801
3.0129325 -1.3216952 -1.5218326
3.016629 -1.275427 -1.5174825
3.0203276 -1.2291301 -1.5131297
3.0240285 -1.182804 -1.508774
3.0286584 -1.1248544 -1.5033255
3.0332911 -1.0668622 -1.4978728
3.0370002 -1.0204349 -1.4935079
3.0407112 -0.97397804 -1.4891398
3.044425 -0.92749226 -1.484769
3.0481408 -0.88097739 -1.4803957
3.0518594 -0.83443344 -1.4760193
3.0565112 -0.77621078 -1.4705453
2.9103062 -2.6070702 -1.6186546
2.9139369 -2.5616262 -1.6143743
2.9175692 -2.5161543 -1.6100916
2.9212039 -2.4706538 -1.6058059
2.9248416 -2.4251254 -1.6015179
2.9293911 -2.3681736 -1.5961539
2.9339445 -2.3111806 -1.590786
2.9375896 -2.2655532 -1.5864885
2.9411993 -2.2207565 -1.570237
2.9448483 -2.1750848 -1.5659316
2.9489017 -2.1242309 -1.5645797
2.9532838 -2.0695829 -1.5529743
2.9576368 -2.0150106 -1.5508418
2.9612522 -1.9701393 -1.5345544
2.9649119 -1.9243244 -1.5302322
2.9682539 -1.8826208 -1.5222783
2.9695363 -1.8660597 -1.5367919
2.9721935 -1.8335738 -1.5096097
2.9722857 -1.8316424 -1.5335475
2.9768238 -1.775226 -1.5161648
2.9814112 -1.7178024 -1.510747
2.9850836 -1.6718299 -1.5064095
2.988759 -1.6258289 -1.5020694
2.9924366 -1.5797992 -1.4977267
2.9961164 -1.5337406 -1.493381
3.0007191 -1.4761257 -1.4879451
3.0053248 -1.418469 -1.482505
3.0090129 -1.3723099 -1.47815
3.0127025 -1.3261222 -1.4737924
3.0163953 -1.2799053 -1.4694316
3.0200896 -1.2336596 -1.4650685
3.0237865 -1.1873851 -1.4607027
3.0284109 -1.1294998 -1.4552412
3.0330386 -1.0715723 -1.4497757
3.0367434 -1.0251963 -1.4454001
3.0404506 -0.97879148 -1.4410218
3.0441606 -0.93235755 -1.436641
3.0478723 -0.88589454 -1.4322571
3.0515866 -0.83940232 -1.4278706
3.0562325 -0.78124475 -1.4223834
2.910188 -2.6100819 -1.5709522
2.9138145 -2.5646875 -1.566662
2.9176059 -2.5174611 -1.5550083
2.921042 -2.4746032 -1.5461613
2.9246743 -2.4291368 -1.5418603
2.9289997 -2.374902 -1.5397294
2.9333656 -2.3204627 -1.5281531
2.9374058 -2.269783 -1.5267864
2.94101 -2.2250473 -1.5105433
2.9446537 -2.1794379 -1.5062256
2.9482994 -2.133801 -1.5019047
2.9528608 -2.0767126 -1.4964998
2.9574251 -2.0195835 -1.491091
2.9610789 -1.9738468 -1.4867609
2.964735 -1.9280816 -1.4824281
2.968394 -1.8822882 -1.4780927
2.9720545 -1.8364663 -1.4737544
2.9766335 -1.7791471 -1.4683276
2.9808943 -1.7259451 -1.4592758
2.982182 -1.7093117 -1.4737607
2.9848356 -1.6768728 -1.4465971
2.9849346 -1.6748575 -1.4705015
2.9885557 -1.629915 -1.454199
