# .PCD v0.7 - Point Cloud Data file format
VERSION 0.7
FIELDS x y z
SIZE 4 4 4
TYPE F F F
COUNT 1 1 1
WIDTH 1538
HEIGHT 1
VIEWPOINT 0 0 0 1 0 0 0
POINTS 1538
DATA ascii
2.9534395 1.2947626 0.31621212
3.1971426 1.3099856 0.29085296
3.208302 1.3302429 0.29059726
3.8317502 1.3942893 0.27793798
2.9486589 1.3466513 0.31467029
3.2252433 1.3609955 0.29020911
3.2423904 1.3921218 0.28981623
3.8659742 1.444694 0.27717167
2.9448314 1.388202 0.31343558
3.2656741 1.4343879 0.28928274
3.9009585 1.4962177 0.27638835
2.9404194 1.4348259 0.30678239
3.2953203 1.4882035 0.28860345
3.945838 1.5623164 0.27538347
2.935045 1.4919012 0.29981422
3.3134403 1.5210965 0.28818831
3.3256721 1.5433006 0.28790805
3.9919121 1.6301744 0.27435181
2.9302456 1.5439956 0.29826081
3.3442526 1.577028 0.28748232
3.3630683 1.6111841 0.28705123
4.0201917 1.6718247 0.2737186
2.9254415 1.5961404 0.29670593
3.3821864 1.6458883 0.28661317
4.0393362 1.7000203 0.27328995
4.0587039 1.7285442 0.27285627
2.9340234 1.6472971 0.29564098
3.401551 1.6810403 0.28616947
3.4146283 1.7047787 0.28586987
4.0782981 1.7574024 0.27241755
4.0981264 1.7866008 0.2719737
2.9572461 1.6979778 0.29509589
3.4345009 1.7408526 0.28541455
3.4546342 1.7774012 0.28495324
4.1283641 1.831094 0.27129784
2.9809928 1.7498028 0.29453856
3.4751027 1.8145566 0.28448424
3.0052135 1.8026619 0.29397005
3.5028512 1.8649268 0.28384843
3.0249801 1.8457999 0.29350612
3.0400195 1.8786211 0.29315314
3.5240133 1.9033415 0.28336355
3.5383127 1.9292986 0.2830359
3.0552781 1.9119213 0.292795
3.5600555 1.9687676 0.28253776
3.070715 1.9456112 0.29243267
3.0811276 1.9683359 0.29218823
3.5895531 2.0223022 0.2818622
3.0969326 2.0028279 0.29181731
3.112926 2.0377312 0.29144189
3.6196902 2.0769598 0.28117305
3.1291595 2.0731595 0.29106089
3.6426909 2.1186736 0.2806471
3.6582415 2.1468761 0.2802915
3.1455896 2.1090162 0.29067525
3.1566761 2.1332114 0.29041502
3.6819007 2.1897848 0.2797505
3.1735098 2.1699491 0.2900199
3.7140162 2.2480285 0.27901614
3.1905587 2.2071395 0.28962016
3.2020712 2.2322414 0.2893506
3.7385395 2.2925043 0.27845541
3.2195556 2.2703643 0.28894114
3.7635128 2.337796 0.27788433
3.2492499 2.3351088 0.28824574
3.7974279 2.3993049 0.27710882
2.9532967 1.3064229 0.35795203
2.949472 1.3479447 0.35673556
2.9456444 1.3895006 0.35551804
2.9404631 1.4438517 0.34602296
2.9358578 1.4932132 0.34193826
2.9310582 1.5453138 0.34040657
2.9262545 1.5974653 0.33887324
2.9224076 1.6392267 0.33764532
2.9175942 1.6914787 0.33610907
2.9127762 1.7437813 0.33457136
2.9089179 1.7856636 0.33333996
2.9040906 1.8380675 0.33179924
2.8992593 1.890522 0.33025703
2.8944221 1.9430349 0.32871312
2.8895802 1.9955981 0.32716766
2.8857024 2.0376899 0.32593018
2.880851 2.0903554 0.3243818
2.8759952 2.1430719 0.32283187
2.8721063 2.1852863 0.32159072
2.8672416 2.2381053 0.32003775
2.8623707 2.2909758 0.31848332
2.8594463 2.3227243 0.31754988
2.9049034 1.8394229 0.37407419
2.9000711 1.8918841 0.37255374
2.8952341 1.9444034 0.37103158
2.8903918 1.9969735 0.369508
2.8865149 2.0390704 0.36828789
2.8816628 2.0917425 0.36676133
2.8768063 2.1444659 0.36523327
2.8729179 2.1866858 0.36400965
2.8676667 2.2449729 0.36763263
2.8633845 2.2927415 0.37156376
2.8604593 2.3244953 0.3706468
4.0169907 0.12962955 0.45759448
4.0177245 0.16883293 0.45669916
4.0187058 0.22127448 0.45550159
4.0196896 0.27392218 0.45429918
3.6809838 0.2809428 0.46029952
4.0204334 0.31353658 0.45339468
4.0209317 0.34001467 0.45279017
3.6812036 0.31697226 0.45948496
4.021431 0.36654472 0.45218441
3.6815717 0.3772369 0.45812246
4.022182 0.40644503 0.45127347
3.3981924 0.40829146 0.46257618
3.6819408 0.43775386 0.45675436
4.0231857 0.45982096 0.45005485
3.3980465 0.44162098 0.46182904
3.6822383 0.48636991 0.45565525
4.0241942 0.51340806 0.44883141
3.3978992 0.47502398 0.46108022
3.3978012 0.49734145 0.4605799
3.6825407 0.53515989 0.45455244
4.0252061 0.56720811 0.44760314
3.1567662 0.52728069 0.46428874
3.3976047 0.5420996 0.45957652
3.6828442 0.58412594 0.45344576
4.0262218 0.62122238 0.44636992
3.1562164 0.56866294 0.46336773
3.3973577 0.59823173 0.4583182
3.6830723 0.62096119 0.45261326
3.6832252 0.64557731 0.45205685
4.0272422 0.67545152 0.44513181
3.0208163 0.59853184 0.48320231
3.1555274 0.62057543 0.46221247
3.3971603 0.64331138 0.45730773
3.6834548 0.68259043 0.4512203
4.0282664 0.72989762 0.44388881
3.0161023 0.64972222 0.48175612
3.1548355 0.67267287 0.46105298
3.3969653 0.68853962 0.45629409
3.6837616 0.73209083 0.45010146
4.0290375 0.7708683 0.44295338
3.0113831 0.70096862 0.48030844
3.1542804 0.71450019 0.46012202
3.3967199 0.74529386 0.45502219
3.6840696 0.78177124 0.44897869
4.0298109 0.8119756 0.44201484
3.006659 0.75226384 0.47885939
3.1535845 0.76697147 0.4589543
3.3964753 0.80226904 0.45374534
3.6843789 0.83163261 0.44785169
4.0308452 0.86696887 0.44075933
3.0019302 0.80361569 0.47740862
3.1528876 0.8196308 0.45778254
3.3962781 0.84802693 0.45271984
3.6846893 0.88167602 0.44672063
4.0318842 0.92218333 0.43949869
2.9971967 0.85501635 0.47595653
3.1524701 0.85132319 0.45707735
3.1535821 0.8830002 0.46757069
3.2048442 0.89848626 0.47154501
3.2564642 0.90364265 0.46429136
3.3126059 0.90859181 0.46867946
3.3876822 0.90053529 0.45887229
3.4285626 0.91946524 0.46561566
3.4884198 0.92541856 0.45768711
3.5536783 0.93119836 0.46228871
3.6216257 0.9372164 0.46707985
3.6877029 0.93570513 0.45443055
3.7628019 0.95043963 0.46362677
3.8361199 0.95768416 0.45480129
3.9163558 0.96482325 0.45984498
4.0164676 0.96801138 0.45183501
4.0840054 0.98052615 0.45574442
4.1715775 0.98914158 0.4459084
3.0106499 0.88027561 0.47669193
3.0556221 0.88478768 0.47000971
3.1044323 0.88907057 0.47419807
3.151911 0.89369947 0.45613459
3.3689148 1.4721584 0.43694428
2.9428866 1.4447603 0.4592962
3.1213033 1.4709272 0.44145158
3.3683245 1.5079381 0.43611082
3.66137 1.5257092 0.43039176
2.9380925 1.4968221 0.45782539
3.1202264 1.5149548 0.44043228
3.3675358 1.5557666 0.43499669
3.6609998 1.5779688 0.42916539
2.9332931 1.5489411 0.45635316
3.119417 1.5480537 0.43966606
3.1186063 1.5812304 0.438898
3.3669419 1.5917299 0.43415901
3.3665457 1.6157544 0.43359938
3.6606278 1.6304038 0.42793509
2.9284885 1.6011105 0.45487925
3.1175215 1.6255713 0.43787149
3.3659501 1.6518652 0.43275818
3.6602547 1.6830151 0.42670062
2.9246418 1.6428859 0.45369908
3.1164343 1.6700377 0.43684205
3.3651538 1.7001369 0.43163374
3.6598799 1.7358038 0.42546192
2.9198279 1.6951561 0.4522225
3.1153438 1.7146308 0.43580976
3.3643548 1.7485576 0.43050578
3.6595986 1.7755065 0.42453036
2.9150097 1.7474766 0.45074436
3.1139762 1.7705579 0.43451503
3.3635533 1.7971277 0.42937437
2.9101861 1.7998552 0.44926473
3.1126044 1.8266709 0.43321595
3.3627496 1.8458488 0.42823949
2.9053576 1.8522844 0.44778356
3.1115026 1.8717115 0.43217328
3.361943 1.8947208 0.42710105
2.9014916 1.8942685 0.44659749
3.1103985 1.9168808 0.43112752
3.3611341 1.9437444 0.42595908
2.8966541 1.9467993 0.44511351
3.1092904 1.9621801 0.43007883
3.3603227 1.9929209 0.42481348
2.8923259 1.9994044 0.44367257
3.1079011 2.0189939 0.42876354
3.359509 2.0422506 0.42366442
2.8897254 2.0415926 0.44259337
3.1065071 2.0759983 0.42744395
3.3588974 2.0793443 0.42280033
3.3584974 2.1041253 0.42222372
2.8864713 2.0944359 0.44124171
3.1053886 2.1217556 0.4263846
3.3578963 2.1413748 0.42135707
2.8832119 2.1473875 0.43988737
3.1042695 2.167645 0.42532244
3.3570929 2.1911709 0.42019835
2.8806005 2.189836 0.4388018
3.1031582 2.2136688 0.42425814
3.3562865 2.2411232 0.419036
2.87117 2.2450972 0.43231472
2.942925 2.2506032 0.41065177
3.072727 2.266885 0.39791712
3.1023238 2.24827 0.42345801
3.3556802 2.278686 0.41816202
2.8641953 2.2941546 0.41403928
2.8612709 2.3259125 0.41313556
3.0216312 0.59973323 0.52498806
3.016917 0.65092969 0.52356315
3.0121982 0.70218253 0.52213669
3.0074742 0.75348431 0.52070892
3.0027452 0.80484229 0.51927948
2.9980114 0.85624945 0.51784885
3.0216546 0.87840295 0.53052342
3.0669749 0.88289976 0.524719
3.1114616 0.88792908 0.50756109
3.1622427 0.89235348 0.51250112
3.2148607 0.89693832 0.51761985
3.2668238 0.90208256 0.51118076
3.3206463 0.90741289 0.50447917
3.3792226 0.91254079 0.50972986
3.4400806 0.91786826 0.51518512
3.4943786 0.9246164 0.4828873
3.5003576 0.92381155 0.50817204
3.5629754 0.92998421 0.50090909
3.6312916 0.93599296 0.5065105
3.7024884 0.94225532 0.51234806
3.7732553 0.94920105 0.50468504
3.8433678 0.95685512 0.48271564
3.8506377 0.95602411 0.51073337
3.9277096 0.96357179 0.50272465
4.0121241 0.9710322 0.50900054
4.0963707 0.97926533 0.50055552
4.184504 0.98787689 0.49175206
3.0172427 0.87915373 0.50894165
3.0601528 0.88403422 0.49184266
2.9436998 1.4460669 0.50143313
2.9389055 1.4981351 0.49998406
2.9341061 1.5502605 0.49853346
2.9293015 1.6024363 0.49708119
2.9254549 1.6442173 0.49591842
2.9206405 1.6964936 0.49446347
2.9158225 1.748821 0.49300721
2.9109988 1.8012064 0.49154916
2.9061704 1.853642 0.4900898
2.9023039 1.8956313 0.4889212
2.8974662 1.948169 0.48745897
2.8926239 2.0007572 0.48599532
2.8887465 2.0428686 0.48482332
2.8838942 2.0955594 0.48335686
2.8790379 2.1483011 0.48188892
2.875149 2.1905353 0.48071352
2.8702834 2.2433796 0.47924277
2.8652096 2.2959216 0.46714774
2.8622849 2.3276842 0.46626046
3.0226505 0.60123503 0.57723379
3.0179365 0.65243983 0.57583559
3.013402 0.70105994 0.57188976
3.0082889 0.75470483 0.56256783
3.0035596 0.80606931 0.56115973
2.9988258 0.85748267 0.55975044
3.0260794 0.87764961 0.55216706
3.0738232 0.88176078 0.55772316
3.1185193 0.88678294 0.54105592
3.1695402 0.89119714 0.54660368
3.2224097 0.89577216 0.55235243
3.262552 0.90504891 0.55661535
3.3287201 0.90622938 0.54043055
3.3875906 0.91134793 0.54638207
3.4487591 0.91666645 0.55256593
3.5063536 0.92300475 0.53354168
3.5723078 0.92876619 0.5397054
3.6409938 0.93476617 0.54612434
3.6678903 0.95265162 0.54833663
3.7802486 0.94837421 0.53218925
3.8579288 0.95519167 0.53885508
3.9129705 0.96857208 0.54340458
4.1046505 0.97842193 0.53058755
4.1959119 0.98695225 0.53771055
4.2002916 1.015177 0.53746283
2.9952388 0.89896274 0.56910264
3.0957246 0.90543962 0.55990851
3.0981426 0.93578535 0.5596875
3.2654848 0.93717891 0.55637383
3.4547393 0.95014292 0.5525614
3.6722472 0.98926806 0.54804146
3.9183066 1.0078654 0.54307485
4.2068949 1.0577345 0.53708935
2.9904964 0.95047635 0.56769586
3.1005714 0.96627378 0.55946529
3.269413 0.98023212 0.55605042
3.4607155 1.0074595 0.55211604
3.6780906 1.038366 0.54764569
3.9254642 1.0605739 0.54263234
4.213532 1.1005145 0.53671396
2.9857488 1.0020399 0.56628776
3.1046431 1.017375 0.55909312
3.2743583 1.0344243 0.55564332
3.4667363 1.0652018 0.55166733
3.6824973 1.075398 0.54734707
3.6854482 1.1001976 0.54714727
3.9308655 1.1003447 0.54229856
3.934484 1.1269878 0.54207492
4.2202139 1.143575 0.53633606
2.9828978 1.0330031 0.5654422
2.9800451 1.063988 0.56459606
3.1087408 1.068814 0.55871832
3.2783384 1.0780381 0.55531561
3.2803383 1.0999542 0.55515087
3.4715893 1.1117401 0.55130577
3.6898944 1.1375666 0.54684591
3.9399378 1.1671476 0.54173791
2.9762392 1.105329 0.56346714
3.1128707 1.1206434 0.55834079
3.2833509 1.1329608 0.55490291
3.4764729 1.1585767 0.55094182
3.695858 1.187676 0.54644203
3.9472544 1.2210217 0.54128575
2.9724298 1.1467044 0.56233728
3.1161928 1.1623435 0.55803716
3.1178625 1.1832927 0.55788445
3.2884009 1.1883044 0.55448723
3.4813876 1.2057143 0.55057561
3.7018616 1.23813 0.54603529
2.968401 1.198303 0.56101871
3.1203756 1.2148366 0.55765462
3.2934873 1.2440403 0.55406845
3.4875779 1.2650806 0.55011427
3.7063909 1.2761877 0.54572856
2.9700513 1.2487211 0.56043065
3.1245887 1.2677124 0.55726957
3.297585 1.2889454 0.55373096
3.4925618 1.312881 0.54974282
2.9735396 1.2990613 0.56007421
3.1288297 1.3209436 0.55688179
3.3006742 1.3227956 0.55347657
3.3027422 1.3454545 0.55330646
2.9770503 1.3497229 0.55971563
3.1322451 1.363816 0.55656946
2.9798772 1.390512 0.55942678
2.9445133 1.4473736 0.54357982
2.9397194 1.4994483 0.54215229
2.9349196 1.5515802 0.54072309
2.930115 1.6037626 0.53929269
2.9262676 1.6455488 0.53814721
2.9214537 1.6978319 0.53671396
2.916635 1.7501657 0.53527939
2.9118111 1.8025575 0.53384316
2.9069831 1.8549998 0.5324055
2.9031165 1.8969946 0.53125441
2.898279 1.9495385 0.529814
2.8934362 2.0021336 0.52837229
2.8895586 2.0442505 0.52721763
2.8847065 2.0969477 0.52577305
2.8798497 2.1496961 0.52432716
2.8759604 2.1919355 0.52316916
2.8710945 2.2447865 0.52172041
2.8662243 2.297689 0.52027023
2.8632984 2.3294566 0.51939929
3.0236702 0.60273767 0.62949324
3.0189557 0.65394998 0.6281215
3.0138783 0.70801944 0.62218451
3.0093079 0.75623095 0.61490512
3.0045786 0.80760324 0.61352372
2.9998446 0.85902464 0.61214101
2.9960542 0.90020156 0.6110338
2.9913111 0.95172155 0.60964847
2.9865637 1.0032914 0.60826182
2.9818108 1.0549176 0.60687351
2.9770536 1.1065936 0.60548401
2.973244 1.1479739 0.60437143
2.968478 1.1997492 0.60297918
2.9637063 1.2515745 0.60158563
2.9589303 1.303457 0.6001904
2.9541495 1.3553891 0.5987941
2.9503207 1.396975 0.5976758
2.9455307 1.4490075 0.59627676
2.9407358 1.50109 0.59487629
2.935936 1.5532303 0.59347427
2.9311314 1.6054208 0.59207082
2.927284 1.6472137 0.59094715
2.9224703 1.6995051 0.58954096
2.9176514 1.751847 0.58813357
2.9128273 1.8042469 0.58672464
2.907999 1.8566976 0.58531415
2.9041321 1.8986988 0.584185
2.8992941 1.9512513 0.58277178
2.8944516 2.0038548 0.58135724
2.890574 2.0459781 0.58022451
2.8857219 2.0986836 0.57880735
2.8808649 2.1514404 0.57738876
2.8769753 2.1936867 0.5762527
2.8721094 2.2465458 0.57483137
2.8672385 2.2994566 0.57340872
2.8643134 2.3312294 0.57255435
3.0244858 0.60393983 0.67131138
3.0197713 0.65515858 0.66996098
3.0150516 0.70643359 0.66860902
3.0103271 0.75775743 0.667256
3.0055978 0.80913776 0.6659013
3.0008636 0.86056715 0.6645453
2.9970732 0.90175027 0.66345942
2.9923296 0.95327848 0.66210091
2.9878311 1.0013113 0.65733218
2.986836 1.0154905 0.67096734
2.9828296 1.0564904 0.65937948
2.9780722 1.1081744 0.65801692
2.9742622 1.1495612 0.6569258
2.9694955 1.2013447 0.65556049
2.9647243 1.2531779 0.65419376
2.9599481 1.3050685 0.65282559
2.9551668 1.3570087 0.65145624
2.9513383 1.3986013 0.65035951
2.946548 1.4506416 0.64898741
2.9417531 1.5027325 0.64761412
2.9369531 1.5548809 0.64623916
2.9321482 1.6070795 0.64486289
2.9283011 1.6488791 0.6437608
2.9234862 1.7011786 0.64238191
2.918668 1.7535288 0.64100158
2.9138439 1.8059371 0.63961983
2.9090149 1.8583958 0.63823676
2.9051483 1.9004037 0.63712919
2.9003103 1.9529645 0.6357435
2.8954678 2.0055761 0.63435626
2.8915894 2.0477061 0.63324547
2.8867369 2.1004202 0.63185561
2.88188 2.1531849 0.63046432
2.8779912 2.1954381 0.6293503
2.8731244 2.2483058 0.62795651
2.8682537 2.3012249 0.62656128
2.8653283 2.333003 0.62572324
3.0255055 0.60544318 0.72359788
3.0207911 0.65666986 0.72227407
3.0160708 0.7079525 0.72094882
3.0113468 0.7592845 0.71962249
3.0066171 0.81067246 0.71829438
3.0018826 0.86211002 0.71696508
2.9980915 0.90329951 0.71590078
2.9933486 0.95483571 0.71456873
2.9893472 0.99578559 0.70300305
2.9882278 1.011739 0.71835208
2.9838474 1.0580637 0.71190131
2.9790907 1.1097558 0.71056545
2.9752808 1.151149 0.70949566
2.9705141 1.2029405 0.7081573
2.9657428 1.254782 0.70681763
2.9609661 1.3066804 0.7054764
2.955981 1.3583047 0.69359696
2.9521532 1.3999023 0.69251752
2.9473622 1.4519494 0.69116712
2.9425673 1.5040467 0.6898154
2.9377668 1.5562017 0.68846214
2.9329622 1.6084068 0.68710756
2.9291143 1.6502116 0.68602288
2.9243002 1.7025177 0.68466568
2.9194813 1.7548745 0.68330717
2.9146578 1.8072894 0.68194711
2.9098282 1.8597548 0.68058586
2.9059622 1.901768 0.67949581
2.9011233 1.9543352 0.67813182
2.8962803 2.0069535 0.67676651
2.8924026 2.0490892 0.67567325
2.8875496 2.1018097 0.67430532
2.8826926 2.1545815 0.67293608
2.878803 2.1968398 0.67183959
2.8739364 2.2497139 0.67046762
2.8690655 2.3026402 0.66909444
2.8661401 2.3344216 0.66826975
3.026526 0.60694689 0.77589786
3.0218112 0.65818143 0.77460086
3.0170913 0.70947206 0.77330208
3.0123665 0.76081187 0.77200234
3.0076368 0.81220806 0.77070105
3.002902 0.8636533 0.76939857
2.9991114 0.90484899 0.76835561
2.9943683 0.95639318 0.7670505
2.9896202 1.007987 0.76574433
2.9848669 1.0596373 0.7644366
2.980109 1.1113373 0.76312768
2.9762993 1.1527373 0.76207948
2.9715331 1.2045369 0.76076806
2.9667609 1.2563863 0.7594552
2.9619844 1.3082926 0.75814116
2.9569995 1.3599253 0.74628651
2.953171 1.4015293 0.74522889
2.94838 1.4535844 0.74390543
2.9435852 1.5056901 0.74258077
2.9387846 1.5578532 0.74125469
2.9339797 1.6100664 0.73992729
2.9301319 1.6518776 0.73886418
2.9253175 1.7041922 0.73753428
2.9204986 1.7565572 0.73620296
2.9156742 1.80898 0.73487031
2.9108446 1.861454 0.73353624
2.9069779 1.9034739 0.73246789
2.9021399 1.9560492 0.73113132
2.8972964 2.0086761 0.72979343
2.8934183 2.050818 0.72872198
2.8885655 2.1035471 0.72738159
2.8837082 2.156327 0.72603965
2.8798192 2.1985922 0.72496521
2.8749526 2.2514751 0.72362077
2.8700807 2.304409 0.72227502
2.8671558 2.3361962 0.7214669
3.0273423 0.60814995 0.81774879
3.0226271 0.65939087 0.81647301
3.0179071 0.71068794 0.8151958
3.0131826 0.762034 0.81391728
3.0084524 0.81343639 0.81263733
3.0037181 0.86488831 0.81135631
2.9999275 0.90608925 0.81033051
2.9955223 0.95345092 0.80704916
2.9934893 0.97858334 0.81903565
2.9904356 1.0092398 0.80776215
2.9856827 1.0608964 0.80647588
2.9809246 1.1126029 0.80518842
2.9771144 1.1540079 0.8041575
2.972348 1.2058141 0.80286765
2.9675763 1.2576699 0.80157638
2.9627995 1.3095829 0.80028391
2.9580181 1.361546 0.79899001
2.9541893 1.4031568 0.79795396
2.9493983 1.45522 0.79665768
2.944603 1.5073335 0.79536009
2.9398026 1.559505 0.79406106
2.9349973 1.6117265 0.79276073
2.9311495 1.6535442 0.79171956
2.9263349 1.7058668 0.79041684
2.9215157 1.7582402 0.78911269
2.9166911 1.8106713 0.78780723
2.9118621 1.8631537 0.78650057
2.907995 1.9051797 0.78545415
2.9031568 1.9577641 0.78414476
2.898313 2.0103989 0.78283429
2.8944349 2.0525475 0.78178477
2.8895822 2.1052849 0.78047168
2.8847246 2.1580734 0.77915728
2.8808351 2.200345 0.77810478
2.8759685 2.2532363 0.77678776
2.8710968 2.3061788 0.77546966
2.8681715 2.337971 0.77467799
3.028363 0.60965455 0.87007606
3.023648 0.66090339 0.86882687
3.0189283 0.71220815 0.86757624
3.0142031 0.7635622 0.86632466
3.0094731 0.81497252 0.86507142
3.0047383 0.86643225 0.8638171
3.0009472 0.90763962 0.86281264
2.9971533 0.94888067 0.86180747
2.9943049 0.97983307 0.86105275
2.9914556 1.0108061 0.86029792
2.986702 1.0624712 0.85903871
2.9819441 1.1141856 0.85777807
2.9781342 1.1555967 0.85676861
2.9733672 1.2074113 0.8555057
2.9685948 1.2592752 0.85424173
2.9638181 1.3111961 0.85297596
2.9590366 1.3631675 0.85170937
2.9552078 1.4047844 0.85069478
2.9504173 1.4568563 0.84942555
2.9456215 1.5089779 0.84815514
2.9408209 1.5611575 0.84688342
2.9360154 1.6133871 0.84561026
2.9321671 1.6552112 0.84459078
2.9271491 1.707207 0.83273387
2.9223301 1.759587 0.83145165
2.9175055 1.8120248 0.83016813
2.9126761 1.8645136 0.82888305
2.9088089 1.9065452 0.82785428
2.90397 1.9591358 0.8265667
2.8991268 2.0117774 0.82527804
2.8952484 2.0539317 0.82424629
2.8903956 2.1066754 0.82295501
2.8855379 2.1594706 0.82166243
2.8816478 2.2017477 0.82062757
2.8767812 2.2546456 0.8193326
2.8719096 2.3075953 0.81803668
2.868984 2.3393912 0.81725812
3.0314736 0.59096813 0.93337297
3.0289662 0.61519742 0.92022538
3.0246689 0.66241598 0.9211942
3.0199487 0.71372879 0.91997039
3.0152237 0.76509082 0.91874552
3.0104935 0.81650901 0.91751909
3.0057592 0.86797696 0.91629159
3.0019674 0.90919042 0.91530848
2.9991219 0.94012195 0.91457081
2.9962745 0.97107452 0.91383255
2.9924753 1.012373 0.91284764
2.9877219 1.0640461 0.91161513
2.982964 1.1157684 0.91038156
2.9791534 1.1571863 0.90939355
2.9743862 1.2090086 0.90815759
2.9696147 1.2608807 0.90692055
2.9648378 1.3128099 0.90568209
2.9600554 1.3647892 0.90444231
2.9562268 1.4064128 0.90344942
2.951436 1.4584925 0.90220737
2.94664 1.5106225 0.90096414
2.9418392 1.5628099 0.89971936
2.9370341 1.6150479 0.89847338
2.9331853 1.6568789 0.89747572
2.9281676 1.7088828 0.8856442
2.9233472 1.761271 0.88438916
2.9185231 1.8137171 0.88313282
2.9136937 1.866214 0.8818754
2.909826 1.9082525 0.8808682
2.9049876 1.9608512 0.87960815
2.9001434 2.0135014 0.87834692
2.896265 2.0556619 0.87733686
2.8914123 2.1084142 0.876073
2.8865547 2.1612177 0.87480831
2.8826649 2.2035017 0.87379527
2.8777971 2.2564077 0.87252772
2.8729262 2.3093657 0.87125933
2.8699999 2.3411667 0.87049735
3.0322905 0.59216994 0.9752512
3.0294628 0.62291181 0.97453415
3.0256906 0.66392916 0.97357738
3.0209696 0.71524966 0.97238016
3.0162449 0.76661974 0.97118199
3.0115142 0.81804603 0.96998227
3.0067799 0.86952174 0.96878159
3.0029879 0.91074181 0.96782017
2.9997346 0.94105554 0.94608498
2.9977014 0.96619421 0.95811236
2.9932914 1.0136268 0.95489812
2.9885378 1.0653063 0.95368719
2.9837794 1.1170353 0.95247519
2.9790168 1.1688211 0.95126176
2.9742482 1.220657 0.95004737
2.9704301 1.2621654 0.94907463
2.9656527 1.3141012 0.94785774
2.960871 1.3660867 0.94663966
2.9570417 1.4077158 0.94566441
2.9522514 1.4598019 0.94444382
2.9474556 1.5119383 0.94322217
2.9426544 1.5641327 0.9419992
2.9378486 1.6163771 0.94077516
2.9340003 1.6582134 0.93979478
2.9291854 1.7105589 0.93856835
2.9243658 1.7629554 0.93734062
2.9195411 1.8154099 0.93611157
2.9147112 1.8679152 0.93488133
2.9108438 1.90996 0.93389606
2.9060051 1.9625671 0.93266344
2.9011614 2.0152254 0.93142962
2.8972826 2.0573928 0.9304415
2.8924296 2.1101534 0.92920542
2.8875716 2.1629653 0.92796791
2.8836815 2.2052557 0.92697692
2.878814 2.2581704 0.92573714
2.8739424 2.3111367 0.92449594
2.8710167 2.342943 0.92375064
3.0333123 0.59367228 1.0276104
3.0304844 0.62441891 1.0269092
3.0267117 0.66544259 1.0259739
3.0219913 0.71677142 1.0248036
3.0172658 0.76814914 1.0236319
3.0125356 0.81958354 1.0224593
3.0078011 0.87106699 1.0212855
3.0040088 0.91229355 1.0203452
2.9990609 0.96356416 1.0086581
2.9943118 1.0151947 1.0074753
2.989558 1.0668821 1.0062913
2.9847999 1.1186192 1.005106
2.9800358 1.1704128 1.0039196
2.9752681 1.2222569 1.0027323
2.9714503 1.263772 1.0017811
2.9666724 1.3157156 1.0005913
2.9618907 1.3677096 0.99940038
2.9580615 1.4093449 0.99844658
2.9532704 1.4614391 0.9972533
2.9484746 1.5135841 0.99605882
2.9436731 1.5657861 0.99486303
2.9388669 1.6180391 0.99366605
2.935019 1.6598816 0.99270761
2.9302042 1.7122357 0.99150825
2.9253845 1.7646403 0.99030793
2.9205596 1.8171029 0.98910618
2.9157295 1.8696163 0.98790312
2.911658 1.9113264 0.97632968
2.9068191 1.9639401 0.97511888
2.9019756 2.0166051 0.97390699
2.8980963 2.0587778 0.97293639
2.8932431 2.1115451 0.97172225
2.8883853 2.1643639 0.97050679
2.884495 2.2066596 0.96953344
2.8796279 2.2595806 0.96831584
2.8747556 2.3125539 0.96709681
2.87183 2.3443642 0.96636462
3.0341299 0.59487462 1.0695086
3.031302 0.62562513 1.0688205
3.027529 0.66665375 1.0679021
3.0228083 0.71798885 1.066753
3.0180829 0.769373 1.065603
3.0133529 0.82081378 1.0644516
3.0086174 0.87230361 1.0632992
3.005774 0.90322316 1.0626072
3.0038776 0.92384738 1.0621456
3.0000815 0.96512437 1.0612216
2.995333 1.0167627 1.060066
2.9905791 1.0684581 1.0589088
2.9858208 1.1202033 1.0577507
2.9810562 1.1720053 1.0565913
2.9762881 1.2238572 1.0554308
2.97247 1.2653785 1.0545014
2.9676929 1.3173306 1.0533386
2.9629107 1.3693326 1.0521747
2.9590812 1.4109745 1.0512426
2.9542899 1.4630768 1.0500766
2.9494939 1.5152299 1.0489093
2.9446924 1.5674403 1.0477407
2.9398861 1.6197011 1.0465708
2.9360375 1.6615503 1.045634
2.9312227 1.7139125 1.0444622
2.926403 1.7663255 1.0432892
2.9215775 1.8187966 1.0421149
2.9167476 1.8713183 1.0409392
2.9126763 1.9130347 1.0293854
2.9078372 1.965657 1.0282022
2.9029934 2.0183301 1.0270178
2.8991144 2.0605097 1.0260692
2.8942606 2.1132851 1.0248826
2.8894029 2.1661122 1.0236946
2.8855126 2.2084148 1.0227432
2.8806446 2.2613447 1.021553
2.875773 2.3143258 1.0203617
2.8728466 2.3461413 1.019646
3.0351522 0.59637785 1.1218952
3.0323236 0.62713295 1.121223
3.0285511 0.66816807 1.120326
3.0238297 0.71951121 1.1192037
3.0191047 0.77090341 1.1180804
3.0143743 0.82235169 1.1169559
3.009639 0.87384981 1.1158303
3.0065916 0.90446377 1.1046435
3.005475 0.92039973 1.1200718
3.0011032 0.96668464 1.1138012
2.9963539 1.0183313 1.1126723
2.9915996 1.0700347 1.1115422
2.9868414 1.1217878 1.1104109
2.9820774 1.1735978 1.1092786
2.9774184 1.2232542 1.1039723
2.9732864 1.2666644 1.0966886
2.9685092 1.3186228 1.0955476
2.9637265 1.3706315 1.0944054
2.9598973 1.4122784 1.0934906
2.9551058 1.4643874 1.0923463
2.9503098 1.516547 1.0912007
2.945508 1.568764 1.0900538
2.940702 1.6210315 1.088906
2.9368532 1.6628859 1.0879867
2.9320385 1.7152548 1.0868366
2.9272184 1.767674 1.0856854
2.9223928 1.8201518 1.0845327
2.9175627 1.8726802 1.0833791
2.9136949 1.9147437 1.0824554
2.9088554 1.9673741 1.0812993
2.904011 2.0200558 1.0801425
2.9001324 2.0622418 1.079216
2.8952787 2.1150258 1.0780566
2.8904209 2.1678612 1.0768963
2.8865304 2.2101705 1.0759672
2.8816621 2.2631087 1.0748044
2.8767903 2.3160985 1.0736408
2.8738637 2.347919 1.0729417
3.0361743 0.59788144 1.1742951
3.0333467 0.62864149 1.1736392
3.0295734 0.66968286 1.1727635
3.0248523 0.72103381 1.1716679
3.0201271 0.77243388 1.1705716
3.0153959 0.82389045 1.1694739
3.0106609 0.87539649 1.1683751
3.006341 0.92289394 1.169467
3.001704 0.9723134 1.1642027
2.9973752 1.0199003 1.1652926
2.9926214 1.0716118 1.1641892
2.9878626 1.123373 1.1630853
2.9830985 1.1751912 1.1619797
2.9780164 1.2289426 1.1545004
2.9743075 1.268272 1.1494365
2.9695292 1.3202386 1.1483225
2.9647472 1.3722556 1.1472074
2.9599593 1.4243295 1.146091
2.9551671 1.4764538 1.1449738
2.9513295 1.5181935 1.1440789
2.946528 1.5704188 1.1429592
2.9417214 1.6226947 1.1418387
2.9378729 1.6645555 1.1409411
2.9330578 1.7169325 1.1398183
2.9282372 1.7693605 1.1386944
2.9234121 1.8218462 1.1375692
2.9185815 1.874383 1.136443
2.9147139 1.9164531 1.1355412
2.9098744 1.9690919 1.1344126
2.9051423 2.0195348 1.1290761
2.9009469 2.063628 1.1217445
2.8960936 2.1164186 1.1206071
2.8912354 2.1692607 1.1194689
2.8873448 2.2115755 1.1185575
2.8824766 2.2645202 1.1174169
2.877604 2.3175168 1.1162751
2.8746779 2.3493414 1.1155895
3.0371974 0.5993855 1.226711
3.034369 0.63015014 1.2260708
3.0305958 0.67119795 1.2252166
3.0260279 0.71944666 1.2182099
3.0209444 0.77365863 1.2125753
3.0162134 0.82512158 1.2114992
3.0124264 0.86632562 1.2106376
3.0105309 0.88694197 1.2102062
3.0067375 0.92820269 1.2093434
3.0019927 0.97982126 1.2082641
2.9981928 1.0211557 1.2073996
2.993438 1.0728736 1.206318
2.9886789 1.1246412 1.2052355
2.9839156 1.1764659 1.2041516
2.9791467 1.2283406 1.2030667
2.9753277 1.2698801 1.202198
2.9705505 1.3218546 1.2011111
2.9657676 1.3738797 1.2000233
2.9609802 1.4259617 1.1989341
2.9561877 1.4780946 1.1978439
2.9523497 1.519841 1.1969709
2.9475477 1.5720744 1.1958786
2.9427416 1.6243582 1.194785
2.9388926 1.6662259 1.1939094
2.9340773 1.718611 1.1928139
2.9292567 1.7710471 1.1917176
2.9244313 1.8235412 1.1906197
2.9196012 1.8760862 1.1895208
2.9157331 1.9181628 1.1886408
2.910893 1.9708099 1.1875399
2.9057331 2.0254099 1.1800143
2.9019661 2.065361 1.174919
2.8971117 2.1181602 1.1738095
2.8922534 2.1710107 1.1726987
2.8883626 2.2133319 1.1718091
2.8834949 2.2662852 1.1706963
2.8786223 2.3192902 1.1695825
2.8756955 2.3511198 1.1689132
3.0382202 0.60089004 1.2791402
3.0353925 0.63165951 1.2785161
3.0316188 0.67271376 1.2776833
3.0265076 0.72642088 1.2687142
3.0219672 0.77519023 1.2650938
3.0172362 0.82666099 1.2640445
3.0132437 0.86756247 1.2526895
3.0121293 0.88349062 1.2681465
3.00776 0.92975825 1.2619426
3.0030146 0.98138463 1.26089
2.9992146 1.0227256 1.2600473
2.9944606 1.0744514 1.2589927
2.989701 1.1262271 1.2579371
2.9849362 1.1780601 1.2568803
2.9801676 1.2299423 1.2558227
2.9763491 1.2714887 1.2549754
2.9715712 1.3234715 1.2539159
2.966789 1.3755045 1.2528549
2.9621892 1.424907 1.2492021
2.9570041 1.4794073 1.2401512
2.953166 1.5211589 1.2392957
2.9483647 1.5733988 1.2382249
2.943558 1.6256893 1.2371534
2.9397097 1.6675622 1.2362952
2.9348934 1.7199543 1.2352219
2.9300725 1.7723968 1.2341472
2.925247 1.8248975 1.2330712
2.9204164 1.877449 1.2319945
2.9165485 1.9195313 1.231132
2.9117084 1.9721849 1.2300529
2.9068637 2.0248897 1.228973
2.9029846 2.0670948 1.2281079
2.8981307 2.1199021 1.2270259
2.8932722 2.172761 1.2259425
2.8893809 2.2150893 1.2250752
2.8845129 2.2680507 1.2239897
2.8796401 2.3210642 1.2229035
2.8767135 2.3528988 1.2222511
3.0390391 0.60209405 1.3210945
3.0362108 0.63286734 1.3204831
3.0324373 0.67392635 1.3196677
3.0277154 0.72529954 1.3186473
3.0229897 0.77672172 1.3176258
3.0182588 0.82820088 1.3166037
3.0135224 0.87972903 1.3155799
3.0087821 0.93131375 1.3145554
3.0040367 0.98294848 1.3135298
3.0002363 1.0242958 1.3127086
2.9954822 1.0760298 1.3116809
2.9907229 1.1278136 1.3106526
2.9859588 1.1796544 1.3096228
2.9811895 1.231545 1.308592
2.9773705 1.2730976 1.3077669
2.9725928 1.3250885 1.3067342
2.9678097 1.3771298 1.3057004
2.9626603 1.4320667 1.3000735
2.958025 1.4810491 1.2930491
2.9541867 1.5228069 1.2922155
2.9493847 1.5750551 1.2911721
2.9445784 1.6273539 1.2901278
2.9407289 1.6692333 1.2892915
2.9359133 1.7216334 1.2882453
2.931093 1.7740843 1.2871982
2.9262667 1.8265934 1.2861495
2.9214363 1.8791533 1.2851
2.9175682 1.921242 1.2842594
2.9127281 1.9739039 1.2832083
2.9078832 2.0266173 1.2821556
2.9040036 2.0688288 1.2813129
2.8993106 2.1184261 1.2742333
2.8940868 2.1741617 1.268549
2.8901956 2.2164953 1.2676994
2.8853276 2.2694635 1.2666361
2.8804548 2.3224838 1.265572
2.8775282 2.354322 1.2649328
3.0400627 0.60359919 1.3735511
3.0372345 0.63437706 1.372956
3.0334606 0.6754427 1.3721619
3.0287392 0.72682345 1.3711684
3.024013 0.77825403 1.3701736
3.0197639 0.82376522 1.3662865
3.0175927 0.85065579 1.3792979
3.0145454 0.8812772 1.3681816
3.0098052 0.93287021 1.3671838
3.0048549 0.98419982 1.3556527
3.0010545 1.0255523 1.3548487
2.9963002 1.0772927 1.3538426
2.9915409 1.1290829 1.3528359
2.9867764 1.1809303 1.3518277
2.982007 1.2328274 1.350819
2.978188 1.2743852 1.3500109
2.9734094 1.3263826 1.349
2.968627 1.3784301 1.3479881
2.9638388 1.4305353 1.3469751
2.9590456 1.4826908 1.3459611
2.9552081 1.5244553 1.3451488
2.9504061 1.5767119 1.344133
2.9455991 1.6290188 1.343116
2.94175 1.6709049 1.3423018
2.9369342 1.7233131 1.3412828
2.9321129 1.7757723 1.340263
2.9272866 1.8282895 1.339242
2.9224563 1.8808577 1.3382196
2.9185877 1.9229534 1.3374015
2.913748 1.9756236 1.3363774
2.9089029 2.0283451 1.3353524
2.9050231 2.0705633 1.3345315
2.8997734 2.1257682 1.325465
2.8951061 2.1759126 1.3218211
2.8912151 2.2182531 1.3209932
2.8863466 2.2712302 1.3199577
2.8814731 2.3242583 1.3189212
2.8781395 2.3553901 1.2969499
3.0410864 0.60510492 1.4260211
3.0382581 0.6358875 1.4254422
3.0344844 0.6769594 1.4246694
3.0297625 0.72834849 1.4237027
3.0250366 0.77978683 1.4227351
3.0212517 0.82097697 1.4219604
3.0184112 0.8518908 1.4213787
3.015569 0.88282591 1.4207968
3.010828 0.93442684 1.4198263
3.0058777 0.98576415 1.40832
3.0020778 1.0271233 1.4075376
2.9973223 1.0788717 1.4065585
2.9925632 1.1306698 1.4055787
2.9877985 1.1825253 1.4045978
2.9830289 1.2344308 1.4036161
2.9792101 1.275995 1.4028299
2.9744315 1.3280005 1.4018459
2.9696484 1.3800564 1.4008613
2.9648597 1.4321697 1.3998753
2.9600673 1.484333 1.3988888
2.956229 1.5261045 1.3980985
2.951616 1.5756712 1.3945094
2.9464159 1.6303511 1.385518
2.9425666 1.6722424 1.3847209
2.9377501 1.7246573 1.383724
2.9329295 1.7771232 1.382726
2.9281037 1.8296468 1.3817269
2.9232721 1.8822219 1.3807268
2.919404 1.9243226 1.3799261
2.9145634 1.9769995 1.378924
2.9097188 2.0297279 1.3779211
2.905839 2.0719514 1.3771179
2.900984 2.1247823 1.3761131
2.8961256 2.1776643 1.375107
2.8922346 2.2200115 1.3743016
2.8873658 2.2729969 1.3732935
2.8824925 2.3260338 1.372285
3.0417008 0.60600853 1.4575104
3.0388722 0.63679421 1.4569409
3.0350988 0.6778698 1.456181
3.0303767 0.72926354 1.4552306
3.0256503 0.78070658 1.4542791
3.0228121 0.81159782 1.4537077
3.0199723 0.8425101 1.4531358
3.0161831 0.88375521 1.4523729
3.0114415 0.93536091 1.4514184
3.0066965 0.98701632 1.4504632
3.0028958 1.0283804 1.4496982
2.9981406 1.0801353 1.4487407
2.9933815 1.1319401 1.4477825
2.9886162 1.1838019 1.4468235
2.9838471 1.2357137 1.4458631
2.9800279 1.2772832 1.4450943
2.9752493 1.3292952 1.4441324
2.9704666 1.3813574 1.4431694
2.965678 1.4334774 1.4422054
2.9608846 1.4856474 1.4412407
2.9570465 1.5274239 1.4404678
2.9516613 1.584759 1.4341038
2.947233 1.6316836 1.4279292
2.9433837 1.6735802 1.4271498
2.9385669 1.7260017 1.4261746
2.9337463 1.7784741 1.4251986
2.9289198 1.8310046 1.4242215
2.9240885 1.8835862 1.4232434
2.9202199 1.9256921 1.4224602
2.91538 1.9783759 1.4214802
2.9105349 2.0311108 1.4204993
2.9066551 2.0733397 1.4197137
2.9018002 2.1261773 1.418731
2.8969412 2.1790664 1.4177471
2.8930502 2.2214186 1.4169595
2.8881812 2.2744107 1.4159737
2.8833082 2.3274546 1.414987
4.110867 -0.13637388 -1.1489513
4.0484929 -0.050062776 -1.1028548
4.3149757 -0.033703715 -1.1097692
3.7622385 0.014381051 -1.0549577
3.9879582 0.033703759 -1.0581172
4.2459106 0.055785432 -1.0617281
3.7101643 0.090963647 -1.0142411
3.9291832 0.11503631 -1.0146797
4.1789923 0.1424918 -1.0151808
3.6594892 0.16548717 -0.97461879
3.8720925 0.19403929 -0.9724865
4.1141243 0.22654364 -0.97005892
2.9903696 0.40450418 -0.97013831
2.9880238 0.43483913 -0.97108245
2.9843535 0.48293376 -0.97005522
2.9804912 0.53154683 -0.97697687
2.977078 0.57640004 -0.97548807
2.9731693 0.62695712 -0.97706139
2.96926 0.67751378 -0.97863483
2.9653509 0.72807014 -0.98020828
2.9614418 0.7786262 -0.9817816
2.9575326 0.82918173 -0.98335481
2.9536235 0.87973744 -0.98492837
2.9497142 0.93029261 -0.98650169
2.9458058 0.98084736 -0.98807526
2.9418967 1.0314019 -0.98964846
2.9379878 1.0819561 -0.9912219
2.9340789 1.1325102 -0.99279511
2.9301701 1.183064 -0.99436831
2.9270432 1.2235066 -0.99562693
2.9231341 1.2740597 -0.99720037
2.9192255 1.3246124 -0.99877346
2.9153163 1.375165 -1.0003468
2.9114079 1.4257171 -1.0019201
2.9074988 1.4762688 -1.0034933
2.9035902 1.5268207 -1.0050666
2.8996813 1.5773718 -1.0066398
2.8957732 1.627923 -1.008213
2.8918648 1.6784737 -1.009786
2.8879559 1.7290239 -1.0113593
2.8840473 1.7795742 -1.0129328
2.8801382 1.8301239 -1.0145059
2.8770118 1.8705635 -1.0157645
2.8731027 1.921113 -1.0173374
2.8691945 1.9716618 -1.0189105
2.8652861 2.0222106 -1.0204839
2.8613777 2.0727587 -1.0220569
2.8574693 2.123307 -1.0236301
2.8535607 2.1738551 -1.0252035
2.8502853 2.2178884 -1.0198436
2.8468618 2.2655196 -1.0078654
3.427074 0.20896438 -0.94009554
3.6101596 0.23803312 -0.93604827
3.3839846 0.276021 -0.90458441
3.8166142 0.2708118 -0.93148458
4.0512147 0.30805948 -0.92629874
4.3201404 0.35075682 -0.92035401
3.5621223 0.30867893 -0.89848781
2.9912431 0.40577763 -0.91968644
2.9888978 0.43611944 -0.92063081
2.9849868 0.48668879 -0.92220473
2.9810774 0.53725767 -0.92377889
2.9779491 0.57771289 -0.92503774
2.9740388 0.6282813 -0.92661166
2.9701288 0.6788497 -0.9281857
2.9662189 0.72941762 -0.92975938
2.9623086 0.77998519 -0.9313333
2.9583991 0.83055264 -0.93290734
2.9544892 0.88111955 -0.93448114
2.9505794 0.93168628 -0.93605506
2.9466691 0.98225272 -0.93762898
2.9427593 1.0328188 -0.93920267
2.9388494 1.0833846 -0.94077647
2.9349399 1.1339502 -0.94235027
2.93103 1.1845154 -0.94392431
2.927902 1.2249675 -0.94518316
2.9239926 1.275532 -0.94675708
2.9200826 1.3260965 -0.94833076
2.916173 1.3766603 -0.94990456
2.9122634 1.4272244 -0.95147848
2.9083543 1.4777875 -0.95305216
2.9044442 1.5283511 -0.95462584
2.9005346 1.5789137 -0.95619953
2.896625 1.6294763 -0.95777333
2.8927152 1.6800387 -0.95934701
2.8888061 1.7306006 -0.96092069
2.8848965 1.7811623 -0.96249461
2.8809872 1.8317237 -0.96406817
2.8778596 1.8721724 -0.96532714
2.87395 1.9227333 -0.96690083
2.8700404 1.973294 -0.96847451
2.8661315 2.0238543 -0.97004819
2.862222 2.074414 -0.97162175
2.8583126 2.124974 -0.97319543
2.854403 2.1755333 -0.974769
2.8504939 2.2260923 -0.97634268
2.8465848 2.2766509 -0.97791636
3.186712 0.30915469 -0.877141
3.7626803 0.34544715 -0.89162409
3.3419476 0.34144029 -0.86994052
3.515326 0.37749887 -0.86189818
3.9901745 0.38715369 -0.8838383
4.2504239 0.43486542 -0.87493145
2.9921174 0.40705168 -0.86920989
3.7102268 0.41803378 -0.85285783
2.9897711 0.43740037 -0.87015462
2.9858603 0.48798126 -0.8717289
2.9819489 0.53856182 -0.87330329
2.9788203 0.57902622 -0.87456286
2.9749093 0.62960637 -0.87613726
2.9709983 0.68018603 -0.87771189
2.9670873 0.7307657 -0.87928617
2.9631765 0.78134495 -0.88086045
2.9592657 0.83192372 -0.88243496
2.9553552 0.8825022 -0.88400936
2.9514439 0.93308061 -0.88558364
2.9475334 0.98365861 -0.88715792
2.9436226 1.0342363 -0.88873231
2.9397118 1.0848137 -0.89030671
2.935801 1.1353908 -0.89188099
2.9318907 1.1859677 -0.89345527
2.928762 1.226429 -0.89471471
2.9248509 1.2770051 -0.89628911
2.9209406 1.3275809 -0.89786351
2.9170299 1.3781567 -0.89943767
2.9131196 1.4287322 -0.90101182
2.9092093 1.4793069 -0.90258622
2.9052985 1.5298817 -0.90416062
2.9013882 1.5804565 -0.90573466
2.8974774 1.6310303 -0.90730906
2.8935673 1.6816044 -0.90888333
2.8896563 1.732178 -0.91045737
2.8857465 1.7827511 -0.91203177
2.8818362 1.833324 -0.91360569
2.8787076 1.8737822 -0.91486526
2.8747976 1.9243548 -0.91643953
2.8708873 1.9749269 -0.91801369
2.866977 2.0254986 -0.91958773
2.8630669 2.0760701 -0.92116189
2.8591566 2.1266415 -0.92273605
2.8552461 2.1772122 -0.92431033
2.8513362 2.227783 -0.92588449
2.8474259 2.2783532 -0.92745864
3.1495874 0.37006259 -0.84499955
2.9928169 0.40807122 -0.82881355
3.3009253 0.40528053 -0.83613265
3.4697251 0.44456226 -0.82624245
3.9309211 0.46393314 -0.84262061
2.9906452 0.43868172 -0.81965637
3.1133022 0.42959231 -0.81358516
3.26088 0.46759927 -0.80313051
3.6591938 0.48865429 -0.81514132
4.1828923 0.51633757 -0.83093274
2.9867332 0.48927444 -0.82123148
2.9828212 0.53986657 -0.82280636
2.9796922 0.58034009 -0.8240664
2.9757802 0.63093197 -0.82564127
2.9718683 0.68152314 -0.82721615
2.9679568 0.73211426 -0.82879102
2.9640446 0.78270507 -0.83036602
2.9601331 0.83329546 -0.83194101
2.9562211 0.8838858 -0.83351576
2.9523094 0.9344756 -0.83509064
2.9483979 0.98506522 -0.83666563
2.9444861 1.0356543 -0.83824039
2.9405746 1.0862436 -0.83981538
2.9366629 1.1368321 -0.84139013
2.9327517 1.1874205 -0.84296489
2.9296222 1.227891 -0.84422493
2.9257107 1.2784789 -0.84579957
2.9217992 1.3290663 -0.84737432
2.9178877 1.3796537 -0.84894919
2.9139762 1.4302406 -0.85052395
2.9100647 1.4808271 -0.85209882
2.9061537 1.5314136 -0.85367358
2.9022419 1.5819995 -0.85524833
2.8983309 1.6325853 -0.85682309
2.8944197 1.6831708 -0.85839784
2.8905082 1.7337558 -0.8599726
2.8865967 1.7843406 -0.86154735
2.8826854 1.8349252 -0.86312211
2.8795567 1.8753924 -0.86438191
2.8756456 1.9259768 -0.86595666
2.8717341 1.9765604 -0.86753142
2.8678231 2.0271437 -0.86910594
2.8639116 2.0777268 -0.87068069
2.8600008 2.1283097 -0.87225533
2.8560894 2.1788921 -0.87382996
2.8521788 2.2294743 -0.8754046
2.8482673 2.280056 -0.87697923
2.9869537 0.49524036 -0.7860266
3.0778284 0.48779064 -0.78287315
3.2225368 0.52812022 -0.77114451
3.425272 0.50993621 -0.79148495
3.6095243 0.55738807 -0.77843249
3.8733766 0.53849733 -0.80259204
4.1174455 0.59529549 -0.78829181
2.9835198 0.54091072 -0.78239155
3.0284083 0.54079974 -0.76809752
3.0891905 0.54397917 -0.76913631
3.1527679 0.54731333 -0.7702229
3.2177417 0.56213307 -0.77146864
3.2891209 0.5544554 -0.77255309
3.3606369 0.57018173 -0.77391732
3.4392915 0.56232059 -0.77511966
3.5183852 0.57906651 -0.77662075
3.6035709 0.58386827 -0.77808058
3.6934276 0.58892554 -0.77962041
3.7862659 0.60782337 -0.78137326
3.8887737 0.59992808 -0.78296793
3.9929256 0.62027943 -0.78492439
4.1057944 0.62708712 -0.78686416
4.2258325 0.63431716 -0.78892672
2.9803894 0.58139157 -0.78365183
3.0211773 0.59368503 -0.76860535
3.0817232 0.59805691 -0.76965427
3.1465933 0.59157372 -0.77064562
3.211359 0.60740864 -0.77189994
3.2825096 0.60084045 -0.77299392
3.3537896 0.61768281 -0.77436745
3.4321847 0.61104518 -0.77557993
3.5110083 0.62902379 -0.77709115
3.5978179 0.62233782 -0.77844179
3.6854439 0.64160669 -0.78011322
3.7800262 0.64843369 -0.78175175
3.8800876 0.65564758 -0.78348517
3.9861178 0.66330063 -0.78532219
4.0986681 0.67141479 -0.78727198
4.2183576 0.68005377 -0.78934562
2.9816258 0.63556451 -0.78293943
3.015403 0.63591468 -0.7690109
3.0757623 0.64122331 -0.77006769
3.1388938 0.64677358 -0.77117312
3.2049887 0.65259367 -0.7723304
3.274266 0.65868413 -0.7735436
3.3469567 0.66508484 -0.77481651
3.4250929 0.65966523 -0.77603936
3.5036483 0.67887151 -0.77756059
3.5901618 0.67353415 -0.7789222
3.6774793 0.69416606 -0.78060484
3.7737982 0.68896317 -0.78212941
3.8714235 0.71123022 -0.78400111
3.9793241 0.70623124 -0.78571892
4.0891871 0.73039007 -0.78781474
4.2084155 0.74088573 -0.78990257
4.2133827 0.71049011 -0.78962421
2.9844434 0.68458903 -0.78104043
3.0683289 0.69506139 -0.77058351
3.1312113 0.70184797 -0.77169943
3.1986318 0.69768888 -0.77276015
3.2660415 0.71639025 -0.77409196
3.3401382 0.7123878 -0.77526486
3.4162507 0.72028852 -0.77661192
3.4963048 0.72860944 -0.77802896
3.5825226 0.72461498 -0.77940166
3.6695328 0.74660337 -0.78109539
3.7655122 0.74289525 -0.78263211
3.8649385 0.75283223 -0.78438735
3.9702849 0.7633518 -0.78624701
4.0820928 0.77452588 -0.78822076
4.2009773 0.7863974 -0.79031944
2.9794402 0.73583686 -0.78225887
3.0609112 0.74878037 -0.77109802
3.1250792 0.74580765 -0.77211952
3.1907043 0.75392687 -0.77329636
3.2594776 0.76244539 -0.7745297
3.3333337 0.75959224 -0.77571225
3.4074304 0.78076077 -0.77718329
3.4889765 0.77823842 -0.7784965
3.5749011 0.775581 -0.77988017
3.6616049 0.79891956 -0.78158462
3.7572451 0.79669917 -0.78313351
3.8584666 0.79434896 -0.78477263
3.9612682 0.82032841 -0.78677344
4.0750122 0.81856614 -0.78862607
4.1935525 0.83182776 -0.7907356
2.974443 0.78704607 -0.78347707
3.0549903 0.79166031 -0.77150893
3.1174319 0.80063319 -0.77264345
3.1827948 0.81003481 -0.77383125
3.252928 0.80840683 -0.77496684
3.3265443 0.80669802 -0.77615869
3.3986349 0.8410691 -0.77775335
3.4021502 0.8169663 -0.77752542
3.4816649 0.82775879 -0.77896285
3.5672967 0.82643217 -0.78035748
3.6536951 0.85111481 -0.78207278
3.7489979 0.85037518 -0.78363371
3.8477058 0.86338639 -0.78541362
3.8520057 0.83579856 -0.78515732
3.9545205 0.86297107 -0.78716779
4.0655928 0.87715924 -0.78916514
4.1861444 0.87715679 -0.79115069
2.9676518 0.83464587 -0.78637803
3.0461302 0.85582846 -0.77212369
3.0505569 0.82376975 -0.77181649
3.1098013 0.8553347 -0.77316618
3.1764824 0.85481727 -0.77425814
3.2463913 0.85427511 -0.77540278
3.3197687 0.85370576 -0.77660429
3.3933697 0.87717199 -0.77809453
3.4743695 0.87717062 -0.77942824
3.5597095 0.87716913 -0.7808336
3.647774 0.89018595 -0.78243828
3.7407703 0.90392375 -0.78413272
3.8412657 0.90470088 -0.78579712
3.9455435 0.91969699 -0.78769207
3.9500291 0.89135188 -0.78743017
4.0585432 0.92100906 -0.78956878
4.1762881 0.93746096 -0.79170287
2.9672322 0.88611287 -0.78381395
3.0402372 0.89850616 -0.77253258
3.1037114 0.89899701 -0.77358341
3.1701818 0.89951122 -0.77468407
3.2398674 0.90005022 -0.77583802
3.3113196 0.91232312 -0.77716005
3.3863616 0.92522329 -0.77854872
3.4670911 0.92647409 -0.77989292
3.5521393 0.92779189 -0.78130901
3.6418645 0.92918193 -0.78280306
3.7346117 0.94400591 -0.7845062
3.8326957 0.95967472 -0.78630733
3.9388263 0.96214348 -0.78808439
4.0515094 0.96476465 -0.78997135
4.1689134 0.98258829 -0.79211617
2.9582183 0.93661803 -0.78899121
3.0343556 0.94110298 -0.77294064
3.0976324 0.94257522 -0.77399993
3.1638942 0.94411683 -0.77510929
3.2317324 0.95713401 -0.77638066
3.3028915 0.97079849 -0.77771449
3.3793688 0.97317255 -0.77900183
3.4598269 0.97567016 -0.78035629
3.5445867 0.97830129 -0.78178334
3.6340005 0.9810769 -0.78328848
3.7284651 0.98400915 -0.78487909
3.8262815 1.0008216 -0.78668928
3.9298894 1.0186205 -0.78860652
4.0421505 1.0229793 -0.79050696
4.1615543 1.0276153 -0.79252851
4.2862287 1.0480425 -0.79482388
2.9554532 0.98455316 -0.78827858
3.027019 0.994232 -0.77344942
3.0900509 0.996925 -0.77451932
3.1560531 0.99974501 -0.77563965
3.2236168 1.0140827 -0.77692223
3.2961652 1.0174658 -0.77815688
3.3723907 1.0210199 -0.77945411
3.4525797 1.0247588 -0.78081894
3.5370507 1.0286973 -0.7822566
3.6261554 1.0328522 -0.78377318
3.7202859 1.0372412 -0.78537524
3.819881 1.0418849 -0.78707039
3.9232004 1.0608897 -0.78899717
4.0351467 1.0665463 -0.79090798
4.1517644 1.0875181 -0.79307711
4.2785177 1.0944173 -0.79524648
2.9504812 1.0355743 -0.78949475
3.0196993 1.0472441 -0.77395737
3.0809758 1.0619843 -0.775141
3.083998 1.040321 -0.77493405
3.1482289 1.0552452 -0.77616858
3.2171392 1.0595345 -0.77735424
3.2894528 1.0640361 -0.77859831
3.3654265 1.0687656 -0.77990544
3.445348 1.0737405 -0.78128028
3.529532 1.0789812 -0.78272879
3.6183283 1.0845085 -0.78425646
3.7121274 1.0903474 -0.78587031
3.8113637 1.0965247 -0.78757763
3.9165251 1.1030707 -0.78938711
4.0281582 1.1100194 -0.79130805
4.1444378 1.1323454 -0.79348755
4.2708206 1.1407068 -0.79566813
2.945514 1.0865579 -0.79071069
3.0138562 1.0895605 -0.77436268
3.0764492 1.0944374 -0.77545118
3.1419847 1.0995431 -0.77659094
3.2106752 1.1048946 -0.77778554
3.2827544 1.1105103 -0.77903891
3.3584785 1.11641 -0.78035581
3.4381328 1.1226157 -0.78174102
3.5220301 1.1291521 -0.78320003
3.6105189 1.1360463 -0.7847389
3.7039876 1.1433284 -0.7863642
3.8028672 1.1510322 -0.78808379
3.9076438 1.1591952 -0.78990591
4.0188603 1.1678596 -0.79184031
4.1371279 1.1770735 -0.79389727
4.2631407 1.1868905 -0.79608893
2.9405529 1.1374989 -0.79192591
3.0065687 1.1423402 -0.77486837
3.0689187 1.1484215 -0.77596712
3.1357524 1.1437538 -0.77701223
3.2042236 1.1501632 -0.77821589
3.2744 1.1684711 -0.77958834
3.2777386 1.1453059 -0.77936888
3.3515449 1.1639533 -0.78080523
3.4309323 1.1713846 -0.78220046
3.514545 1.1792116 -0.78367019
3.6027274 1.1874659 -0.78522003
3.6958673 1.1961844 -0.78685701
3.7943926 1.2054069 -0.78858888
3.8987854 1.215179 -0.79042363
4.0095859 1.2255505 -0.79237115
4.1274028 1.2365787 -0.79444218
4.255475 1.2329897 -0.79650891
2.9355969 1.1884029 -0.79314113
2.9992969 1.1950043 -0.77537286
3.0614054 1.2022848 -0.77648199
3.12798 1.1988906 -0.77753794
3.1961784 1.2066159 -0.77875245
3.2693985 1.2031708 -0.77991736
3.3446259 1.2113965 -0.78125358
3.423748 1.2200478 -0.78265893
3.5070763 1.2291589 -0.78413916
3.5949545 1.2387679 -0.78570008
3.6877658 1.2489159 -0.78734875
3.7859378 1.2596502 -0.78909254
3.8921554 1.2570794 -0.79081106
4.0026455 1.2687259 -0.7927686
4.1201253 1.2811089 -0.79485011
4.2478271 1.2789836 -0.79692805
2.9314129 1.2335064 -0.79138279
2.9934919 1.2370429 -0.77577567
3.0554085 1.2452788 -0.77689278
3.1202257 1.2539008 -0.77806234
3.1881526 1.2629361 -0.77928805
3.2610795 1.2608845 -0.78046453
3.3377209 1.2587388 -0.78170109
3.414789 1.2807314 -0.78323078
3.4183691 1.2564789 -0.78300214
3.4996243 1.2789953 -0.78460729
3.5871987 1.2899523 -0.78617918
3.6796837 1.3015234 -0.78783917
3.7796102 1.3002508 -0.7894696
3.8855391 1.298893 -0.79119778
3.9957204 1.3118088 -0.79316521
4.112864 1.3255405 -0.79525709
4.2376533 1.3401687 -0.79748535
2.9263763 1.2824006 -0.79790628
2.9862523 1.2894766 -0.7762779
3.0494225 1.2881906 -0.77730286
3.1124904 1.3087742 -0.77858543
3.1155818 1.2868419 -0.77837634
3.1817462 1.3078866 -0.7797153
3.2527809 1.3184597 -0.78101027
3.3308311 1.3059814 -0.78214765
3.4094255 1.3170574 -0.78357303
3.4921889 1.328721 -0.78507411
3.5794606 1.3410199 -0.78665698
3.6716199 1.3540075 -0.78832853
3.7732942 1.3407691 -0.78984582
3.8767357 1.3545287 -0.79171228
3.9865065 1.3691299 -0.79369283
4.1032043 1.3846526 -0.79579854
4.2300406 1.3859532 -0.79790258
2.9226577 1.3305526 -0.79686069
2.9790277 1.3417959 -0.77677906
3.0419576 1.3417103 -0.77781439
3.1078591 1.3416293 -0.7788986
3.1753533 1.3527465 -0.78014171
3.2461579 1.3644092 -0.78144598
3.3222404 1.3648894 -0.78270459
3.402288 1.3654046 -0.78402865
3.4847698 1.3783362 -0.7855401
3.5717406 1.3919706 -0.78713393
3.6655846 1.3932936 -0.78869498
3.7648911 1.3946855 -0.79034662
3.8679545 1.4100261 -0.7922256
3.9773159 1.4263039 -0.79421926
4.0959754 1.4288886 -0.79620397
4.2224455 1.4316332 -0.79831898
2.9187455 1.3811512 -0.79843605
