# .PCD v0.7 - Point Cloud Data file format
VERSION 0.7
FIELDS x y z
SIZE 4 4 4
TYPE F F F
COUNT 1 1 1
WIDTH 1515
HEIGHT 1
VIEWPOINT 0 0 0 1 0 0 0
POINTS 1515
DATA ascii
4.1308122 -0.7300669 0.66440558
3.1182265 -0.71251643 0.68073827
3.2000041 -0.72224569 0.67838997
3.2902133 -0.70995414 0.67687374
3.3870413 -0.70885783 0.67539543
3.4902487 -0.70768458 0.6738196
3.5995154 -0.69364446 0.67199337
3.7185037 -0.70509481 0.67033476
3.8440709 -0.68993407 0.668248
3.9791298 -0.67362714 0.66600364
4.127203 -0.68563837 0.66391188
3.1156774 -0.66880167 0.68038613
3.1959424 -0.66597831 0.67775714
3.2868223 -0.66355354 0.67635244
3.3826118 -0.64901322 0.67472404
3.4865384 -0.65822923 0.67326546
3.5956254 -0.64251846 0.67142135
3.7144144 -0.65215421 0.66974324
3.8397655 -0.6350745 0.66763616
3.9757221 -0.63092721 0.66552836
4.1223955 -0.62645692 0.6632542
3.1131289 -0.62510657 0.6800341
3.1918848 -0.60976839 0.67712492
3.2834346 -0.61719459 0.67583156
3.379072 -0.60118973 0.67418724
3.4828315 -0.60882139 0.67271179
3.591738 -0.5914433 0.67084986
3.7103291 -0.59926814 0.66915244
3.8354652 -0.58027339 0.66702491
3.9723175 -0.58826655 0.66505325
4.1175938 -0.56734365 0.66259742
3.1099453 -0.57051641 0.67959446
3.1886411 -0.56484634 0.67661953
3.2800503 -0.57087761 0.67531115
3.3755352 -0.55341041 0.67365122
3.4791288 -0.55946094 0.67215878
3.5878556 -0.5404188 0.67027891
3.7062485 -0.54643631 0.66856217
3.8322432 -0.53920913 0.66656703
3.967783 -0.53143811 0.66442072
4.1139984 -0.5230512 0.66210568
3.1067634 -0.51595521 0.67915493
3.185401 -0.51996338 0.6761148
3.2758236 -0.51304203 0.67466152
3.3720021 -0.50567561 0.67311567
3.4754291 -0.51014793 0.67160618
3.5839767 -0.48944497 0.66970861
3.7021718 -0.49365878 0.66797256
3.8290231 -0.49818122 0.66610938
3.9632573 -0.47467262 0.66378951
4.1104126 -0.47880131 0.66161549
3.1042194 -0.47232914 0.67880338
3.182164 -0.47511971 0.67561036
3.2716019 -0.45526725 0.6740123
3.3684721 -0.45798504 0.67258042
3.4717336 -0.46088225 0.67105412
3.5801017 -0.43852168 0.66913885
3.6980999 -0.44093543 0.66738367
3.8247378 -0.44352603 0.66550058
3.9598715 -0.43213779 0.66331756
4.1056366 -0.41985756 0.66096282
3.1010401 -0.41782528 0.67836434
3.1781211 -0.41912222 0.67498052
3.2682273 -0.40909588 0.67349362
3.3649452 -0.41033882 0.67204589
3.4680407 -0.41166365 0.6705026
3.5762339 -0.38764888 0.66857028
3.6940401 -0.38826621 0.6667968
3.8204637 -0.38892889 0.66489369
3.9564891 -0.38964182 0.66284597
4.1020589 -0.37569183 0.66047359
3.0978637 -0.36335015 0.67792553
3.1740828 -0.36318159 0.67435127
3.2648563 -0.36296606 0.67297542
3.3614225 -0.36273676 0.67151177
3.4643543 -0.36249238 0.66995221
3.5733397 -0.34952575 0.66814512
3.6899855 -0.33565086 0.66621095
3.8161948 -0.33438939 0.66428751
3.9519832 -0.33303231 0.66221792
4.0984836 -0.33156806 0.65998495
3.0953233 -0.31979281 0.67757475
3.1708553 -0.31847465 0.67384845
3.2614911 -0.31687766 0.67245817
3.3579085 -0.31517881 0.67097956
3.4606774 -0.31336796 0.66940367
3.5704486 -0.31143379 0.66772032
3.6869471 -0.29622281 0.66577196
3.812995 -0.29352093 0.66383314
3.9486065 -0.29061395 0.66174716
4.0949111 -0.28747785 0.65949661
3.0924034 -0.27636695 0.65541023
3.0895214 -0.22505003 0.66123307
3.0862515 -0.16755447 0.66544676
3.0837162 -0.12408614 0.66509908
3.0805492 -0.069779247 0.66466486
3.0773838 -0.015500903 0.66423053
3.0748522 0.027899027 0.66388327
3.0716906 0.082120344 0.66344965
3.0685303 0.13631333 0.66301614
3.0660031 0.17964487 0.66266942
3.0634773 0.22295707 0.66232306
3.0603216 0.27706882 0.66189009
3.0571675 0.3311522 0.66145742
3.0546458 0.37439626 0.66111153
3.0514951 0.42842287 0.6606794
3.0483458 0.4824214 0.66024739
3.0458279 0.52559757 0.6599021
3.0426817 0.5795393 0.6594705
3.0395377 0.63345289 0.65903932
3.0370238 0.67656124 0.65869439
3.0338826 0.73041844 0.65826362
3.0307434 0.7842477 0.6578331
3.0282335 0.82728839 0.65748882
3.0250978 0.88106108 0.6570586
3.0219634 0.93480575 0.65662867
3.0194571 0.97777915 0.65628493
3.0169523 1.0207331 0.65594119
3.0138226 1.0743976 0.65551209
3.0106945 1.1280341 0.655083
3.0081933 1.170921 0.65473992
3.0050685 1.2245016 0.65431136
3.0019455 1.2780542 0.65388298
2.9994483 1.3208737 0.65354037
2.9963281 1.3743706 0.65311241
2.9932106 1.4278394 0.65268475
2.9907169 1.4705926 0.65234274
3.1917591 -1.9666834 0.71284932
3.1891761 -1.922399 0.71248764
3.1861434 -1.8670413 0.72303379
3.1829183 -1.8117435 0.72257894
3.1803396 -1.7675288 0.72221529
3.177762 -1.7233341 0.72185177
3.1745417 -1.6681198 0.72139758
3.1713231 -1.6129351 0.72094375
3.1687498 -1.5688107 0.72058082
3.1661777 -1.524706 0.720218
3.1629641 -1.4696051 0.71976483
3.1597521 -1.4145328 0.71931183
3.1571836 -1.3704983 0.71894956
3.1542704 -1.3198758 0.72072661
3.1511149 -1.2671047 0.71590596
3.1482043 -1.2165347 0.71768326
3.1456418 -1.1725899 0.71732187
3.1424394 -1.1176878 0.71687025
3.1392393 -1.0628148 0.71641898
3.1366804 -1.0189397 0.71605802
3.1341228 -0.97508442 0.71569729
3.1309271 -0.92029417 0.71524656
3.1277337 -0.86553276 0.71479619
3.1251795 -0.82174683 0.71443605
3.1219897 -0.76704323 0.71398622
3.1188009 -0.71236849 0.7135365
3.116251 -0.6686517 0.71317691
3.1137021 -0.6249547 0.71281749
3.1105182 -0.57036227 0.71236843
3.107336 -0.51579845 0.71191961
3.1047916 -0.47217041 0.7115609
3.1016128 -0.41766399 0.7111125
3.0984354 -0.36318642 0.71066445
3.0958953 -0.31962717 0.71030617
3.0933561 -0.27608758 0.70994806
3.0901833 -0.22169179 0.70950061
3.0870128 -0.16732448 0.70905346
3.0844772 -0.12385359 0.70869589
3.0813096 -0.069543421 0.70824915
3.0781438 -0.015261829 0.70780259
3.0756125 0.028140664 0.70744562
3.0724497 0.082365289 0.7069996
3.069289 0.13656147 0.70655394
3.0661299 0.19072671 0.70610839
3.0673935 0.16906452 0.70628661
3.0642354 0.22321032 0.70584118
3.0610795 0.2773253 0.70539612
3.057925 0.33141202 0.70495123
3.0554025 0.37465852 0.70459545
3.0522518 0.42868847 0.70415109
3.0491018 0.48269016 0.70370692
3.0465837 0.52586889 0.70335174
3.0434372 0.57981384 0.70290798
3.040293 0.63373077 0.70246458
3.0377786 0.67684156 0.70210999
3.0346367 0.73070204 0.70166695
3.0314977 0.78453422 0.70122421
3.0289872 0.82757747 0.70087016
3.025851 0.8813535 0.70042777
3.0227163 0.93510145 0.69998562
3.0202096 0.97807747 0.69963223
3.0177045 1.021034 0.69927889
3.0145748 1.0747015 0.69883746
3.0114458 1.1283414 0.69839627
3.0089445 1.1712308 0.69804347
3.0058196 1.2248144 0.69760275
3.0026958 1.2783701 0.69716227
3.0001984 1.3211924 0.69681007
2.9970779 1.3746923 0.69636995
2.9939594 1.4281644 0.69593018
2.9914656 1.4709198 0.69557846
3.1927276 -1.9665322 0.76787245
3.1901445 -1.9222443 0.76749825
3.1869175 -1.866914 0.76703072
3.183692 -1.8116126 0.7665633
3.1811125 -1.7673953 0.76618963
3.178535 -1.7231979 0.76581609
3.1753142 -1.6679807 0.76534945
3.1720955 -1.6127926 0.7648831
3.1695216 -1.5686655 0.76451015
3.1669493 -1.5245583 0.76413733
3.1637352 -1.4694537 0.7636717
3.1605229 -1.4143779 0.76320618
3.1579542 -1.3703411 0.76283407
3.1547453 -1.3153236 0.76236904
3.1515381 -1.2603352 0.76190436
3.1489735 -1.2163678 0.76153284
3.14641 -1.1724205 0.76116145
3.143208 -1.1175154 0.76069742
3.1400075 -1.062639 0.76023364
3.1374478 -1.0187609 0.7598629
3.1348903 -0.97490311 0.75949216
3.1316936 -0.92010963 0.75902909
3.1285 -0.86534476 0.75856626
3.1259458 -0.82155633 0.75819623
3.1227551 -0.7668494 0.757734
3.1195657 -0.71217138 0.75727189
3.1170158 -0.66845191 0.75690234
3.1144671 -0.62475222 0.75653309
3.1112826 -0.5701564 0.75607163
3.1081002 -0.51558942 0.75561059
3.1055553 -0.4719587 0.75524187
3.1023755 -0.41744912 0.75478107
3.0991983 -0.36296821 0.75432074
3.0966573 -0.31940627 0.75395256
3.0941184 -0.27586418 0.75358462
3.090945 -0.22146505 0.75312489
3.0877738 -0.16709456 0.75266534
3.085238 -0.12362099 0.75229794
3.0820706 -0.069307595 0.75183904
3.0789039 -0.015022695 0.75138021
3.0763721 0.028382301 0.75101334
3.0732093 0.08261016 0.75055504
3.0700481 0.13680959 0.75009704
3.0668886 0.19097811 0.74963921
3.0681517 0.16931467 0.7498222
3.0649939 0.22346365 0.74936473
3.0618377 0.27758199 0.74890727
3.0586827 0.33167174 0.74845022
3.0561478 0.37712234 0.75459015
3.0531979 0.4290204 0.75849837
3.0500476 0.48302621 0.75803894
3.0475287 0.5262081 0.75767159
3.0443828 0.58015704 0.75721264
3.0412371 0.63407803 0.7567538
3.0387225 0.67719215 0.75638705
3.0355806 0.73105639 0.75592887
3.0324404 0.78489292 0.75547075
3.0299294 0.82793933 0.75510454
3.0269029 0.87901276 0.75195897
3.0239799 0.93088555 0.75732708
3.0211506 0.97845036 0.753824
3.0186448 1.02141 0.75345856
3.0155141 1.0750816 0.75300193
3.0123854 1.1287251 0.75254548
3.0098832 1.1716177 0.75218064
3.006758 1.2252052 0.75172466
3.003634 1.278765 0.75126904
3.0011361 1.3215908 0.75090474
2.9980149 1.3750942 0.75044954
2.9948962 1.4285699 0.74999452
2.9924021 1.471329 0.74963075
3.1935024 -1.9664109 0.81189752
3.1909194 -1.9221203 0.81151295
3.1876915 -1.8667867 0.81103289
3.1844656 -1.8114824 0.81055307
3.1818862 -1.7672625 0.81016934
3.1793082 -1.7230623 0.80978584
3.1760871 -1.6678414 0.80930662
3.1728671 -1.6126499 0.80882776
3.1702933 -1.5685201 0.80844486
3.1677203 -1.5244102 0.80806208
3.1645062 -1.4693022 0.80758393
3.1612933 -1.4142233 0.80710602
3.1587248 -1.3701833 0.80672383
3.1555154 -1.3151628 0.8062464
3.1523077 -1.2601712 0.80576932
3.1497428 -1.2162009 0.80538774
3.1471798 -1.172251 0.80500638
3.1439764 -1.1173422 0.80452991
3.140775 -1.0624628 0.80405366
3.1382029 -1.016362 0.81022584
3.1358492 -0.97467637 0.81424367
3.132653 -0.9198786 0.81376493
3.1294582 -0.86510968 0.81328678
3.1269035 -0.82131791 0.81290436
3.1237123 -0.76660693 0.81242633
3.1205227 -0.71192473 0.8119489
3.1179726 -0.66820204 0.81156707
3.115423 -0.62449914 0.81118536
3.1122382 -0.56989914 0.8107084
3.1090548 -0.51532799 0.81023192
3.1065102 -0.47169405 0.80985081
3.1033299 -0.41718036 0.80937469
3.1001523 -0.36269534 0.80889893
3.0976102 -0.31913024 0.80851853
3.0950711 -0.27558476 0.80813813
3.091897 -0.22118163 0.80766296
3.0887253 -0.166807 0.80718803
3.0861897 -0.12333018 0.80680835
3.0830212 -0.069012761 0.80633414
3.0798542 -0.014723808 0.8058598
3.077322 0.028684497 0.80548072
3.0741584 0.082916394 0.80500698
3.0709968 0.13711987 0.80453372
3.0684686 0.18045987 0.80415523
3.0659418 0.22378042 0.80377686
3.0627849 0.27790272 0.8033042
3.0596294 0.3319965 0.80283165
3.0573084 0.37311316 0.8068223
3.0541437 0.42935264 0.81285346
3.050993 0.48336232 0.81237864
3.0484746 0.52654737 0.8119992
3.0453267 0.58050042 0.81152487
3.042181 0.6344254 0.81105089
3.0396664 0.67754269 0.81067181
3.0365238 0.73141116 0.81019831
3.0333831 0.7852515 0.80972505
3.0308716 0.82830113 0.80934668
3.0283623 0.87133151 0.80896842
3.0252261 0.92509133 0.80849576
3.0220914 0.97882313 0.80802345
3.0195851 1.021786 0.80764592
3.016454 1.0754616 0.80717397
3.0133252 1.1291093 0.80670261
3.0108228 1.1720047 0.80632532
3.0076966 1.2255964 0.80585444
3.0045722 1.27916 0.80538344
3.002074 1.3219887 0.8050071
2.9989526 1.3754965 0.80453658
2.9958327 1.4289764 0.80406654
2.9933386 1.4717379 0.80369055
3.1944718 -1.9662592 0.86693633
3.1918876 -1.9219656 0.8665396
3.1886597 -1.8666277 0.86604381
3.1854329 -1.8113189 0.86554813
3.1828532 -1.7670956 0.865152
3.180274 -1.722892 0.86475587
3.177053 -1.667667 0.86426127
3.1738329 -1.6124716 0.86376643
3.1712587 -1.5683382 0.86337125
3.1686852 -1.5242251 0.86297596
3.1654706 -1.469113 0.86248219
3.162257 -1.4140297 0.86198854
3.159688 -1.3699867 0.86159408
3.1564777 -1.3149618 0.86110103
3.1532698 -1.2599659 0.86060822
3.1507049 -1.2159927 0.86021435
3.1481407 -1.1720393 0.8598206
3.1449373 -1.1171263 0.85932839
3.1417356 -1.0622426 0.85883677
3.1393805 -1.0205346 0.86284494
3.1368084 -0.97444963 0.86900294
3.1336114 -0.91964781 0.86850882
3.1304169 -0.8648746 0.86801493
3.127862 -0.82107961 0.86762011
3.1246696 -0.76636446 0.86712682
3.1214797 -0.71167815 0.86663377
3.1189289 -0.66795206 0.86623943
3.1163795 -0.62424588 0.86584556
3.1131942 -0.56964183 0.86535311
3.1100101 -0.51506662 0.86486101
3.1074646 -0.47142941 0.86446786
3.1042838 -0.41691154 0.86397624
3.1011055 -0.36242247 0.86348498
3.0985637 -0.31885409 0.86309206
3.0960238 -0.27530539 0.86269939
3.0928493 -0.22089815 0.86220884
3.0896773 -0.16651943 0.86171865
3.0871408 -0.12303942 0.86132658
3.083972 -0.068717808 0.86083674
3.0808046 -0.014424831 0.86034727
3.0782723 0.028986752 0.85995591
3.0751076 0.083222672 0.85946691
3.0719459 0.13743019 0.85897803
3.0694177 0.18077344 0.85858727
3.0662584 0.23492564 0.85809898
3.0675218 0.21326865 0.85829437
3.0637324 0.27822348 0.85770881
3.0605764 0.33232141 0.85722101
3.0580533 0.37557718 0.85683084
3.0549009 0.42961818 0.85634351
3.0517497 0.48363107 0.85585678
3.0492306 0.52681881 0.85546732
3.046083 0.58077502 0.85498071
3.0429368 0.63470322 0.85449457
3.0404212 0.67782313 0.85410583
3.0372787 0.73169464 0.85362029
3.0341372 0.78553808 0.85313463
3.0316257 0.82859027 0.85274637
3.0291154 0.87162328 0.85235858
3.025979 0.92538637 0.85187364
3.0228443 0.97912115 0.85138917
3.0203378 1.0220869 0.85100198
3.0172067 1.0757657 0.85051799
3.0140769 1.1294165 0.85003412
3.011574 1.1723146 0.8496474
3.0084481 1.2259095 0.84916425
3.0053229 1.2794762 0.84868121
3.0028243 1.3223073 0.84829497
2.9997025 1.3758183 0.84781241
2.9965825 1.4293014 0.84733045
2.9940877 1.4720653 0.84694469
3.1954403 -1.9661081 0.92198336
3.1928563 -1.9218109 0.92157388
3.1896272 -1.8664684 0.92106259
3.1864004 -1.8111556 0.92055118
3.18382 -1.7669287 0.92014253
3.1812413 -1.7227218 0.91973388
3.178019 -1.6674929 0.91922331
3.1747985 -1.6122929 0.91871333
3.1722238 -1.5681567 0.91830552
3.1696498 -1.52404 0.91789758
3.166435 -1.4689234 0.91738832
3.1632206 -1.4138364 0.91687918
3.1606507 -1.3697896 0.91647208
3.1574407 -1.3147607 0.91596353
3.1542323 -1.2597609 0.91545522
3.1516659 -1.2157842 0.9150486
3.149102 -1.1718273 0.91464245
3.1458981 -1.1169103 0.91413498
3.1426959 -1.0620224 0.91362762
3.1401358 -1.0181353 0.91322207
3.1375759 -0.97426808 0.91281652
3.1343791 -0.9194628 0.91231
3.1311834 -0.86468673 0.91180384
3.128628 -0.82088888 0.91139913
3.1254361 -0.76617038 0.9108932
3.1222453 -0.71148092 0.91038799
3.1196942 -0.66775221 0.90998375
3.1171441 -0.62404329 0.90957975
3.1139588 -0.56943601 0.90907514
3.1107745 -0.51485747 0.90857077
3.1082284 -0.47121763 0.9081676
3.1050477 -0.41669649 0.90766358
3.1018691 -0.36220413 0.90715992
3.0993266 -0.31863314 0.90675724
3.0967858 -0.27508181 0.90635478
3.0936117 -0.2206713 0.90585184
3.0904386 -0.16628942 0.90534925
3.0879023 -0.1228067 0.9049474
3.0847328 -0.068481952 0.90444541
3.0815647 -0.014185667 0.90394354
3.0790322 0.029228508 0.90354228
3.0758679 0.083467722 0.90304089
3.0727048 0.13767847 0.90253997
3.0701759 0.18102428 0.90213919
3.0670168 0.23517972 0.90163875
3.0682807 0.21352154 0.9018389
3.0644908 0.27848017 0.90123844
3.0613346 0.33258131 0.90073848
3.0588109 0.37583968 0.90033853
3.0556576 0.4298839 0.89983928
3.0525067 0.48390007 0.89934003
3.0499868 0.52709037 0.89894092
3.046839 0.5810498 0.89844203
3.0436924 0.63498116 0.89794374
3.0411766 0.67810357 0.8975451
3.0380335 0.73197842 0.89704716
3.0348916 0.78582507 0.89654958
3.0323682 0.83107561 0.90264273
3.0300579 0.87198836 0.90660369
3.0269208 0.92575538 0.90610385
3.0237858 0.97949421 0.905604
3.0212791 1.0224628 0.90520465
3.0181472 1.0761461 0.90470541
3.0150166 1.1298006 0.90420628
3.0125134 1.1727018 0.9038074
3.0093868 1.2263007 0.90330899
3.0062611 1.2798712 0.90281093
3.0037622 1.3227054 0.90241277
3.0006404 1.3762207 0.90191495
2.9975193 1.4297073 0.90141761
2.9950244 1.4724748 0.90101993
3.1962154 -1.965987 0.96602702
3.1936314 -1.9216869 0.96560788
3.190402 -1.8663414 0.96508384
3.1871746 -1.8110251 0.96455991
3.1845939 -1.7667956 0.96414125
3.1820142 -1.7225862 0.96372259
3.1787922 -1.6673534 0.9631995
3.1755717 -1.6121502 0.96267688
3.1729956 -1.568011 0.96225905
3.1704218 -1.5238918 0.96184134
3.167206 -1.4687722 0.96131945
3.1639915 -1.4136813 0.96079779
3.1614218 -1.3696321 0.96038067
3.1582108 -1.3146 0.95985973
3.1550014 -1.2595966 0.9593389
3.152436 -1.2156174 0.95892251
3.1498711 -1.1716578 0.95850623
3.1466672 -1.1167375 0.95798624
3.1434643 -1.0618464 0.95746648
3.1409035 -1.0179566 0.95705104
3.1383445 -0.97408676 0.95663571
3.1351459 -0.91927826 0.9561168
3.1319501 -0.86449862 0.95559812
3.129395 -0.82069826 0.95518339
3.1262019 -0.76597643 0.95466518
3.1230111 -0.71128356 0.95414746
3.1204603 -0.66755229 0.95373344
3.1179092 -0.62384075 0.95331955
3.1147232 -0.56923008 0.95280254
3.1115386 -0.51464832 0.95228577
3.1089923 -0.4710058 0.95187247
3.1058111 -0.41648144 0.95135605
3.1028225 -0.3619312 0.96176136
3.10028 -0.31835699 0.96134627
3.0977392 -0.27480233 0.96093166
3.0945644 -0.2203877 0.96041322
3.0913911 -0.16600171 0.95989537
3.0888538 -0.1225158 0.95948112
3.0856838 -0.068186969 0.95896351
3.0825157 -0.013886631 0.95844638
3.0799823 0.029530764 0.95803285
3.0768173 0.083774105 0.95751607
3.0736544 0.13798884 0.95699978
3.0711253 0.18133801 0.95658696
3.0685971 0.22466752 0.95617402
3.0654383 0.27880105 0.95565867
3.0622821 0.33290622 0.95514321
3.0597575 0.37616765 0.95473123
3.0566041 0.43021607 0.95421624
3.0534525 0.4842363 0.95370173
3.0509324 0.52742982 0.95329034
3.0477836 0.58139336 0.95277655
3.044637 0.63532865 0.95226264
3.0421207 0.67845416 0.95185184
3.0389776 0.73233294 0.95133877
3.0358353 0.78618377 0.95082569
3.033524 0.82711834 0.95477724
3.0310006 0.87235332 0.96085668
3.0278633 0.92612445 0.96034169
3.0247271 0.97986734 0.95982659
3.0222199 1.0228391 0.95941496
3.0190878 1.0765262 0.95890045
3.0159566 1.1301847 0.9583863
3.0134532 1.1730891 0.95797539
3.0103257 1.2266917 0.95746171
3.0071998 1.2802665 0.95694828
3.0047004 1.3231039 0.95653808
3.0015779 1.3766229 0.95602512
2.9984565 1.4301139 0.95551264
2.9959612 1.4728841 0.95510292
3.1969912 -1.9658656 1.0100764
3.1944058 -1.9215629 1.0096469
3.1911764 -1.8662143 1.0091106
3.1879487 -1.8108943 1.0085741
3.1853676 -1.7666619 1.0081453
3.1827877 -1.72245 1.0077168
3.1795652 -1.667214 1.0071813
3.1763439 -1.6120076 1.006646
3.173768 -1.5678656 1.0062182
3.1711938 -1.5237435 1.0057904
3.1681705 -1.4685825 1.0162412
3.1649554 -1.4134879 1.0157042
3.1623852 -1.3694352 1.0152745
3.159174 -1.314399 1.0147377
3.1559644 -1.2593914 1.0142014
3.153398 -1.2154087 1.0137726
3.1508329 -1.1714458 1.013344
3.1476281 -1.1165215 1.0128084
3.1444244 -1.0616262 1.0122734
3.1418636 -1.0177331 1.0118451
3.1393039 -0.97385991 1.0114173
3.1361055 -0.91904712 1.010883
3.1329093 -0.86426353 1.0103487
3.1303532 -0.8204596 1.0099216
3.1271601 -0.76573372 1.0093879
3.1239688 -0.71103674 1.0088546
3.1214166 -0.66730219 1.0084283
3.1188657 -0.62358743 1.0080019
3.1156793 -0.56897259 1.0074695
3.1124938 -0.51438677 1.0069371
3.1099472 -0.47074097 1.0065114
3.1067657 -0.41621262 1.0059798
3.1037767 -0.36165828 1.0163708
3.101234 -0.31808072 1.0159435
3.0986924 -0.27452278 1.0155162
3.0955169 -0.2201041 1.0149826
3.0923433 -0.165714 1.0144491
3.0898058 -0.12222481 1.0140225
3.0866356 -0.067891926 1.0134896
3.0834663 -0.013587534 1.0129571
3.0809329 0.029833138 1.0125314
3.0777674 0.084080458 1.0119991
3.0746043 0.13829932 1.0114675
3.0720737 0.18165162 1.0110424
3.0695457 0.22498441 1.0106174
3.0660961 0.28343925 1.0078664
3.0678394 0.25753576 1.0211862
3.0632288 0.33323118 1.0095556
3.0607047 0.37649587 1.0091313
3.0575514 0.4305484 1.0086013
3.0543988 0.48457253 1.0080714
3.0518782 0.52776933 1.0076476
3.0487294 0.58173686 1.0071182
3.0455818 0.63567615 1.0065894
3.0430646 0.67880499 1.0061663
3.039921 0.73268771 1.0056379
3.0367787 0.78654242 1.0051097
3.0342655 0.82960355 1.0046875
3.0317543 0.87264556 1.0042653
3.0286164 0.92641962 1.0037379
3.02548 0.98016578 1.0032108
3.0229728 1.0231402 1.0027894
3.0198398 1.0768301 1.0022628
3.0167086 1.130492 1.0017364
3.014205 1.173399 1.0013154
3.0110774 1.227005 1.0007898
3.0079508 1.2805827 1.0002645
3.0054512 1.3234228 0.99984431
3.0023279 1.3769448 0.99931931
2.9992065 1.4304386 0.99879467
2.9967105 1.4732118 0.99837518
3.1979606 -1.9657142 1.0651461
3.1953747 -1.9214082 1.0647042
3.1921446 -1.8660553 1.0641519
3.1889164 -1.8107312 1.0635998
3.1863351 -1.7664957 1.0631584
3.1837549 -1.7222795 1.0627173
3.1805315 -1.6670398 1.0621661
3.17731 -1.6118293 1.0616151
3.1747334 -1.5676837 1.0611746
3.172159 -1.5235587 1.0607345
3.1691349 -1.4683932 1.0711709
3.1659195 -1.4132943 1.0706183
3.1633492 -1.3692384 1.0701762
3.1601374 -1.3141979 1.0696241
3.1569269 -1.2591861 1.0690719
3.1543598 -1.2152001 1.0686307
3.1517949 -1.171234 1.0681895
3.1485896 -1.1163054 1.0676384
3.1453855 -1.0614059 1.0670877
3.1428242 -1.0175095 1.0666472
3.1402643 -0.97363293 1.0662069
3.1370649 -0.91881621 1.0656568
3.1338682 -0.86402833 1.0651071
3.1313117 -0.8202213 1.0646676
3.1281178 -0.76549125 1.0641186
3.1249259 -0.71079004 1.0635695
3.1223741 -0.66705227 1.0631306
3.1198225 -0.62333411 1.0626923
3.1166351 -0.56871521 1.0621442
3.1134496 -0.51412523 1.0615966
3.110903 -0.47047621 1.0611584
3.1077209 -0.41594362 1.0606112
3.1045401 -0.36143976 1.0600646
3.1019967 -0.31785965 1.0596273
3.0994546 -0.2742992 1.0591902
3.0962791 -0.21987718 1.0586441
3.0931051 -0.16548383 1.0580984
3.0905671 -0.12199205 1.057662
3.0873964 -0.067655891 1.0571167
3.0842278 -0.013348252 1.0565718
3.0816932 0.030075043 1.0561361
3.0785275 0.084325612 1.0555919
3.0753634 0.13854772 1.0550479
3.0728335 0.18190262 1.0546129
3.0703046 0.22523797 1.054178
3.0665135 0.29020458 1.053526
3.0684083 0.25772732 1.0538518
3.0639873 0.3334913 1.0530916
3.0614626 0.37675843 1.0526577
3.0583084 0.43081427 1.0521153
3.0551553 0.48484156 1.051573
3.0526352 0.52804089 1.0511396
3.0494852 0.58201164 1.0505981
3.0463378 0.63595414 1.0500571
3.0438209 0.67908561 1.0496241
3.0406761 0.73297143 1.0490835
3.0375328 0.78682929 1.0485431
3.0350201 0.82989305 1.0481111
3.0325081 0.8729375 1.0476792
3.0293701 0.92671496 1.0471395
3.0262337 0.98046422 1.0466002
3.0237257 1.0234412 1.046169
3.0205925 1.0771344 1.0456302
3.0174608 1.1307994 1.0450919
3.0151448 1.1737866 1.0554987
3.0120165 1.2273965 1.0549579
3.0088897 1.2809782 1.0544171
3.0063894 1.3238212 1.0539849
3.0032661 1.3773471 1.0534447
3.000144 1.4308451 1.0529051
2.9976473 1.4736214 1.0524733
3.1989298 -1.9655626 1.1202235
3.1963434 -1.921253 1.1197691
3.1931136 -1.8658957 1.1192013
3.1898844 -1.8105676 1.1186335
3.1873026 -1.7663283 1.1181794
3.1847222 -1.7221098 1.1177258
3.1814988 -1.6668658 1.117159
3.1782758 -1.6116506 1.1165923
3.1756992 -1.5675019 1.1161394
3.1731246 -1.5233734 1.1156869
3.1699069 -1.4682417 1.1151212
3.1666913 -1.4131393 1.114556
3.16412 -1.3690805 1.1141038
3.1609077 -1.3140367 1.1135391
3.1576972 -1.2590219 1.1129746
3.1551299 -1.2150332 1.1125231
3.152564 -1.1710644 1.1120722
3.149358 -1.1161325 1.1115088
3.1461546 -1.0612297 1.1109456
3.1435926 -1.0173306 1.110495
3.141032 -0.97345138 1.1100448
3.1378326 -0.91863132 1.1094824
3.1346354 -0.86384022 1.1089202
3.1320786 -0.82003033 1.1084707
3.1288846 -0.76529717 1.1079092
3.1256919 -0.71059263 1.107348
3.1231396 -0.66685212 1.1068993
3.1205873 -0.62313145 1.1064507
3.1174002 -0.56850928 1.1058904
3.1142147 -0.51391602 1.1053301
3.1116672 -0.47026432 1.1048821
3.1084847 -0.41572839 1.1043227
3.1053033 -0.36122131 1.1037636
3.1027601 -0.31763858 1.1033167
3.1002181 -0.27407545 1.1028693
3.0970416 -0.21965024 1.1023113
3.0938666 -0.16525364 1.101753
3.0913289 -0.12175924 1.1013069
3.0881579 -0.067419797 1.1007493
3.0849881 -0.013108909 1.1001921
3.0824535 0.030316949 1.0997465
3.0791883 0.087696448 1.1038293
3.0763135 0.13885821 1.1095309
3.0737829 0.18221641 1.1090838
3.0712535 0.22555497 1.1086366
3.0668302 0.30135137 1.1078547
3.0687249 0.26887417 1.1081897
3.0649352 0.33381641 1.1075197
3.0624104 0.37708688 1.1070732
3.0592554 0.43114662 1.1065158
3.0561013 0.4851779 1.1059582
3.0535808 0.52838027 1.1055125
3.0504305 0.5823552 1.1049557
3.0472822 0.63630164 1.1043992
3.0447652 0.67943633 1.1039542
3.0416205 0.73332632 1.1033983
3.0384769 0.78718805 1.1028426
3.0359633 0.83025503 1.1023983
3.0334511 0.87330288 1.1019541
3.0303125 0.92708427 1.1013993
3.0271754 0.98083746 1.1008447
3.024667 1.0238174 1.1004013
3.0215335 1.0775146 1.0998473
3.0184016 1.1311837 1.0992937
3.0160851 1.1741741 1.1096896
3.0129557 1.2277879 1.1091334
3.0098286 1.2813736 1.1085777
3.007328 1.3242198 1.1081333
3.0042043 1.3777497 1.1075778
3.0010815 1.4312516 1.1070229
2.9985847 1.4740307 1.1065792
3.1997049 -1.9654415 1.1642919
3.197119 -1.9211295 1.1638274
3.1938882 -1.8657687 1.1632469
3.190659 -1.8104367 1.1626667
3.188077 -1.7661953 1.1622028
3.1854959 -1.7219737 1.1617389
3.182272 -1.666726 1.1611595
3.179049 -1.6115077 1.1605806
3.1764719 -1.567356 1.1601175
3.1738963 -1.5232252 1.1596549
3.1706789 -1.4680903 1.1590767
3.1674628 -1.4129843 1.1584991
3.1648908 -1.3689232 1.1580369
3.1616783 -1.3138759 1.1574596
3.1584673 -1.2588576 1.1568826
3.1558998 -1.2148664 1.1564217
3.1533337 -1.1708949 1.1559602
3.1501279 -1.1159596 1.1553842
3.1469233 -1.0610535 1.1548086
3.144361 -1.0171516 1.1543483
3.1418004 -0.97326982 1.1538882
3.1385 -0.91529465 1.1579764
3.1355941 -0.86360502 1.1636944
3.1330373 -0.81979191 1.1632324
3.129843 -0.76505435 1.1626556
3.1266499 -0.71034586 1.1620787
3.1240971 -0.66660208 1.1616175
3.1215448 -0.62287807 1.1611565
3.1183567 -0.56825191 1.1605806
3.1151705 -0.51365435 1.160005
3.1126227 -0.46999943 1.1595449
3.1094391 -0.41545945 1.1589699
3.1062579 -0.36094826 1.1583953
3.1037145 -0.31736225 1.1579357
3.101171 -0.27379584 1.1574764
3.0979943 -0.21936649 1.1569024
3.0948193 -0.16496584 1.1563292
3.0922809 -0.1214681 1.1558707
3.0891092 -0.067124695 1.1552976
3.0859392 -0.012809724 1.154725
3.0834045 0.030619353 1.1542671
3.0806 0.078678265 1.1537604
3.0776803 0.13267447 1.1662712
3.0747323 0.18253016 1.1635625
3.0722022 0.225872 1.163103
3.0675886 0.30160946 1.1514096
3.0693326 0.27570328 1.1647531
3.0658832 0.33414137 1.1619554
3.0633578 0.37741512 1.1614966
3.0602028 0.43147895 1.1609237
3.0570486 0.48551428 1.1603509
3.054527 0.52872002 1.159893
3.0513763 0.5826987 1.1593208
3.048228 0.63664937 1.1587491
3.0457098 0.67978716 1.1582918
3.0425642 0.73368114 1.1577203
3.0394204 0.78754723 1.1571498
3.0369065 0.83061719 1.1566931
3.034394 0.87366796 1.1562369
3.031255 0.9274534 1.1556669
3.0281174 0.98121083 1.1550971
3.0256083 1.024194 1.1546415
3.0224743 1.0778952 1.1540722
3.0193419 1.131568 1.1535032
3.0168369 1.1744838 1.1530483
3.0137076 1.2281013 1.1524802
3.0105801 1.28169 1.1519122
3.0080791 1.3245387 1.1514579
3.0049546 1.3780717 1.1508905
3.0018318 1.4315768 1.1503234
2.9993346 1.4743584 1.1498698
3.2004812 -1.9653201 1.2083658
3.1978943 -1.9210055 1.2078912
3.1946635 -1.8656411 1.2072979
3.1916273 -1.8102736 1.217716
3.1890445 -1.7660282 1.2172395
3.1864634 -1.7218034 1.2167633
3.1832387 -1.6665519 1.2161682
3.1800156 -1.6113291 1.2155735
3.1774383 -1.5671744 1.2150978
3.1748621 -1.5230396 1.2146229
3.171643 -1.4679008 1.2140292
3.168427 -1.4127908 1.2134356
3.1658547 -1.3687263 1.2129612
3.162642 -1.3136748 1.2123682
3.1594303 -1.2586523 1.2117758
3.1568625 -1.2146575 1.2113018
3.1542962 -1.170683 1.2108284
3.1510897 -1.1157434 1.210237
3.1478844 -1.0608331 1.2096456
3.1453218 -1.0169281 1.2091727
3.14276 -0.97304273 1.2087001
3.1397681 -0.92094421 1.2108788
3.1365538 -0.8633697 1.2184764
3.1339962 -0.81955326 1.2180022
3.130801 -0.76481164 1.2174096
3.1276073 -0.71009898 1.2168174
3.1250541 -0.66635191 1.2163435
3.1225021 -0.6226247 1.2158703
3.1193132 -0.5679943 1.2152789
3.1161261 -0.51339275 1.2146878
3.1135776 -0.46973443 1.2142153
3.1103938 -0.41519046 1.2136247
3.1072121 -0.3606751 1.2130346
3.1046681 -0.3170858 1.2125626
3.1021247 -0.27351612 1.2120911
3.0989478 -0.2190828 1.2115021
3.095772 -0.16467801 1.2109129
3.0932331 -0.12117708 1.2104421
3.0900614 -0.066829503 1.2098536
3.0868905 -0.012510568 1.2092656
3.0843551 0.030921847 1.2087954
3.0818212 0.074334681 1.2083255
3.0786552 0.12857218 1.2077385
3.0754919 0.18278128 1.2071517
3.0729616 0.22612569 1.2066823
3.0698009 0.28027791 1.2060962
3.0666418 0.33440149 1.2055103
3.0641158 0.37767786 1.2050418
3.0609598 0.43174487 1.2044564
3.0578058 0.48578346 1.2038714
3.0552838 0.5289917 1.2034036
3.0521331 0.58297378 1.2028191
3.0489836 0.63692749 1.202235
3.0464654 0.6800679 1.201768
3.0433199 0.73396516 1.2011845
3.0401757 0.78783417 1.2006016
3.0376616 0.83090693 1.2001354
3.0351484 0.8739602 1.1996692
3.0320089 0.92774868 1.1990871
3.0288706 0.98150903 1.1985049
3.0263619 1.0244949 1.1980397
3.0232275 1.0781993 1.1974581
3.0200946 1.1318756 1.1968771
3.0175893 1.1747941 1.1964126
3.0144591 1.2284143 1.1958321
3.0113316 1.2820064 1.1952519
3.0088301 1.3248576 1.1947881
3.0057051 1.3783938 1.1942085
3.0027697 1.4319836 1.2044568
3.0002716 1.4747682 1.2039911
3.201257 -1.9651988 1.2524449
3.1986701 -1.9208813 1.2519603
3.1954381 -1.8655138 1.2513546
3.1924019 -1.810143 1.2617611
3.1898193 -1.7658954 1.2612746
3.1872373 -1.7216675 1.2607881
3.1840122 -1.6664125 1.2601806
3.1807885 -1.6111863 1.2595733
3.1782107 -1.5670288 1.2590879
3.1756346 -1.5228915 1.2586026
3.1724157 -1.4677492 1.2579964
3.1691988 -1.4126357 1.2573906
3.1666262 -1.3685688 1.2569059
3.163413 -1.3135139 1.2563006
3.1602011 -1.2584878 1.2556955
3.1576326 -1.2144904 1.2552118
3.1550658 -1.170513 1.2547284
3.1518586 -1.1155704 1.2541242
3.1486533 -1.0606568 1.2535205
3.1460907 -1.0167489 1.2530375
3.1435287 -0.97286105 1.2525549
3.1403282 -0.91803038 1.2519523
3.1371293 -0.86322844 1.2513496
3.1345713 -0.8194102 1.2508678
3.131376 -0.76466608 1.2502661
3.1281819 -0.70995092 1.2496643
3.1256289 -0.66620171 1.2491834
3.1230762 -0.62247247 1.2487025
3.1198871 -0.56783968 1.2481018
3.1166997 -0.51323569 1.2475014
3.1141512 -0.46957552 1.2470216
3.1109672 -0.41502893 1.2464216
3.107785 -0.36051118 1.2458221
3.1052403 -0.31691992 1.245343
3.1026974 -0.27334839 1.2448639
3.09952 -0.21891245 1.2442653
3.096344 -0.16450527 1.2436672
3.0938048 -0.12100235 1.2431889
3.0906324 -0.066652417 1.2425913
3.0874615 -0.012330949 1.2419939
3.0849259 0.031103343 1.2415162
3.0823915 0.074518099 1.2410393
3.0792255 0.12875807 1.2404428
3.0760612 0.1829696 1.2398467
3.0735307 0.22631592 1.2393701
3.0703702 0.28047049 1.2387747
3.0672104 0.33459675 1.2381796
3.0646844 0.37787491 1.2377037
3.0615284 0.43194437 1.2371092
3.0583737 0.48598534 1.236515
3.0558517 0.52919555 1.2360401
3.0527008 0.58318001 1.2354465
3.0495508 0.6371361 1.2348529
3.0470326 0.68027842 1.2343786
3.0438867 0.73417807 1.2337862
3.0407419 0.78804946 1.2331938
3.0382278 0.83112419 1.2327203
3.0357144 0.87417942 1.2322468
3.0325742 0.92797023 1.2316552
3.0294363 0.98173308 1.2310642
3.0269268 1.0247209 1.2305914
3.0237923 1.0784276 1.2300011
3.020659 1.1321063 1.2294109
3.0181537 1.1750267 1.2289388
3.0150235 1.2286494 1.2283493
3.0118949 1.2822436 1.2277601
3.0093935 1.3250966 1.2272888
3.0062685 1.3786355 1.2267002
2.9663818 1.1848128 -1.5842208
2.9641936 1.2201831 -1.5856477
2.9612696 1.2674387 -1.5875539
2.958339 1.3148088 -1.5894651
2.9554012 1.3622944 -1.5913802
2.9517183 1.42182 -1.5937819
2.948025 1.4815146 -1.5961902
2.9450622 1.5294064 -1.5981219
2.9420919 1.5774152 -1.6000588
2.9391141 1.6255412 -1.6020004
2.9361289 1.6737853 -1.6039464
2.9331372 1.7221481 -1.6058977
2.9301379 1.770629 -1.6078534
2.9271312 1.8192295 -1.609814
2.9242606 1.8678627 -1.5999911
2.9212389 1.9166982 -1.6019467
2.9182107 1.9656549 -1.6039073
2.9151742 2.0147316 -1.6058723
3.0561793 -0.26661623 -1.5256675
3.0541511 -0.23383421 -1.5269901
3.05212 -0.20100132 -1.5283145
3.0500841 -0.16810438 -1.5296419
3.0473654 -0.12415648 -1.5314145
3.0446405 -0.080105633 -1.5331917
3.0419087 -0.035951674 -1.534973
3.0384843 0.019392133 -1.5372058
3.0350511 0.074887559 -1.5394446
3.0322967 0.11940576 -1.5412406
3.0295362 0.16402887 -1.5430405
3.0260756 0.21996137 -1.5452971
3.0226059 0.276048 -1.54756
3.0198219 0.32104105 -1.5493748
3.0170317 0.36614078 -1.5511944
3.0136654 0.42270648 -1.5421212
3.010159 0.47938907 -1.5443913
3.0073457 0.52486104 -1.5462121
3.0045259 0.57044125 -1.5480373
3.0016997 0.61612999 -1.5498666
2.9988658 0.661928 -1.5517006
2.9953146 0.71933484 -1.5539995
2.9917531 0.7769022 -1.5563048
2.9888961 0.82308483 -1.5581542
2.9860327 0.86937833 -1.560008
2.9831617 0.91578281 -1.561866
2.9802833 0.96229917 -1.5637288
2.9766769 1.0206081 -1.566064
2.973196 1.0790615 -1.5568569
2.9712949 1.1141827 -1.5351372
2.9700937 1.1283247 -1.5634382
2.9675865 1.1706221 -1.5558642
2.9646082 1.2200896 -1.5508717
2.9616854 1.267333 -1.5527353
2.958756 1.3146913 -1.5546037
2.9558191 1.3621647 -1.5564765
2.9521382 1.421675 -1.5588241
2.9484463 1.4813541 -1.5611783
2.9454844 1.5292336 -1.5630672
2.9425159 1.5772299 -1.5649606
2.9395392 1.6253433 -1.5668586
2.9365559 1.673575 -1.5687613
2.9335654 1.7219249 -1.5706686
2.9314597 1.7581841 -1.5603509
2.930263 1.7764192 -1.5669409
2.9277046 1.8188983 -1.5627309
2.9248357 1.8675143 -1.552855
2.9218161 1.9163331 -1.5547518
2.9187891 1.9652723 -1.5566534
2.9157546 2.0143325 -1.5585597
3.065845 -0.41862589 -1.4973283
3.0638337 -0.38611466 -1.4986205
3.0604742 -0.33180344 -1.500779
3.0572903 -0.27949029 -1.498399
3.054528 -0.23357153 -1.493525
3.0524979 -0.2007463 -1.4948201
3.0504637 -0.16785717 -1.4961175
3.0477457 -0.1239197 -1.4978508
3.0450215 -0.079879314 -1.4995885
3.0422907 -0.035735786 -1.5013299
3.038868 0.019594729 -1.5035125
3.0354359 0.075076893 -1.5057013
3.0326831 0.11958449 -1.5074573
3.0299232 0.16419682 -1.5092171
3.0263219 0.22333753 -1.5067095
3.0231256 0.27623588 -1.502332
3.0203433 0.32121438 -1.5040929
3.0175548 0.36629933 -1.5058579
3.01419 0.42284673 -1.4967222
3.0113878 0.46816021 -1.4984828
3.0099838 0.49086165 -1.4993647
3.0078743 0.52496791 -1.50069
3.0050561 0.57053339 -1.5024606
3.0022306 0.616207 -1.5042353
2.9986899 0.67345846 -1.5064598
2.9951386 0.73086935 -1.5086907
2.9922903 0.77692616 -1.5104802
2.9894345 0.82309359 -1.5122739
2.9865723 0.86937147 -1.5140719
2.9837034 0.91576064 -1.5158744
2.980963 0.96225184 -1.5061758
2.9773579 1.0205364 -1.5084232
2.9738803 1.0789653 -1.4991349
2.9717062 1.114116 -1.5004798
2.9702547 1.1375874 -1.5013779
2.9680738 1.1728512 -1.5027273
2.9651601 1.2199647 -1.5045296
2.9622393 1.2671924 -1.5063368
2.9593115 1.3145347 -1.5081481
2.9563763 1.3619919 -1.5099639
2.9526973 1.4214815 -1.5122399
2.9490075 1.4811403 -1.5145224
2.9460475 1.5290031 -1.5163537
2.9430804 1.576983 -1.5181895
2.9401054 1.62508 -1.5200295
2.9370599 1.675666 -1.5149356
2.9342771 1.7215539 -1.5119941
2.9317272 1.763898 -1.5077294
2.9305308 1.7821276 -1.514291
2.928421 1.8184853 -1.5039171
2.9254105 1.8671666 -1.5057507
2.9223928 1.9159684 -1.5075891
2.9193676 1.9648902 -1.5094318
2.9163349 2.0139329 -1.5112791
3.0663412 -0.41821778 -1.4529449
3.0644557 -0.38561732 -1.4430984
3.0610983 -0.33132726 -1.4451754
3.0577312 -0.2768898 -1.4472585
3.0550306 -0.23322135 -1.4489292
3.0523238 -0.18945119 -1.4506042
3.0502894 -0.15655974 -1.4518626
3.0482516 -0.12360412 -1.4531235
3.0455291 -0.079577684 -1.4548079
3.0427999 -0.035448074 -1.4564965
3.0393789 0.019864738 -1.4586128
3.0359485 0.075329274 -1.4607348
3.0333259 0.11988206 -1.4511883
3.0305676 0.16447654 -1.4528811
3.027317 0.21758629 -1.4520751
3.0237749 0.27647042 -1.4458344
3.0209947 0.3214308 -1.4475276
3.0182083 0.3664977 -1.4492253
3.014715 0.42298698 -1.451353
3.011914 0.46828562 -1.4530594
3.0105104 0.49097973 -1.453914
3.0084023 0.52507484 -1.4551983
3.0055854 0.57062531 -1.4569142
3.0027618 0.61628407 -1.458634
2.9992225 0.67351651 -1.4607898
2.9956741 0.73090857 -1.4629518
2.9928267 0.77695024 -1.4646859
2.9901073 0.82310426 -1.4549681
2.9872472 0.86936307 -1.4566969
2.9843795 0.91573286 -1.4584299
2.9816413 0.96220469 -1.4486674
2.978039 1.0204647 -1.4508275
2.9744267 1.0788883 -1.4529934
2.9718168 1.1218404 -1.4507364
2.9706666 1.1375149 -1.4667152
2.9686234 1.1727428 -1.4564729
2.9657118 1.2198402 -1.4582189
2.9627929 1.2670517 -1.4599692
2.9598663 1.3143778 -1.4617238
2.9565201 1.3689401 -1.4614215
2.9529338 1.4260608 -1.4681894
2.9495687 1.4809266 -1.4678981
2.9466105 1.5287732 -1.469672
2.9437852 1.5766747 -1.4597718
2.9408133 1.6247509 -1.4615401
2.9380393 1.670504 -1.4585389
2.9349885 1.7211831 -1.4533662
2.9319952 1.7696092 -1.4551327
2.9289939 1.8181546 -1.4569036
2.9259849 1.8668193 -1.4586787
2.9229689 1.9156038 -1.4604584
2.9199452 1.9645084 -1.4622425
2.9169142 2.0135338 -1.464031
3.0649524 -0.38521987 -1.3987142
3.0615966 -0.33094668 -1.4007263
3.0582321 -0.27652627 -1.4027437
3.0555327 -0.23287159 -1.404362
3.0524459 -0.18252257 -1.403996
3.050668 -0.15631533 -1.4183646
3.0487578 -0.12328872 -1.4084247
3.0459759 -0.077028424 -1.403427
3.0434358 -0.035088897 -1.4004968
3.0400174 0.02020207 -1.4025303
3.0365894 0.075644493 -1.4045694
3.033968 0.12017946 -1.3949621
3.0312123 0.16475612 -1.3965883
3.0277581 0.22063017 -1.3986267
3.0242941 0.276658 -1.4006706
3.0215156 0.32160389 -1.4023104
3.0187304 0.36665618 -1.4039537
3.0152392 0.42312711 -1.4060138
3.0117381 0.47975439 -1.4080795
3.0089297 0.52518171 -1.4097365
3.0061147 0.57071722 -1.4113981
3.0032928 0.61636096 -1.4130628
2.9996786 0.67644888 -1.4066991
2.9963419 0.73095739 -1.405822
2.9934971 0.77698016 -1.4074874
2.9907794 0.82311511 -1.3977067
2.9879208 0.86935461 -1.3993659
2.9850562 0.91570526 -1.4010293
2.9814644 0.97380561 -1.4031144
2.9778628 1.0320696 -1.4052052
2.9749734 1.0788116 -1.4068826
2.9720767 1.1256663 -1.4085641
2.9691734 1.1726342 -1.4102496
2.9662631 1.2197156 -1.4119393
2.9633458 1.2669114 -1.4136329
2.9604208 1.3142211 -1.4153304
2.9567547 1.3735261 -1.4174589
2.9530787 1.4329994 -1.4195932
2.950269 1.4806597 -1.4096638
2.9473128 1.5284857 -1.4113657
2.9444904 1.5763668 -1.4014006
2.94152 1.6244222 -1.4030964
2.9385428 1.6725955 -1.4047964
2.9355576 1.7208865 -1.4065008
2.9325652 1.7692962 -1.4082094
2.9304593 1.8055959 -1.3977557
2.9292681 1.8219006 -1.4139775
2.926559 1.8664719 -1.4116392
2.9235442 1.9152393 -1.4133601
2.9205229 1.9641271 -1.4150854
2.9174941 2.013135 -1.4168149
3.0654492 -0.38482261 -1.3543584
3.0620952 -0.33056635 -1.3563054
3.0587325 -0.27616292 -1.3582579
3.0561602 -0.23243445 -1.3486954
3.0527797 -0.17773911 -1.3506418
3.0493894 -0.12289485 -1.3525941
3.0468566 -0.081072301 -1.3496095
3.0440707 -0.034729898 -1.3445402
3.0406549 0.020539135 -1.346491
3.0372295 0.075959429 -1.3484467
3.0344818 0.12041716 -1.3500159
3.0317271 0.16497955 -1.3515885
3.028275 0.22083563 -1.3535599
3.0248129 0.27684546 -1.3555366
3.0220361 0.32177678 -1.3571224
3.0192516 0.36681446 -1.3587121
3.0157628 0.42326707 -1.3607043
3.0122638 0.47987595 -1.3627021
3.0093956 0.52757722 -1.3575718
3.0067754 0.57083201 -1.3545462
3.0039554 0.6164571 -1.3561428
3.0006986 0.6703831 -1.3515149
2.9970098 0.73100638 -1.3487368
2.9941666 0.77700996 -1.3503331
2.9913168 0.82312369 -1.3519332
2.9884598 0.86934775 -1.3535373
2.9855964 0.91568303 -1.3551451
2.9820073 0.97376418 -1.3571604
2.9784074 1.0320084 -1.3591814
2.9755194 1.0787349 -1.3608029
2.9726243 1.1255736 -1.3624282
2.9704494 1.1607735 -1.3636494
2.9689968 1.184278 -1.3644655
2.9668143 1.2195915 -1.3656906
2.9638984 1.266771 -1.3673277
2.9609122 1.3164082 -1.3620985
2.9574506 1.3733054 -1.3594242
2.9537764 1.4327531 -1.3614695
2.9509687 1.4803932 -1.3514752
2.948015 1.5281985 -1.3531057
2.9450533 1.5761204 -1.3547401
2.942085 1.6241593 -1.3563786
2.9391093 1.672316 -1.3580209
2.9361262 1.7205902 -1.3596674
2.933135 1.7689829 -1.3613181
2.9308882 1.8053517 -1.3625585
2.9293876 1.8296372 -1.3633868
2.9271324 1.8661251 -1.3646313
2.9241199 1.9148754 -1.3662941
2.9210994 1.9637461 -1.3679608
2.9180725 2.0127368 -1.3696316
3.0660703 -0.38432628 -1.2989557
3.0627182 -0.3300913 -1.3008213
3.0593574 -0.27570903 -1.3026921
3.0567868 -0.23199791 -1.2930704
3.0534079 -0.17732403 -1.294935
3.0506992 -0.1334829 -1.2964307
3.0493419 -0.11151966 -1.2971797
3.0473032 -0.078523576 -1.2983052
3.044579 -0.034442902 -1.2998086
3.0411642 0.020808458 -1.3016931
3.0377414 0.076211169 -1.3035828
3.0349946 0.12065473 -1.3050988
3.0322416 0.1652028 -1.306618
3.0287912 0.22104098 -1.3085223
3.0253315 0.27703279 -1.3104322
3.0225558 0.32194969 -1.311964
3.0199039 0.3670122 -1.3022029
3.0164168 0.42344195 -1.3041108
3.0129206 0.48002782 -1.3060242
3.0108178 0.5140599 -1.3071749
3.0095451 0.53680933 -1.296594
3.0074358 0.57094669 -1.2977383
3.0046179 0.61655307 -1.2992668
3.001085 0.67371964 -1.3011824
2.9975433 0.73104548 -1.3031038
2.9947023 0.77703387 -1.3046453
2.9918537 0.82313222 -1.30619
2.9889982 0.86934102 -1.3077389
2.9861367 0.91566068 -1.3092911
2.9825487 0.97372264 -1.3112369
2.978951 1.0319471 -1.3131882
2.9760652 1.0786579 -1.314754
2.9731719 1.1254811 -1.316323
2.9709978 1.1606691 -1.3175024
2.9695456 1.1841656 -1.3182898
2.9675026 1.2194362 -1.307925
2.9645886 1.2665956 -1.3094915
2.96187 1.311487 -1.3063512
2.9581451 1.3730849 -1.3014352
2.9544742 1.4325073 -1.3033917
2.9515288 1.4801799 -1.3049611
2.9485765 1.5279689 -1.3065343
2.9456165 1.5758742 -1.3081114
2.9426498 1.6238968 -1.3096924
2.9396756 1.6720364 -1.3112772
2.9366946 1.7202941 -1.3128659
2.9337056 1.7686701 -1.3144586
2.9307091 1.8171647 -1.3160552
2.9277058 1.8657782 -1.3176556
2.9246948 1.9145116 -1.3192599
2.9216769 1.9633648 -1.3208683
2.9186509 2.0123382 -1.3224807
3.0666895 -0.38383055 -1.2435939
3.0633404 -0.32961667 -1.245379
3.0599818 -0.27525568 -1.2471685
3.0572879 -0.23164874 -1.2486041
3.053911 -0.17699206 -1.2504034
3.0507932 -0.12582007 -1.248371
3.0497208 -0.11128628 -1.2637184
3.0478089 -0.078222811 -1.2536553
3.0450864 -0.034156114 -1.255106
3.0416744 0.021077752 -1.2569245
3.0382524 0.076462716 -1.2587478
3.0355079 0.12089218 -1.2602106
3.0326958 0.16768821 -1.2550106
3.0294366 0.22129747 -1.2522686
3.0259793 0.27726686 -1.2540946
3.023205 0.32216555 -1.2555596
3.0205553 0.36720991 -1.2457371
3.017071 0.42361671 -1.2475609
3.0135765 0.48017955 -1.2493895
3.0107737 0.5255549 -1.2508564
3.0079639 0.57103842 -1.252327
3.0051475 0.61662984 -1.2538009
3.001617 0.6737777 -1.2556483
2.9980767 0.73108459 -1.2575011
2.9952369 0.77705777 -1.2589875
2.9923902 0.8231408 -1.2604774
2.9895368 0.8693344 -1.2619705
2.9866765 0.91563863 -1.2634676
2.9830906 0.97368109 -1.2653441
2.9794323 1.0342085 -1.2604086
2.9767468 1.078562 -1.2572376
2.9738557 1.1253654 -1.2587366
2.970958 1.1722817 -1.2602396
2.9681895 1.2192807 -1.2502046
2.9652779 1.2664205 -1.251701
2.9623597 1.3136741 -1.2532005
2.9587011 1.3729084 -1.2550805
2.9550316 1.4323103 -1.2569656
2.9520886 1.479967 -1.2584783
2.9491372 1.5277396 -1.2599944
2.9461792 1.5756284 -1.2615144
2.9432137 1.6236343 -1.263038
2.9402416 1.6717573 -1.2645651
2.9372616 1.7199981 -1.2660961
2.9342744 1.7683572 -1.2676312
2.9312804 1.816835 -1.2691693
2.9282784 1.8654319 -1.270712
2.9252694 1.914148 -1.2722579
2.9223969 1.9628887 -1.2620496
2.9188418 2.021013 -1.2609315
2.9157288 2.0730925 -1.2537249
3.7765446 -0.35972989 -1.2293013
3.9541957 -0.33896452 -1.2266971
4.0819583 -0.34349972 -1.2337322
4.1504807 -0.31602108 -1.2238202
3.1684947 -0.40100086 -1.2245781
3.2898376 -0.38559437 -1.22224
3.4215658 -0.36886919 -1.2197016
3.5155106 -0.37360168 -1.2255139
3.5650713 -0.35064864 -1.2169366
3.6676412 -0.35505325 -1.2229337
3.7220087 -0.33072263 -1.2139126
3.7781835 -0.30558324 -1.2045914
3.8344564 -0.33471423 -1.2201041
3.8943551 -0.30884039 -1.2105918
4.0181918 -0.31231225 -1.2169877
3.0663931 -0.37270975 -1.2107452
3.1052954 -0.37491506 -1.2101902
3.1686974 -0.35613066 -1.2040569
3.2081001 -0.35809368 -1.2064847
3.2485414 -0.3601529 -1.2089968
3.3114998 -0.35162079 -1.2075374
3.3550513 -0.3297444 -1.1992193
3.4223092 -0.32008433 -1.1974107
3.4683003 -0.34649295 -1.2112784
3.5164747 -0.3234269 -1.2025955
3.5661581 -0.29963881 -1.1936407
3.6162055 -0.32696706 -1.208087
3.6689882 -0.30252177 -1.1989518
3.063545 -0.32491559 -1.20341
3.1116397 -0.3201865 -1.1853982
3.1689038 -0.31108934 -1.1834584
3.2489061 -0.31392914 -1.1878628
3.4691522 -0.29691917 -1.1886305
3.0604813 -0.27489305 -1.2027829
3.0577888 -0.2313 -1.2041665
3.0544136 -0.17666042 -1.2059007
3.0510292 -0.12187225 -1.2076396
3.0483146 -0.077922225 -1.2090344
3.0455334 -0.031621873 -1.2038032
3.0423102 0.021414042 -1.2010062
3.0388911 0.076777011 -1.2027469
3.0361481 0.1211887 -1.2041433
3.0335879 0.16349825 -1.2009823
3.0300813 0.22155389 -1.1960574
3.0266259 0.2775006 -1.1978
3.0238543 0.32238123 -1.1991979
3.0210757 0.36736786 -1.2005992
3.0175931 0.42375648 -1.2023553
3.0141013 0.4803009 -1.2041166
3.0112989 0.52566153 -1.2055293
3.0084918 0.57112998 -1.2069453
3.0056767 0.61670649 -1.2083651
3.0021482 0.67383564 -1.2101443
2.99861 0.73112351 -1.2119284
2.9957714 0.77708161 -1.2133598
2.9929264 0.82314944 -1.2147948
2.9900122 0.87163776 -1.2094462
2.9873502 0.91561103 -1.2062328
2.9837673 0.973629 -1.2080226
2.9803722 1.0294726 -1.2051532
2.9774282 1.0784662 -1.1997657
2.9745388 1.1252501 -1.2011954
2.971643 1.1721466 -1.202628
2.9696033 1.2073597 -1.1921773
2.9684517 1.2230889 -1.2080269
2.9658296 1.2662802 -1.2055043
2.9629128 1.3135182 -1.2069476
2.9592559 1.3727319 -1.2087567
2.9555886 1.4321141 -1.2105712
2.952647 1.479754 -1.2120266
2.9496977 1.5275102 -1.213486
2.9467418 1.5753827 -1.2149487
2.9437776 1.623372 -1.2164149
2.9408066 1.6714783 -1.2178847
2.9378293 1.7197027 -1.2193582
2.9348438 1.7680451 -1.2208352
2.9317868 1.8188818 -1.2153636
2.9297452 1.8528401 -1.2117109
2.9282432 1.8771577 -1.2124467
2.925987 1.9136937 -1.2135521
2.9223619 1.9746411 -1.2036443
2.9185824 2.0358548 -1.2054782
2.9163086 2.0726733 -1.2065815
3.9563441 -0.28206325 -1.2007471
4.0844979 -0.28469837 -1.206928
4.1532393 -0.2560699 -1.1964983
3.7235007 -0.27727538 -1.1895174
3.8362584 -0.27959388 -1.1949556
3.8963294 -0.25271088 -1.1849879
4.0205364 -0.25433475 -1.1905531
4.08705 -0.22560352 -1.1799898
3.2085261 -0.28961211 -1.1751701
3.2907422 -0.2919172 -1.1794158
3.3556459 -0.28180569 -1.1773094
3.4230552 -0.27109742 -1.175027
3.4700091 -0.24713677 -1.1658874
3.5174437 -0.27303833 -1.1795794
3.5672493 -0.2484082 -1.170244
3.6174216 -0.27509409 -1.1844009
3.6703415 -0.2497561 -1.174863
3.7250006 -0.22358578 -1.1650114
3.7798309 -0.25118762 -1.1797683
3.8380685 -0.22421592 -1.1696891
3.8983142 -0.19631433 -1.1592625
3.958504 -0.22488707 -1.1746719
4.0228915 -0.19607249 -1.1639879
4.156013 -0.19581386 -1.1690378
3.0608549 -0.27462137 -1.1695117
3.0929792 -0.2643103 -1.1591109
3.1498029 -0.27665001 -1.1669614
3.2088139 -0.24372166 -1.154187
3.249275 -0.26752406 -1.1666464
3.2911994 -0.24479884 -1.1578766
3.3343518 -0.22140843 -1.1488503
3.3781362 -0.2459355 -1.1617712
3.423805 -0.22190708 -1.1525506
3.494642 -0.20978937 -1.1497564
3.5683453 -0.19695514 -1.1467457
3.6186428 -0.22299284 -1.1606113
3.6717012 -0.19675446 -1.1506662
3.7814841 -0.19654116 -1.1548307
3.0582888 -0.23095131 -1.1597575
3.0930402 -0.22006357 -1.1388707
3.1435692 -0.22033095 -1.1409539
3.2091024 -0.19765279 -1.1331217
3.2496471 -0.22093642 -1.1453472
3.2916608 -0.19749248 -1.1362522
3.3787854 -0.19732326 -1.1395557
3.0550411 -0.17624611 -1.1503139
3.0516593 -0.12147948 -1.1519711
3.0497515 -0.088466883 -1.1418278
3.0485439 -0.072086811 -1.1590366
3.0464146 -0.035687566 -1.1501024
3.0429461 0.021750093 -1.1451302
3.0395288 0.077091008 -1.1467884
3.0367882 0.12148502 -1.1481186
3.0340407 0.16598326 -1.1494519
3.0305965 0.22175872 -1.151123
3.027143 0.27768755 -1.1527989
3.0243731 0.32255366 -1.1541432
3.0215962 0.36752579 -1.1554906
3.0181153 0.42389607 -1.1571797
3.0146253 0.48042208 -1.1588733
3.0118251 0.52576798 -1.1602321
3.0097213 0.55984461 -1.1612532
3.0083158 0.58259851 -1.161935
3.0062053 0.61678326 -1.1629591
3.0025339 0.67716753 -1.1598958
2.9992759 0.73117232 -1.155007
2.9964395 0.77711141 -1.1563697
2.9935961 0.82316023 -1.1577358
2.9909425 0.86700737 -1.1544667
2.9880242 0.91558319 -1.1490424
2.9844439 0.97357732 -1.1507457
2.9808528 1.0317336 -1.1524539
2.9779723 1.0783894 -1.1538242
2.9750853 1.1251578 -1.1551979
2.9721909 1.1720386 -1.156575
2.970015 1.2072698 -1.1576097
2.9685631 1.2307955 -1.1583008
2.9663808 1.2661403 -1.1593388
2.9630547 1.3204513 -1.1586217
