# .PCD v0.7 - Point Cloud Data file format
VERSION 0.7
FIELDS x y z
SIZE 4 4 4
TYPE F F F
COUNT 1 1 1
WIDTH 1517
HEIGHT 1
VIEWPOINT 0 0 0 1 0 0 0
POINTS 1517
DATA ascii
3.6340666 -1.3472332 0.56759214
3.7855713 -1.3485112 0.56758714
3.0628798 -1.2249138 0.54301608
3.1334481 -1.2400413 0.5626573
3.2136188 -1.2365644 0.55106872
3.2443116 -1.2676957 0.56985974
3.2934134 -1.2425996 0.54208946
3.365422 -1.2659861 0.56993651
3.3782535 -1.2491531 0.54628688
3.4674296 -1.2560421 0.55070901
3.4952481 -1.2777853 0.56961584
3.5612817 -1.2632922 0.55535233
3.6430461 -1.2838976 0.5613544
3.7631543 -1.2787367 0.55028999
3.7863252 -1.3042449 0.56889635
3.8733885 -1.2872478 0.55531502
3.0361531 -1.1961203 0.53769767
3.0399473 -1.1479369 0.53970736
3.0437427 -1.0997372 0.54171765
3.0475392 -1.0515206 0.54372859
3.0513377 -1.0032877 0.54574025
3.0551369 -0.95503795 0.54775268
3.0589378 -0.90677214 0.54976571
3.0636904 -0.84641558 0.55228317
3.068445 -0.7860347 0.5548014
3.0722506 -0.73771083 0.55681694
3.076057 -0.68937027 0.55883312
3.0798645 -0.64101326 0.56084996
3.0836744 -0.59263945 0.56286758
3.0874848 -0.54424924 0.56488585
3.0912967 -0.4958424 0.56690478
3.0951092 -0.44741887 0.56892443
3.0989234 -0.39897865 0.57094473
3.1027393 -0.35052189 0.57296574
2.8053012 -4.1314611 0.48710284
2.8090177 -4.0842619 0.48908362
2.8127356 -4.0370455 0.49106506
2.8164551 -3.9898138 0.49304715
2.8201759 -3.9425659 0.49502996
2.8238974 -3.8953025 0.49701342
2.8276205 -3.8480227 0.49899748
2.8322761 -3.7888989 0.50147879
2.8369336 -3.729753 0.50396085
2.8406615 -3.6824169 0.50594735
2.9944646 -3.6732218 0.4814133
3.0540676 -3.6778178 0.49492666
3.1172166 -3.6826656 0.49620363
3.1814263 -3.6876166 0.51051444
3.2509761 -3.6929345 0.49891743
3.3204005 -3.6982858 0.51385611
3.3957047 -3.7040458 0.50185353
3.4710047 -3.7098479 0.51747739
3.552809 -3.7161064 0.50504053
3.6365087 -3.7225316 0.50674438
2.8779688 -3.6642978 0.49134967
2.9333663 -3.6685705 0.50454897
2.9919853 -3.6730711 0.50596285
3.0515027 -3.6776609 0.51991487
2.8882978 -3.077471 0.53133428
2.8911068 -3.0418038 0.53283107
2.8948522 -2.9942338 0.53482735
2.8985991 -2.9466479 0.53682429
2.9023478 -2.8990455 0.53882211
2.9060977 -2.8514271 0.54082036
2.9107864 -2.7918801 0.54331928
2.9154778 -2.7323101 0.54581922
2.9192317 -2.6846347 0.54781997
2.9229875 -2.6369431 0.54982132
2.926744 -2.5892353 0.55182344
2.9305019 -2.5415115 0.55382627
2.9342616 -2.4937711 0.5558297
2.9380219 -2.4460146 0.55783385
2.9417839 -2.3982415 0.55983865
2.9455471 -2.3504524 0.56184417
2.949312 -2.3026471 0.5638504
2.9530771 -2.2548251 0.56585735
2.9577861 -2.1950243 0.56836689
2.9624972 -2.1351993 0.57087755
2.9662676 -2.0873201 0.57288682
2.9700394 -2.0394247 0.57489687
2.9738123 -1.9915131 0.57690734
2.9772675 -1.9474286 0.57473391
2.9785428 -1.9320552 0.59147328
2.9815428 -1.8929722 0.57380015
2.9851253 -1.8472309 0.57088971
2.9889028 -1.7992561 0.57290101
2.9993651 -1.75068 0.57650518
3.1189692 -1.750766 0.55553406
3.2329061 -1.740211 0.55587232
3.0023172 -1.7026572 0.57832247
3.1199231 -1.7135195 0.55663681
3.2338359 -1.7016867 0.5570128
3.0052695 -1.6546433 0.5801397
3.1211932 -1.6639102 0.55810553
3.2350752 -1.6503772 0.55853176
3.0078874 -1.5978755 0.58510005
3.1224613 -1.6143637 0.55957222
3.2363126 -1.5991352 0.56004876
3.0133524 -1.5395173 0.58128446
3.1237278 -1.56488 0.56103718
3.2372394 -1.5607457 0.56118518
3.0156062 -1.4866626 0.58649898
3.1253092 -1.503117 0.56286567
3.0185602 -1.4386873 0.58831567
3.1268878 -1.4414451 0.56469136
3.0215149 -1.3907208 0.59013218
3.1281495 -1.3921802 0.56614977
3.0248563 -1.3426787 0.59204209
3.0286472 -1.2945317 0.59406048
3.0324402 -1.2463679 0.59607971
3.0362182 -1.1977742 0.58601552
3.0400133 -1.1495801 0.58803391
3.0438099 -1.1013697 0.5900529
3.0476069 -1.0531427 0.59207267
3.0514059 -1.0048989 0.59409314
3.0552061 -0.95663905 0.59611428
3.0590084 -0.90836209 0.59813607
3.0637612 -0.84799242 0.60066432
3.0685179 -0.78759825 0.60319352
3.072324 -0.73926353 0.60521787
3.0761311 -0.69091219 0.60724276
3.0799403 -0.64254469 0.60926843
3.08375 -0.59416014 0.61129469
3.0875609 -0.54575896 0.61332178
3.0913739 -0.49734166 0.61534935
3.0951881 -0.44890732 0.61737788
3.0990036 -0.40045664 0.61940706
3.1028199 -0.35198909 0.62143677
2.8053133 -4.1337552 0.53492188
2.8090312 -4.0865455 0.53691119
2.8127499 -4.0393195 0.53890097
2.8164701 -3.9920776 0.54089189
2.8201914 -3.9448197 0.5428831
2.8239141 -3.8975458 0.54487526
2.8285697 -3.8384297 0.54736614
2.8332264 -3.7792907 0.54985827
2.8369536 -3.7319605 0.55185258
2.8406818 -3.6846142 0.55384779
3.2466831 -3.6926672 0.5385977
3.3910687 -3.7037535 0.54315519
3.5455694 -3.7147815 0.54765427
3.633018 -3.7223077 0.53608507
2.8444169 -3.6377988 0.56782347
2.8702486 -3.6542494 0.54210764
2.9297781 -3.6683533 0.54065847
2.9731929 -3.6566582 0.54347104
3.048938 -3.6775033 0.54486811
3.0680664 -3.6476724 0.55021065
3.1132298 -3.682421 0.53438509
3.1746788 -3.6724515 0.54913175
3.2916765 -3.6723466 0.54936379
3.4168348 -3.6722341 0.54961205
3.5492151 -3.6863446 0.54913652
3.6914551 -3.7014997 0.54862589
2.8481479 -3.5904179 0.56982201
2.8749986 -3.5907519 0.55278927
2.9707751 -3.6002395 0.55248278
3.0740697 -3.5978584 0.55280638
3.1809618 -3.6210527 0.55181032
3.29827 -3.6192141 0.55213284
3.4220328 -3.6310053 0.55176085
3.5546901 -3.6436384 0.55136257
3.6991606 -3.6424406 0.55170441
2.8518801 -3.5430207 0.57182133
2.8818858 -3.532073 0.55584675
2.9765246 -3.5518789 0.55500263
3.0800829 -3.5479662 0.55540621
3.1872556 -3.5695708 0.55449307
3.3048742 -3.5659921 0.55490655
3.4272382 -3.5897174 0.55391288
3.5620003 -3.5866108 0.55433512
3.7049487 -3.5980771 0.55401713
2.8556137 -3.4956076 0.57382119
2.8874042 -3.4850483 0.55829704
2.9822834 -3.5034444 0.55752647
3.0861049 -3.4979951 0.55801028
3.1935594 -3.5180042 0.5571804
3.3114903 -3.512681 0.55768502
3.4341891 -3.5345867 0.55678636
3.569324 -3.5294805 0.55731291
3.7107465 -3.5536451 0.55633324
2.8593488 -3.4481783 0.57582176
2.8929319 -3.4379542 0.56075072
2.9880505 -3.454936 0.560054
3.0921364 -3.4479454 0.56061828
3.1998737 -3.4663541 0.55987209
3.3164589 -3.472641 0.55977178
3.4411516 -3.4793596 0.55966485
3.5748255 -3.4865685 0.55954981
3.7184882 -3.4943089 0.55942637
2.8630848 -3.4007328 0.57782304
2.8984668 -3.39079 0.56320816
2.9938264 -3.4063535 0.56258559
3.0981779 -3.3978169 0.56323051
3.2061982 -3.4146197 0.56256819
3.3214352 -3.4325454 0.56186134
3.4481266 -3.4240367 0.56254816
3.5803347 -3.4435918 0.56178987
3.724304 -3.4497378 0.56174999
2.8677568 -3.3414025 0.5803256
2.9040101 -3.3435557 0.56566924
2.9996114 -3.3576961 0.56512094
3.104229 -3.3476088 0.56584692
3.2125332 -3.3628011 0.56526858
3.328079 -3.3790092 0.56465155
3.4533656 -3.3824844 0.56471378
3.587692 -3.3862035 0.56478125
3.7281857 -3.4199867 0.56330079
2.8724308 -3.2820489 0.58282924
2.9095621 -3.2962511 0.56813401
3.0054052 -3.3089645 0.56766015
3.1102896 -3.2973216 0.56846732
3.2188783 -3.3108976 0.56797332
3.3330686 -3.3388011 0.56674713
3.3363991 -3.3119652 0.56814569
3.4586115 -3.3408711 0.56688273
3.5932148 -3.3430958 0.56702751
2.8761716 -3.2345467 0.58483297
2.915122 -3.2488761 0.57060242
3.0112081 -3.2601581 0.57020324
3.1163597 -3.2469544 0.57109195
3.2252338 -3.2589095 0.5706827
3.3397324 -3.2851064 0.56954551
2.8799133 -3.1870286 0.58683729
2.9206905 -3.2014306 0.57307452
3.0170193 -3.2112768 0.57275039
3.1224389 -3.1965077 0.57372057
2.8836567 -3.1394942 0.58884239
2.9262667 -3.1539142 0.57555026
3.0228398 -3.1623201 0.57530129
2.8877075 -3.0876365 0.58301169
2.9304543 -3.1182327 0.57740945
2.8911381 -3.0438623 0.58084756
2.8948851 -2.9962821 0.58285254
2.8986332 -2.9486859 0.58485812
2.9023821 -2.9010732 0.58686435
2.9061332 -2.8534443 0.58887136
2.9108229 -2.7938848 0.59138107
2.9155152 -2.7343011 0.59389186
2.91927 -2.6866157 0.59590119
2.9230263 -2.6389134 0.59791118
2.926784 -2.5911953 0.59992194
2.9305427 -2.5434611 0.60193342
2.9343033 -2.4957101 0.60394549
2.9380643 -2.447943 0.60595828
2.9418275 -2.4001598 0.60797179
2.9455912 -2.3523602 0.60998595
2.949357 -2.3045444 0.61200094
2.9531236 -2.256712 0.61401641
2.9578338 -2.196898 0.61653674
2.9625456 -2.1370602 0.61905837
2.9663167 -2.0891705 0.62107623
2.970089 -2.0412645 0.62309486
2.9729064 -2.0048671 0.6125555
2.9741819 -1.9895011 0.62930042
2.977638 -1.9454041 0.6271342
2.9814138 -1.897449 0.62915504
2.9851916 -1.8494779 0.63117635
2.9889705 -1.8014902 0.6331985
2.9927504 -1.7534858 0.6352213
2.996532 -1.7054654 0.63724476
3.0003147 -1.6574285 0.63926893
3.0040989 -1.6093751 0.64129376
3.0088308 -1.5492842 0.64382589
3.0135648 -1.4891697 0.64635909
3.0173533 -1.4410586 0.64838636
3.021143 -1.3929313 0.65041429
3.0249343 -1.3447871 0.65244299
3.0287268 -1.2966268 0.65447241
3.0325205 -1.2484499 0.65650243
3.0362995 -1.1998428 0.64644456
3.0400956 -1.1516353 0.64847398
3.0438929 -1.1034114 0.65050387
3.0476911 -1.0551711 0.65253454
3.0514915 -1.0069143 0.65456593
3.0552931 -0.95864087 0.65659803
3.0590954 -0.91035128 0.65863079
3.063302 -0.85675496 0.65742338
3.0678988 -0.7987144 0.66636062
3.0724151 -0.74120533 0.66575092
3.0762243 -0.69284099 0.6677869
3.0800147 -0.64407653 0.65770876
3.0838258 -0.59568155 0.65974385
3.0876379 -0.5472697 0.66177964
3.0914516 -0.49884143 0.66381621
3.0952663 -0.45039648 0.66585332
3.0990822 -0.40193483 0.66789126
3.1028993 -0.35345671 0.66992962
2.8053257 -4.1360507 0.58276224
2.8090446 -4.0888314 0.58476019
2.8127642 -4.041594 0.58675873
2.8164852 -3.9943426 0.58875787
2.8202076 -3.9470742 0.59075785
2.8239312 -3.8997905 0.59275848
2.8285871 -3.840662 0.5952602
2.833245 -3.7815096 0.59776288
2.836973 -3.7341688 0.59976608
2.8407025 -3.6868129 0.60176963
2.8444328 -3.6394403 0.60377389
2.8481646 -3.5920515 0.60577893
2.8518975 -3.5446465 0.60778469
2.8556321 -3.4972258 0.60979104
2.8593669 -3.4497886 0.61179811
2.8631046 -3.4023354 0.61380583
2.8677773 -3.3429959 0.61631644
2.8724518 -3.2836323 0.61882818
2.8761928 -3.2361224 0.62083834
2.879936 -3.1885965 0.62284905
2.8836792 -3.1410546 0.62486058
2.8874238 -3.0934963 0.62687272
2.89117 -3.0459218 0.62888557
2.8949177 -2.9983313 0.63089913
2.8986669 -2.9507244 0.63291329
2.9024169 -2.9031014 0.63492823
2.906168 -2.8554623 0.63694382
2.9108589 -2.7958896 0.63946444
2.9155526 -2.7362931 0.64198601
2.9193079 -2.688597 0.64400393
2.9230654 -2.6408849 0.64602268
2.9268241 -2.5931561 0.64804202
2.9305837 -2.5454113 0.65006214
2.9343448 -2.4976501 0.65208286
2.938107 -2.4498727 0.65410435
2.9418705 -2.4020791 0.6561265
2.945636 -2.354269 0.65814936
2.9494021 -2.3064425 0.66017294
2.9531693 -2.2586 0.66219723
2.9578805 -2.1987727 0.66472858
2.962594 -2.1389215 0.66726071
2.9660473 -2.0948598 0.66509974
2.9673216 -2.0795069 0.68185031
2.9691827 -2.0546255 0.65875071
2.9704576 -2.0392652 0.67550272
2.9739137 -1.9951725 0.6733427
2.9776888 -1.9472238 0.67537147
2.9814663 -1.899258 0.67740089
2.9852448 -1.8512764 0.67943102
2.9890249 -1.8032781 0.68146181
2.9928055 -1.7552634 0.68349338
2.9965885 -1.7072324 0.6855256
3.0003717 -1.6591849 0.68755841
3.0041566 -1.6111209 0.689592
3.0088894 -1.551017 0.6921351
3.0136244 -1.490889 0.69467902
3.0174136 -1.4427674 0.69671512
3.0212045 -1.3946294 0.69875169
3.0249965 -1.3464749 0.70078927
3.0287902 -1.2983037 0.70282745
3.0325842 -1.2501162 0.70486617
3.0363805 -1.2019123 0.70690572
3.0401776 -1.1536915 0.70894593
3.0439761 -1.1054546 0.71098679
3.047776 -1.0572009 0.71302843
3.0515773 -1.0089307 0.71507072
3.0553796 -0.96064401 0.71711379
3.0591829 -0.91234052 0.71915746
3.062988 -0.86402076 0.72120196
3.0677464 -0.80359685 0.72375828
3.0725069 -0.74314845 0.72631598
3.0763161 -0.69477063 0.72836286
3.0801079 -0.64599258 0.71829122
3.0839202 -0.59758401 0.72033727
3.0877342 -0.54915905 0.72238398
3.0915487 -0.5007174 0.72443151
3.0953643 -0.45225886 0.72647965
3.0991817 -0.40378401 0.72852862
3.1030002 -0.35529226 0.73057818
2.8053381 -4.1383476 0.63062406
2.809058 -4.0911174 0.63263047
2.8127785 -4.0438714 0.63463765
2.8165002 -3.9966083 0.63664538
2.8202231 -3.9493301 0.63865387
2.8239477 -3.9020357 0.64066303
2.8286049 -3.8428943 0.64317566
2.8332634 -3.7837296 0.64568907
2.8369925 -3.7363787 0.64770061
2.840723 -3.6890121 0.64971292
2.8444545 -3.6416292 0.65172595
2.848187 -3.5942307 0.65373945
2.8519206 -3.5468152 0.65575379
2.8556557 -3.4993844 0.65776879
2.8593924 -3.4519365 0.65978444
2.8631299 -3.4044733 0.66180062
2.8678038 -3.3451204 0.6643222
2.8724794 -3.2857442 0.66684461
2.8762217 -3.238224 0.66886342
2.8799646 -3.1906877 0.67088282
2.8837094 -3.1431355 0.672903
2.887455 -3.0955672 0.67492372
2.891202 -3.0479822 0.67694521
2.8949504 -3.0003815 0.67896736
2.8987 -2.952764 0.68099028
2.9024513 -2.9051309 0.6830138
2.9062037 -2.8574815 0.68503797
2.9108961 -2.7978954 0.68756938
2.9155896 -2.738286 0.69010174
2.9193468 -2.6905799 0.69212842
2.9231045 -2.6428571 0.69415575
2.9268639 -2.5951178 0.6961838
2.9306245 -2.5473628 0.69821256
2.9343865 -2.4995911 0.70024198
2.9381495 -2.451803 0.70227218
2.9419141 -2.4039986 0.70430303
2.9456799 -2.3561785 0.70633453
2.9494469 -2.3083415 0.70836675
2.9532156 -2.2604883 0.71039975
2.9579277 -2.2006481 0.71294183
2.9623234 -2.1446207 0.71129572
2.9635971 -2.1292734 0.72805303
2.9664147 -2.0928738 0.7175203
2.9701889 -2.0449467 0.71955645
2.9739642 -1.9970034 0.72159308
2.977741 -1.9490443 0.72363055
2.9815192 -1.9010681 0.72566867
2.9852982 -1.8530757 0.72770756
2.989079 -1.8050669 0.72974706
2.9928603 -1.7570417 0.7317872
2.9966435 -1.709 0.73382819
3.0004284 -1.660942 0.73586988
3.0042138 -1.6128675 0.73791218
3.0089478 -1.5527502 0.74046612
3.0136843 -1.4926091 0.74302101
3.0174744 -1.444477 0.74506563
3.021266 -1.3963284 0.74711114
3.0250587 -1.3481634 0.74915737
3.0288529 -1.2999815 0.75120425
3.0326486 -1.2517834 0.75325173
3.0364451 -1.2035688 0.75530005
3.0402434 -1.1553375 0.75734901
3.0440423 -1.1070899 0.7593987
3.0478437 -1.0588255 0.76144898
3.0516455 -1.0105448 0.76350015
3.055449 -0.96224731 0.76555192
3.0592537 -0.91393328 0.76760441
3.0630596 -0.86560285 0.76965761
3.0678186 -0.80516535 0.77222508
3.0725799 -0.74470377 0.77479374
3.0763903 -0.69631517 0.77684927
3.0802019 -0.6479097 0.77890569
3.0840154 -0.59948802 0.78096282
3.0878298 -0.55104947 0.78302056
3.0916452 -0.50259423 0.785079
3.0954626 -0.45412248 0.78713822
3.0992811 -0.40563387 0.78919822
3.1031005 -0.35712883 0.79125869
2.8053513 -4.140645 0.67850733
2.8090713 -4.0934048 0.68052232
2.8127925 -4.0461483 0.68253797
2.8165152 -3.9988756 0.68455458
2.8202388 -3.9515872 0.68657142
2.8239641 -3.9042826 0.68858933
2.8286223 -3.8451281 0.69111252
2.8332827 -3.7859507 0.69363678
2.8370128 -3.7385893 0.6956569
2.8407435 -3.6912129 0.69767779
2.8444755 -3.6438196 0.69969928
2.8482091 -3.5964103 0.70172149
2.8519437 -3.5489848 0.70374441
2.8556795 -3.5015438 0.70576799
2.859417 -3.4540858 0.70779234
2.8631551 -3.4066122 0.70981735
2.8678298 -3.3472464 0.71234947
2.8725069 -3.2878573 0.71488273
2.8762496 -3.2403266 0.71691006
2.8799939 -3.19278 0.71893811
2.8837395 -3.1452174 0.72096688
2.8874862 -3.0976384 0.72299635
2.8912342 -3.0500436 0.72502643
2.8949833 -3.0024323 0.72705728
2.8987339 -2.9548049 0.72908872
2.9024858 -2.907161 0.73112106
2.9062386 -2.8595009 0.73315388
2.9109325 -2.7999022 0.7356959
2.9156275 -2.7402802 0.73823935
2.919385 -2.6925631 0.74027461
2.9231439 -2.64483 0.74231058
2.926904 -2.5970805 0.74434739
2.9306655 -2.5493147 0.7463848
2.934428 -2.5015326 0.74842292
2.9381924 -2.4537342 0.75046164
2.9419572 -2.4059198 0.75250113
2.9457245 -2.358089 0.75454146
2.9494917 -2.3102417 0.75658232
2.9532616 -2.2623777 0.7586239
2.9574971 -2.2082763 0.75489062
2.9589293 -2.1910203 0.77374971
2.9626899 -2.1426473 0.76373106
2.9664638 -2.0947263 0.76577508
2.9702392 -2.0467892 0.76781976
2.9740145 -1.9988356 0.76986521
2.9777923 -1.9508654 0.77191138
2.981571 -1.9028788 0.77395821
2.9853516 -1.8548759 0.77600574
2.9891331 -1.8068565 0.778054
2.9929156 -1.7588208 0.78010285
2.9966996 -1.7107686 0.78215271
3.0004854 -1.6627001 0.78420293
3.0042717 -1.6146148 0.78625405
3.009007 -1.5544846 0.78881896
3.0137441 -1.4943302 0.79138482
3.0175352 -1.4461874 0.79343832
3.0213275 -1.3980283 0.79549235
3.025121 -1.3498523 0.79754734
3.0289164 -1.3016602 0.79960293
3.0327127 -1.2534513 0.80165935
3.0365102 -1.2052262 0.80371636
3.0403097 -1.1569842 0.80577403
3.0441098 -1.1087259 0.80783248
3.0479112 -1.060451 0.8098917
3.0517144 -1.0121592 0.81195152
3.0555184 -0.96385121 0.81401211
3.0593238 -0.91552657 0.81607342
3.0631304 -0.86718535 0.81813532
3.0678909 -0.80673462 0.82071382
3.0726531 -0.74625975 0.82329333
3.0764647 -0.6978603 0.82535791
3.080277 -0.64944434 0.82742292
3.0840914 -0.60101157 0.82948881
3.0879064 -0.55256253 0.83155543
3.0917234 -0.50409645 0.83362281
3.0955412 -0.45561397 0.8356908
3.0993602 -0.40711471 0.83775949
3.1031806 -0.35859874 0.83982879
2.8053632 -4.1429434 0.72641206
2.8090849 -4.0956931 0.7284357
2.8128071 -4.0484262 0.73045987
2.8165305 -4.001143 0.73248494
2.8202553 -3.9538448 0.73451054
2.823981 -3.9065297 0.73653692
2.8286407 -3.8473628 0.73907101
2.833302 -3.7881725 0.74160594
2.8370318 -3.7408013 0.74363464
2.8407638 -3.693414 0.74566418
2.8444972 -3.6460106 0.74769425
2.8482313 -3.5985909 0.7497251
2.8519664 -3.5511556 0.75175667
2.8557034 -3.5037036 0.75378883
2.8594415 -3.4562356 0.75582182
2.8631809 -3.4087517 0.75785542
2.867857 -3.3493733 0.76039833
2.8725348 -3.2899711 0.76294231
2.8762786 -3.2424302 0.76497835
2.8800232 -3.1948736 0.76701492
2.8837695 -3.1473005 0.76905245
2.8875167 -3.0997109 0.77109051
2.8912663 -3.0521059 0.77312928
2.8950157 -3.0044839 0.77516884
2.8987675 -2.956846 0.77720898
2.9025199 -2.9091918 0.77924979
2.9062743 -2.8615215 0.78129137
2.9109688 -2.8019102 0.78384435
2.9156642 -2.7422748 0.78639829
2.9194231 -2.6945472 0.78844231
2.9231827 -2.6468039 0.79048705
2.9269445 -2.5990441 0.7925325
2.930706 -2.5512681 0.79457861
2.9344702 -2.5034754 0.79662544
2.9382348 -2.4556665 0.79867285
2.9420009 -2.4078417 0.80072111
2.9457681 -2.3600001 0.80277002
2.9495373 -2.3121421 0.80481964
2.9529891 -2.2681012 0.80267751
2.9542613 -2.2527697 0.8194474
2.9580219 -2.204402 0.80943382
2.962738 -2.1445115 0.81199878
2.9665127 -2.09658 0.81405163
2.9702888 -2.0486324 0.81610495
2.9740658 -2.0006678 0.81815922
2.9778445 -1.9526875 0.82021403
2.9816239 -1.9046904 0.82226956
2.985405 -1.8566769 0.82432592
2.9891868 -1.8086469 0.82638288
2.9929712 -1.7606009 0.82844061
2.9967556 -1.712538 0.83049893
3.0005417 -1.6644588 0.8325581
3.0043294 -1.616363 0.83461779
3.0090659 -1.5562195 0.83719361
3.0138042 -1.4960519 0.83977038
3.017596 -1.4478984 0.84183264
3.0213892 -1.3997287 0.84389561
3.0251842 -1.3515424 0.84595925
3.0289798 -1.3033395 0.84802365
3.0327768 -1.2551199 0.85008883
3.0365753 -1.2068839 0.85215461
3.040375 -1.1586317 0.85422105
3.0441768 -1.1103628 0.85628831
3.0479789 -1.0620768 0.85835618
3.0517826 -1.0137746 0.86042494
3.055588 -0.96545613 0.86249411
3.0593941 -0.91712081 0.8645643
3.0632019 -0.86876893 0.86663502
3.0675786 -0.81306463 0.86659098
3.0721588 -0.75515389 0.87393045
3.0765393 -0.69940615 0.87388837
3.0803523 -0.65097952 0.87596244
3.0841677 -0.60253602 0.8780371
3.0879834 -0.55407608 0.88011241
3.0918012 -0.50559938 0.88218856
3.0956199 -0.45710617 0.88426536
3.0994401 -0.40859601 0.88634288
3.1032608 -0.36006963 0.88842106
2.8053763 -4.1452432 0.7743383
2.809098 -4.0979824 0.77637047
2.8128209 -4.0507059 0.77840328
2.8165452 -4.0034122 0.78043699
2.8202708 -3.9561033 0.78247136
2.8239982 -3.9087784 0.78450626
2.8286583 -3.8495986 0.78705072
2.8333209 -3.790395 0.78959656
2.8370519 -3.7430139 0.79163402
2.8407845 -3.6956165 0.79367191
2.8445184 -3.6482029 0.79571092
2.8482535 -3.6007731 0.79775023
2.8519897 -3.5533268 0.79979026
2.8557272 -3.5058649 0.80183131
2.8594663 -3.4583867 0.8038727
2.8632064 -3.4108925 0.805915
2.8678834 -3.3515007 0.80846888
2.8725619 -3.2920856 0.81102347
2.8763065 -3.2445347 0.81306827
2.8800523 -3.1969676 0.8151136
2.8838 -3.1493843 0.81715977
2.8875484 -3.1017845 0.81920636
2.8912978 -3.0541687 0.82125366
2.8950489 -3.0065367 0.82330191
2.8988013 -2.9588888 0.82535076
2.9025548 -2.9112241 0.82740033
2.9063096 -2.8635435 0.82945061
2.9110048 -2.8039186 0.83201444
2.9157026 -2.7442703 0.83457935
2.9194617 -2.6965325 0.83663201
2.9232223 -2.6487787 0.83868539
2.9269838 -2.6010082 0.84073943
2.9307468 -2.5532219 0.8427943
2.9345114 -2.5054188 0.84484971
2.9382775 -2.4575996 0.84690589
2.9420447 -2.4097643 0.84896278
2.9458127 -2.3619123 0.85102046
2.9486284 -2.325537 0.84049726
2.9498997 -2.3102131 0.85727251
2.9533539 -2.2661591 0.85513777
2.9580684 -2.20628 0.85771269
2.9627862 -2.1463764 0.86028844
2.9665616 -2.0984344 0.86234975
2.9703388 -2.0504758 0.86441201
2.9741166 -2.0025012 0.86647505
2.9778955 -1.9545103 0.8685385
2.9816759 -1.906503 0.87060279
2.9854581 -1.8584788 0.87266791
2.9892414 -1.8104382 0.87473357
2.993026 -1.7623814 0.87679994
2.9968121 -1.7143081 0.87886715
3.0005987 -1.6662183 0.88093477
3.0043871 -1.618112 0.88300341
3.0091245 -1.5579551 0.88559014
3.0138638 -1.4977744 0.88817793
3.0176566 -1.4496104 0.89024907
3.0214508 -1.4014299 0.89232075
3.0252461 -1.353233 0.89439303
3.029043 -1.3050195 0.89646637
3.0328412 -1.2567894 0.8985402
3.0366402 -1.2085427 0.90061462
3.0404413 -1.1602796 0.90269005
3.0442429 -1.112 0.9047659
3.0480466 -1.063704 0.90684271
3.0518515 -1.015391 0.90892011
3.0556569 -0.96706152 0.91099828
3.0594645 -0.9187156 0.91307718
3.063273 -0.8703528 0.91515672
3.0670829 -0.82197368 0.9172371
3.071847 -0.76147544 0.91983849
3.0766134 -0.70095283 0.92244077
3.0804276 -0.65251535 0.92452371
3.0842433 -0.60406137 0.92660719
3.0880604 -0.55559051 0.92869145
3.0918789 -0.50710315 0.93077642
3.0956988 -0.45859906 0.93286192
3.0995193 -0.41007838 0.93494821
3.1033416 -0.36154091 0.9370352
2.8053887 -4.1475439 0.82228607
2.8091118 -4.1002727 0.82432687
2.8128352 -4.0529857 0.82636821
2.8165605 -4.005682 0.82841039
2.8202872 -3.9583635 0.83045328
2.8240142 -3.9110279 0.8324967
2.8286762 -3.8518355 0.83505243
2.8333399 -3.7926192 0.83760881
2.8370717 -3.7452278 0.8396548
2.8408051 -3.6978199 0.84170163
2.8445396 -3.6503959 0.84374893
2.8482759 -3.6029558 0.84579712
2.8520129 -3.5554998 0.84784579
2.8557515 -3.5080273 0.84989524
2.8594913 -3.4605386 0.85194552
2.8632321 -3.4130337 0.85399652
2.8679099 -3.3536294 0.85656089
2.8725898 -3.2942014 0.85912633
2.8763349 -3.2466402 0.86117977
2.8800824 -3.1990631 0.86323386
2.8838301 -3.1514692 0.86528838
2.8875794 -3.1038589 0.8673439
2.89133 -3.0562327 0.86940008
2.8950813 -3.0085905 0.87145692
2.8988352 -2.960932 0.87351441
2.9025888 -2.9132569 0.87557244
2.9063449 -2.8655658 0.87763149
2.9110413 -2.8059282 0.88020623
2.9157398 -2.7462671 0.88278192
2.9194996 -2.6985188 0.88484305
2.9232609 -2.6507545 0.88690537
2.9270241 -2.6029735 0.88896811
2.930788 -2.5551765 0.8910315
2.9345531 -2.5073633 0.89309567
2.9383202 -2.4595335 0.89516044
2.9417703 -2.4155154 0.89303112
2.9430408 -2.4002044 0.90981174
2.9449036 -2.375314 0.88670576
2.9461753 -2.3599956 0.90348804
2.9496276 -2.3159466 0.90135944
2.9533992 -2.2680516 0.9034273
2.9581161 -2.2081587 0.90601313
2.9628341 -2.1482422 0.90859973
2.9666109 -2.1002896 0.91066986
2.9703884 -2.052321 0.91274077
2.9741673 -2.0043356 0.91481251
2.9779475 -1.9563339 0.91688478
2.981729 -1.9083155 0.91895789
2.9855115 -1.8602813 0.92103171
2.9892952 -1.8122302 0.92310607
2.9930811 -1.7641629 0.92518121
2.9968677 -1.7160791 0.92725712
3.0006554 -1.6679786 0.92933387
3.0044446 -1.6198618 0.93141115
3.0091832 -1.5596918 0.9340086
3.0139232 -1.4994978 0.93660754
3.0177169 -1.4513232 0.93868732
3.021512 -1.403132 0.94076771
3.0253086 -1.3549246 0.94284892
3.0291066 -1.3067003 0.94493097
3.0329056 -1.2584597 0.94701344
3.0367057 -1.2102023 0.94909686
3.0405071 -1.1619284 0.95118093
3.0443103 -1.1136383 0.95326567
3.0481141 -1.0653313 0.95535117
3.0519199 -1.0170078 0.95743746
3.0557261 -0.96866775 0.95952445
3.0595345 -0.92031115 0.96161193
3.063344 -0.87193769 0.96370041
3.0671549 -0.82354766 0.96578956
3.0719202 -0.76303619 0.96840197
3.0766876 -0.7025001 0.97101545
3.0805027 -0.6540519 0.97310698
3.0843194 -0.6055873 0.97519928
3.0881374 -0.5571056 0.97729242
3.0919564 -0.50860763 0.97938615
3.0957773 -0.46009278 0.98148072
3.0995989 -0.41156116 0.98357582
3.1034222 -0.36301294 0.98567176
2.8054044 -4.1504207 0.88225198
2.8091247 -4.1025643 0.87230456
2.8128498 -4.0552664 0.8743546
2.8165755 -4.0079532 0.8764053
2.820303 -3.9606242 0.87845707
2.8249638 -3.9014392 0.88102221
2.8296266 -3.8422301 0.88358873
2.833358 -3.7948444 0.88564265
2.837091 -3.7474425 0.88769734
2.8408256 -3.7000241 0.88975263
2.8445611 -3.6525898 0.89180863
2.8482978 -3.6051393 0.89386553
2.852036 -3.557673 0.8959229
2.8557749 -3.5101905 0.89798081
2.8595159 -3.4626915 0.90003955
2.8638201 -3.4081538 0.90481412
2.8683095 -3.3508985 0.90247464
2.8726177 -3.2963183 0.907251
2.876364 -3.2487466 0.90931302
2.8801115 -3.2011592 0.91137564
2.8838603 -3.1535549 0.91343904
2.88761 -3.1059344 0.91550297
2.8913617 -3.0582981 0.91756785
2.8951144 -3.0106454 0.91963339
2.8988686 -2.9629762 0.92169964
2.9026239 -2.9152906 0.92376637
2.9073198 -2.8556602 0.92635095
2.9120171 -2.7960067 0.92893672
2.9157772 -2.7482643 0.93100607
2.9195385 -2.7005057 0.9330762
2.9233007 -2.6527307 0.93514705
2.9270642 -2.6049397 0.93721843
2.9308288 -2.5571322 0.93929064
2.9345949 -2.5093083 0.94136345
2.938045 -2.4652951 0.9392401
2.9393153 -2.4499893 0.95602793
2.942131 -2.4136119 0.94551152
2.9459014 -2.3657389 0.94758654
2.9496725 -2.3178499 0.94966215
2.9534452 -2.2699444 0.95173872
2.9581628 -2.2100382 0.95433533
2.9628823 -2.1501088 0.9569329
2.9666595 -2.1021457 0.95901197
2.9704385 -2.0541661 0.96109158
2.9742179 -2.0061705 0.96317202
2.9779987 -1.9581585 0.96525311
2.981781 -1.9101297 0.96733469
2.9855649 -1.8620847 0.96941733
2.9893498 -1.8140233 0.97150052
2.9931359 -1.7659451 0.97358459
2.9969237 -1.7178508 0.97566921
3.0007124 -1.6697398 0.97775447
3.0045023 -1.6216124 0.97984064
3.0092418 -1.5614291 0.98244905
3.0139837 -1.5012218 0.9850589
3.0177782 -1.4530365 0.98714721
3.0215738 -1.4048347 0.98923671
3.0253708 -1.3566166 0.99132657
3.0291698 -1.3083819 0.99341738
3.0329695 -1.2601304 0.99550879
3.0367706 -1.2118628 0.99760103
3.0405734 -1.1635783 0.99969387
3.0443771 -1.1152771 1.0017874
3.048182 -1.0669595 1.0038817
3.0519884 -1.0186255 1.0059769
3.0557961 -0.97027451 1.0080726
3.0596049 -0.92190737 1.0101689
3.0634153 -0.87352318 1.0122662
3.0672269 -0.82512259 1.0143641
3.0719934 -0.76459748 1.0169876
3.076762 -0.70404828 1.0196121
3.0805781 -0.65558922 1.0217125
3.0843956 -0.6071136 1.0238136
3.0882142 -0.55862176 1.0259155
3.0920346 -0.51011264 1.0280181
3.0958562 -0.46158683 1.0301216
3.0996785 -0.41304445 1.0322256
3.1035028 -0.36448559 1.03433
2.8054206 -4.1532998 0.94224924
2.8091421 -4.1054301 0.93230826
2.8128674 -4.0581198 0.93436915
2.8165946 -4.0107942 0.93643069
2.8203228 -3.9634514 0.93849295
2.824985 -3.9042499 0.94107181
2.829649 -3.8450255 0.94365168
2.8333819 -3.7976267 0.94571644
2.8371162 -3.750212 0.94778192
2.8408511 -3.7027812 0.94984782
2.8445826 -3.6547849 0.93988991
2.84832 -3.6073241 0.94195533
2.8520591 -3.5598474 0.94402146
2.8557994 -3.5123546 0.94608808
2.8595407 -3.4648454 0.94815564
2.8642192 -3.4054356 0.95074093
2.8688993 -3.3460021 0.95332736
2.8726451 -3.2984359 0.95539719
2.8763924 -3.2508543 0.95746785
2.880141 -3.2032559 0.959539
2.8838904 -3.1556416 0.96161121
2.8876417 -3.1080105 0.9636839
2.8913939 -3.0603642 0.96575725
2.8951471 -3.0127006 0.96783143
2.8989022 -2.9650214 0.96990633
2.9026582 -2.9173257 0.971982
2.9073555 -2.8576822 0.97457755
2.9120543 -2.7980154 0.97717422
2.9158144 -2.7502627 0.97925204
2.9195764 -2.7024939 0.98133087
2.9233398 -2.6547084 0.9834106
2.927104 -2.6069069 0.98549056
2.9308701 -2.5590892 0.9875716
2.9336846 -2.522728 0.97705805
2.9349546 -2.5074303 0.99385142
2.9384053 -2.4634039 0.99173546
2.9421749 -2.4155371 0.99381864
2.945946 -2.3676538 0.99590218
2.9497178 -2.3197541 0.99798691
2.9534914 -2.2718379 1.0000719
2.9582105 -2.2119191 1.0026795
2.9629309 -2.1519761 1.005288
2.9667089 -2.104003 1.0073758
2.9704881 -2.0560129 1.009464
2.9742689 -2.0080066 1.0115534
2.9780505 -1.9599838 1.013643
2.9818344 -1.9119446 1.0157336
2.9856186 -1.863889 1.0178248
2.9894037 -1.815817 1.0199168
2.9931915 -1.7677284 1.0220095
2.9969795 -1.7196233 1.0241029
3.0007696 -1.6715019 1.0261972
3.00456 -1.6233639 1.0282919
3.0093012 -1.5631672 1.0309114
3.0140431 -1.5029466 1.0335321
3.0178387 -1.4547508 1.0356294
3.0216353 -1.4065386 1.0377276
3.0254338 -1.3583096 1.0398263
3.0292335 -1.3100642 1.0419259
3.0330341 -1.2618021 1.0440261
3.0368357 -1.2135237 1.046127
3.0406387 -1.1652288 1.0482286
3.0444438 -1.1169168 1.0503312
3.04825 -1.068589 1.0524342
3.0520573 -1.0202438 1.0545381
3.0558658 -0.97188216 1.0566428
3.0596755 -0.92350429 1.0587478
3.0634863 -0.87510943 1.060854
3.0672989 -0.82669824 1.0629609
3.0716815 -0.77092594 1.0629532
3.0762672 -0.7129432 1.0703455
3.080653 -0.6571272 1.07034
3.0844717 -0.60864103 1.0724499
3.0882916 -0.56013781 1.0745608
3.0921125 -0.51161802 1.0766723
3.0959349 -0.46308193 1.0787843
3.0997584 -0.41452876 1.0808973
3.1035831 -0.36595896 1.0830108
2.8054328 -4.1556039 0.99027252
2.8091583 -4.1082969 0.99234319
2.8128853 -4.0609746 0.99441493
2.8166134 -4.0136356 0.99648738
2.8203425 -3.9662807 0.99856067
2.8250062 -3.9070635 1.0011529
2.8296721 -3.8478224 1.0037463
2.8334055 -3.8004107 1.0058217
2.8371403 -3.7529831 1.007898
2.8408768 -3.7055395 1.0099748
2.8446093 -3.6575303 1.0000231
2.8483477 -3.6100566 1.0020994
2.8520875 -3.5625672 1.004176
2.8558292 -3.5150616 1.0062537
2.8595715 -3.4675391 1.008332
2.8642511 -3.4081132 1.0109309
2.8689332 -3.3486633 1.0135309
2.8726804 -3.3010843 1.0156115
2.8762381 -3.2556591 1.0127695
2.8801699 -3.2053535 1.0077244
2.8839207 -3.1577289 1.0098053
2.8876727 -3.1100881 1.0118866
2.8914256 -3.0624306 1.0139687
2.8951802 -3.0147574 1.0160515
2.898936 -2.9670675 1.0181351
2.902693 -2.9193616 1.0202194
2.9073913 -2.859705 1.0228257
2.9120913 -2.800025 1.0254333
2.9158523 -2.7522619 1.0275203
2.919615 -2.7044823 1.0296075
2.9233794 -2.6566868 1.0316956
2.9268274 -2.6126959 1.0295849
2.9280963 -2.5974112 1.0463837
2.9299593 -2.5725155 1.0232741
2.9312286 -2.5572233 1.0400742
2.9346786 -2.5132017 1.0379646
2.938448 -2.4653409 1.0400555
2.9422181 -2.4174631 1.0421474
2.9459901 -2.3695691 1.0442399
2.9497633 -2.3216593 1.0463332
2.9535377 -2.2737324 1.0484271
2.9582574 -2.2138007 1.0510454
2.9629793 -2.1538444 1.0536649
2.966758 -2.1058605 1.0557613
2.9705381 -2.0578597 1.0578585
2.9743192 -2.0098431 1.0599562
2.9781022 -1.96181 1.062055
2.9818864 -1.9137601 1.0641544
2.985672 -1.865694 1.0662544
2.9894586 -1.8176113 1.0683551
2.9932463 -1.7695123 1.0704565
2.9970357 -1.7213967 1.0725585
3.0008261 -1.6732645 1.0746617
3.0046182 -1.6251161 1.0767652
3.0093601 -1.5649062 1.0793958
3.0141034 -1.5046722 1.0820273
3.0178995 -1.4564658 1.0841336
3.0216975 -1.4082429 1.0862405
3.0254962 -1.3600034 1.0883479
3.0292969 -1.3117474 1.0904564
3.0330982 -1.2634747 1.0925653
3.036901 -1.2151856 1.0946752
3.0407057 -1.1668798 1.0967859
3.0445111 -1.1185573 1.098897
3.0483174 -1.0702183 1.1010088
3.0521255 -1.0218629 1.1031215
3.0559351 -0.97349066 1.105235
3.0597458 -0.92510164 1.107349
3.0635579 -0.87669629 1.1094638
3.0673716 -0.82827443 1.1115793
3.0711858 -0.7798357 1.1136955
3.0759563 -0.7192629 1.1163422
3.0807283 -0.65866584 1.1189896
3.0845475 -0.61016876 1.1211085
3.0883682 -0.56165504 1.1232282
3.0921905 -0.51312459 1.1253483
3.0960133 -0.46457744 1.1274694
3.099838 -0.41601351 1.1295912
3.1036637 -0.36743319 1.1317135
2.8054454 -4.1579094 1.0383171
2.8091719 -4.1105924 1.0403966
2.8128996 -4.0632596 1.042477
2.8166285 -4.0159097 1.0445579
2.8203592 -3.9685447 1.0466394
2.8250232 -3.9093149 1.0492425
2.82969 -3.8500609 1.0518469
2.8334248 -3.8026392 1.053931
2.8371606 -3.7552013 1.0560158
2.8408976 -3.7077472 1.0581014
2.844636 -3.6602771 1.0601877
2.8483758 -3.6127908 1.0622749
2.8521168 -3.5652878 1.0643625
2.8558588 -3.5177693 1.0664507
2.8596022 -3.4702344 1.06854
2.8642833 -3.4107921 1.0711522
2.8689671 -3.3513265 1.073766
2.8727148 -3.3037345 1.0758574
2.876647 -3.2534297 1.0708221
2.8802071 -3.2079775 1.0679874
2.8839583 -3.1603398 1.0700791
2.887711 -3.1126857 1.0721713
2.8914661 -3.065016 1.0742644
2.895221 -3.0173295 1.0763583
2.8989782 -2.9696267 1.0784526
2.9027364 -2.9219072 1.0805477
2.9074264 -2.8617287 1.0710958
2.9121275 -2.8020353 1.0737141
2.9158897 -2.754262 1.0758095
2.9196534 -2.7064724 1.0779057
2.9231012 -2.6624856 1.0758011
2.9243693 -2.6472068 1.092607
2.9271841 -2.6108434 1.0821003
2.9309518 -2.5630045 1.0841986
2.934721 -2.5151496 1.0862976
2.9384909 -2.467278 1.0883975
2.9422622 -2.41939 1.0904979
2.9460347 -2.3714857 1.0925993
2.9498081 -2.323565 1.0947013
2.9535835 -2.2756283 1.0968039
2.9583046 -2.2156827 1.0994333
2.9630272 -2.1557136 1.1020637
2.9668074 -2.1077189 1.1041688
2.970588 -2.0597081 1.1062748
2.97437 -2.0116808 1.1083815
2.9781542 -1.963637 1.1104888
2.9819388 -1.9155767 1.1125971
2.9857254 -1.8674999 1.1147057
2.9895134 -1.8194067 1.1168152
2.9933012 -1.771297 1.1189253
2.9970915 -1.7231709 1.1210365
3.0008829 -1.675028 1.123148
3.0046756 -1.626869 1.1252606
3.0090361 -1.571378 1.1252646
3.0135965 -1.513716 1.1326538
3.0179605 -1.4581815 1.1326597
3.021759 -1.4099481 1.1347754
3.0255587 -1.3616977 1.1368917
3.0293601 -1.3134311 1.139009
3.0331624 -1.265148 1.1411268
3.0369661 -1.2168483 1.1432453
3.0407712 -1.1685318 1.1453646
3.0445778 -1.1201986 1.1474847
3.0483851 -1.071849 1.1496054
3.0521944 -1.0234827 1.1517267
3.056005 -0.97509992 1.1538491
3.0598166 -0.92670029 1.155972
3.0636292 -0.87828434 1.1580957
3.0674434 -0.82985121 1.1602201
3.071259 -0.78140187 1.1623453
3.0760307 -0.72081578 1.1650028
3.0808034 -0.66020536 1.1676613
3.0846238 -0.61169744 1.1697891
3.0884457 -0.56317288 1.1719176
3.092268 -0.51463187 1.1740468
3.0960927 -0.46607372 1.1761768
3.0999179 -0.4174991 1.1783071
3.103744 -0.3689079 1.1804386
2.8054583 -4.1602159 1.0863832
2.8091855 -4.1128883 1.0884712
2.8129137 -4.065546 1.0905601
2.8166435 -4.0181856 1.0926501
2.8203747 -3.9708102 1.0947404
2.8250408 -3.911567 1.0973543
2.8297079 -3.8523009 1.0999693
2.8334436 -3.8048685 1.1020621
2.8371797 -3.7574203 1.1041557
2.8409178 -3.7099559 1.1062498
2.8446572 -3.6624753 1.1083448
2.8483977 -3.6149786 1.1104405
2.8521397 -3.5674655 1.1125369
2.8558826 -3.519937 1.1146339
2.8596275 -3.4723916 1.1167315
2.8643095 -3.4129367 1.119355
2.8689935 -3.3534577 1.1219794
2.8727424 -3.3058555 1.1240795
2.876493 -3.2582376 1.1261808
2.8802438 -3.2106028 1.1282824
2.8839965 -3.1629522 1.1303848
2.8877506 -3.1152852 1.1324881
2.891506 -3.0676019 1.1345919
2.8952622 -3.0199025 1.1366965
2.8990202 -2.9721868 1.1388021
2.9027793 -2.9244545 1.140908
2.9074712 -2.8642592 1.1314648
2.9121737 -2.8045499 1.134097
2.9157448 -2.7589533 1.1312648
2.9168966 -2.7458146 1.1608959
2.9187407 -2.7199166 1.1136173
2.9198935 -2.7067692 1.1432492
2.9234672 -2.6611414 1.1404184
2.9272346 -2.6133058 1.1425267
2.9310033 -2.565454 1.1446362
2.9347625 -2.5170979 1.1346527
2.9385333 -2.4692161 1.1367613
2.9423056 -2.4213178 1.1388704
2.9460793 -2.3734031 1.1409805
2.9498541 -2.3254719 1.1430912
2.9536297 -2.2775245 1.1452026
2.9583516 -2.217566 1.147843
2.9630754 -2.1575835 1.1504843
2.9668565 -2.1095786 1.1525983
2.9706383 -2.0615568 1.1547129
2.9744215 -2.013519 1.1568283
2.9782057 -1.9654648 1.1589445
2.9819915 -1.917394 1.1610612
2.9857786 -1.8693067 1.163179
2.989567 -1.8212029 1.1652972
2.9933569 -1.7730826 1.1674165
2.997148 -1.7249459 1.1695361
3.0009398 -1.6767925 1.1716566
3.0047336 -1.6286227 1.1737777
3.0085282 -1.5804365 1.1758997
3.013274 -1.5201793 1.1785532
3.0180211 -1.4598981 1.1812078
3.0218205 -1.411654 1.1833322
3.0256217 -1.3633932 1.1854573
3.0294232 -1.3151159 1.1875834
3.033227 -1.266822 1.1897099
3.0370321 -1.2185115 1.1918374
3.0408375 -1.1701841 1.1939654
3.0446448 -1.1218406 1.1960944
3.0484536 -1.0734802 1.1982239
3.0522633 -1.0251034 1.2003542
3.0560741 -0.9767096 1.2024854
3.0598867 -0.92829943 1.2046173
3.0637007 -0.87987256 1.2067497
3.0675159 -0.83142895 1.208883
3.0713322 -0.78296894 1.211017
3.0761044 -0.72236902 1.2136855
3.0808794 -0.66174537 1.2163552
3.0847001 -0.61322689 1.2184917
3.0885229 -0.5646916 1.2206292
3.0923467 -0.51613939 1.2227672
3.0961711 -0.46757084 1.2249061
3.0999975 -0.41898534 1.2270457
3.1038246 -0.37038311 1.2291856
2.8054705 -4.1625233 1.1344708
2.8091991 -4.1151857 1.1365677
2.812928 -4.0678325 1.1386653
2.8166592 -4.0204625 1.1407636
2.8203909 -3.9730766 1.1428627
2.8250575 -3.9138205 1.1454875
2.829726 -3.8545415 1.1481133
2.8334622 -3.8070991 1.150215
2.8372002 -3.7596407 1.152317
2.8409386 -3.7121658 1.1544198
2.8446786 -3.664675 1.1565231
2.8484199 -3.6171682 1.1586277
2.8521626 -3.5696447 1.1607326
2.8559062 -3.5221052 1.1628385
2.8596516 -3.4745498 1.164945
2.8643351 -3.415082 1.1675791
2.8690205 -3.3555899 1.1702144
2.8727701 -3.3079774 1.1723233
2.8765209 -3.260349 1.1744331
2.8802736 -3.2127042 1.1765437
2.884027 -3.1650431 1.1786547
2.8877819 -3.1173658 1.1807666
2.8915381 -3.0696721 1.1828792
2.8952949 -3.0219622 1.1849927
2.8990543 -2.974236 1.1871067
2.9028139 -2.9264936 1.1892215
2.9075158 -2.8667917 1.191866
2.9112692 -2.8185098 1.1818961
2.9125359 -2.8032515 1.1987164
2.9159844 -2.7592666 1.1966288
2.9197495 -2.7114503 1.1987469
2.9235168 -2.6636183 1.2008659
2.9272845 -2.6157694 1.202985
2.9310541 -2.5679042 1.2051053
2.9348145 -2.5195355 1.1951284
2.9385867 -2.4716403 1.197248
2.9423599 -2.4237289 1.1993684
2.9461343 -2.3758008 1.2014891
2.9499106 -2.3278565 1.2036105
2.9536879 -2.279896 1.2057329
2.9581344 -2.2230802 1.2013136
2.963124 -2.1594543 1.1989268
2.9669054 -2.111439 1.2010494
2.9706881 -2.0634069 1.203173
2.974472 -2.0153584 1.2052974
2.9782577 -1.9672935 1.207422
2.9820445 -1.919212 1.2095478
2.9858322 -1.8711143 1.2116741
2.9896216 -1.8229998 1.2138013
2.9934118 -1.774869 1.2159293
2.9972041 -1.7267216 1.2180576
3.0009971 -1.6785575 1.2201869
3.0047915 -1.6303772 1.222317
3.0085869 -1.5821804 1.2244476
3.0133338 -1.52191 1.2271122
3.0180821 -1.4616156 1.2297776
3.021883 -1.4133606 1.2319112
3.0256846 -1.3650893 1.234045
3.0294871 -1.3168013 1.2361799
3.0332916 -1.2684966 1.2383156
3.0370967 -1.2201753 1.2404517
3.040904 -1.1718376 1.2425885
3.0447114 -1.1234832 1.2447263
3.0485213 -1.0751123 1.2468647
3.0523317 -1.0267245 1.249004
3.056144 -0.97832018 1.2511438
3.059957 -0.92989933 1.2532846
3.063772 -0.88146168 1.2554259
3.0675879 -0.83300728 1.257568
3.0714052 -0.7845363 1.2597109
3.0752237 -0.73604882 1.2618546
3.0799994 -0.6754151 1.264535
3.0847764 -0.61475658 1.2672168
3.0885999 -0.56621063 1.2693629
3.0924242 -0.51764786 1.2715098
3.0962501 -0.46906844 1.2736574
3.1000774 -0.42047217 1.2758058
3.1039054 -0.37185919 1.2779551
2.8054833 -4.1648312 1.1825802
2.8092124 -4.1174841 1.1846858
2.8129427 -4.0701203 1.186792
2.8166742 -4.0227399 1.1888992
2.8213403 -3.9634919 1.1915337
2.8260083 -3.9042196 1.1941694
2.8297441 -3.8567829 1.1962787
2.8334811 -3.8093307 1.1983891
2.8372195 -3.7618613 1.2005
2.8409593 -3.7143764 1.2026113
2.8447003 -3.6668754 1.2047237
2.8484423 -3.6193583 1.2068366
2.8521857 -3.5718246 1.2089505
2.8559306 -3.5242748 1.2110649
2.8596766 -3.4767089 1.2131802
2.864361 -3.417228 1.2158253
2.8690472 -3.3577232 1.2184714
2.8727982 -3.3101008 1.2205889
2.8765502 -3.2624614 1.2227074
2.8803029 -3.2148066 1.2248267
2.8840573 -3.1671352 1.2269464
2.8878131 -3.1194475 1.2290672
2.8915696 -3.0717432 1.2311885
2.895328 -3.0240228 1.2333105
2.8990877 -2.9762862 1.2354332
2.9028485 -2.9285333 1.2375567
2.9066014 -2.8802567 1.2275922
2.908026 -2.8630993 1.2465222
2.9122562 -2.8090799 1.2428685
2.9160216 -2.7612698 1.2449948
2.9197886 -2.7134433 1.2471215
2.9235556 -2.6656005 1.2492491
2.9273252 -2.6177413 1.2513773
2.9310954 -2.5698659 1.2535063
2.9348671 -2.5219738 1.255636
2.9386404 -2.4740658 1.2577662
2.9424145 -2.426141 1.2598974
2.9461904 -2.3782003 1.2620294
2.9499671 -2.3302426 1.2641618
2.9537456 -2.282269 1.2662953
2.958698 -2.2189248 1.2600081
2.9631841 -2.1617942 1.2595119
2.9669666 -2.1137655 1.2616459
2.9707506 -2.0657206 1.2637802
2.9745357 -2.0176587 1.2659154
2.9783223 -1.9695805 1.2680511
2.9820969 -1.9210308 1.2580563
2.9858856 -1.8729224 1.2601913
2.9896758 -1.8247976 1.2623274
2.9934673 -1.776656 1.2644639
2.9972603 -1.728498 1.2666011
3.0010536 -1.6803237 1.2687395
3.0048494 -1.6321325 1.2708783
3.008646 -1.583925 1.2730179
3.0133939 -1.5236413 1.2756932
3.0181434 -1.4633336 1.27837
3.0219445 -1.4150681 1.2805121
3.0257468 -1.3667859 1.282655
3.0295506 -1.3184875 1.2847984
3.033356 -1.2701721 1.2869426
3.0371618 -1.2218401 1.289088
3.0409698 -1.1734918 1.2912338
3.0447791 -1.1251266 1.2933804
3.0485892 -1.0767448 1.2955275
3.0524011 -1.0283467 1.2976756
3.0562134 -0.97993177 1.2998244
3.0600278 -0.93149996 1.3019739
3.0638435 -0.88305157 1.3041241
3.0676603 -0.83458662 1.3062751
3.0714788 -0.7861048 1.3084269
3.0752981 -0.73760653 1.3105793
3.0800745 -0.67695922 1.3132709
3.0848527 -0.61628747 1.3159636
3.0886772 -0.56773061 1.3181188
3.0925026 -0.51915711 1.3202746
3.096329 -0.47056684 1.3224311
3.100157 -0.42195982 1.3245883
3.1039863 -0.3733362 1.3267462
2.982136 -1.9223956 1.2944511
2.9859257 -1.8742793 1.296593
2.9897165 -1.8261464 1.2987353
2.9935086 -1.777997 1.3008788
2.9973021 -1.729831 1.3030227
3.0010967 -1.6816485 1.3051674
3.0048926 -1.6334496 1.3073128
3.0086899 -1.5852342 1.3094592
3.0134387 -1.5249405 1.3121428
3.018189 -1.4646229 1.3148276
3.0219908 -1.4163492 1.3169764
3.025794 -1.3680592 1.319126
3.0295985 -1.3197526 1.3212762
3.0334041 -1.2714292 1.323427
3.0372112 -1.2230893 1.3255788
3.0410194 -1.1747329 1.3277315
3.0448291 -1.1263599 1.3298845
3.04864 -1.0779699 1.3320385
3.0524526 -1.0295635 1.3341932
3.0562663 -0.98114032 1.3363484
3.0600808 -0.93270087 1.3385047
3.0638974 -0.88424426 1.3406616
3.0677147 -0.83577138 1.3428192
3.0715337 -0.78728145 1.3449774
3.0753539 -0.73877519 1.3471369
3.0801308 -0.67811787 1.3498368
3.0849102 -0.61743593 1.3525378
3.0887349 -0.56887108 1.3546995
3.0925605 -0.52028948 1.3568621
3.0963883 -0.47169107 1.3590255
3.1002169 -0.4230758 1.3611891
3.1040466 -0.37444425 1.363354
2.9641008 -2.0053666 -1.5615661
2.9678345 -1.9579363 -1.5599371
2.9715693 -1.9104896 -1.5583075
2.9753051 -1.863027 -1.5566772
2.9790423 -1.8155481 -1.5550466
2.9827812 -1.7680533 -1.5534152
2.9865212 -1.7205424 -1.5517836
2.9911978 -1.6611305 -1.5497431
2.9958758 -1.6016951 -1.5477015
2.99962 -1.5541278 -1.5460675
3.0033658 -1.5065446 -1.5444335
3.007112 -1.4589452 -1.5427983
3.0108609 -1.4113296 -1.541163
3.0146096 -1.363698 -1.5395273
3.0183601 -1.3160502 -1.5378903
3.0221119 -1.2683862 -1.5362533
3.0258653 -1.2207062 -1.5346158
3.0296195 -1.1730099 -1.5329776
3.0343144 -1.1133659 -1.530929
3.0390112 -1.0536983 -1.5288796
3.0427699 -1.0059454 -1.5272397
3.0465305 -0.95817631 -1.5255989
3.0502918 -0.91039097 -1.5239576
3.054054 -0.8625893 -1.5223159
3.0578184 -0.81477183 -1.5206735
3.061584 -0.76693743 -1.5190305
3.0653501 -0.71908748 -1.5173873
3.0691183 -0.67122096 -1.5157433
3.0719442 -0.63531095 -1.5145097
2.8813634 -3.0570755 -1.5859106
2.8859961 -2.9982259 -1.5838869
2.889703 -2.9511275 -1.5822672
2.8934119 -2.9040134 -1.5806469
2.8971214 -2.8568838 -1.5790262
2.9008327 -2.8097377 -1.5774051
2.9045451 -2.7625759 -1.5757831
2.9082584 -2.7153983 -1.5741607
2.9119732 -2.6682048 -1.5725379
2.9168878 -2.6060243 -1.5653428
2.9212761 -2.5506344 -1.5566939
2.9249947 -2.5033822 -1.5550673
2.9287152 -2.4561143 -1.5534395
2.9324374 -2.4088309 -1.5518113
2.936161 -2.3615313 -1.5501828
2.9398854 -2.3142154 -1.5485541
2.9436114 -2.2668839 -1.5469244
2.9473381 -2.2195363 -1.5452939
2.9519989 -2.1603279 -1.5432553
2.956661 -2.1010971 -1.5412161
2.960392 -2.0536933 -1.539584
2.9641373 -2.006727 -1.5261438
2.9678717 -1.9592886 -1.5245086
2.9716065 -1.9118342 -1.5228727
2.975343 -1.8643638 -1.5212363
2.9790812 -1.8168772 -1.5195992
2.9828205 -1.7693747 -1.5179617
2.9865608 -1.7218561 -1.5163238
2.9912381 -1.6624346 -1.5142753
2.9959173 -1.6029892 -1.5122259
2.9996619 -1.5554143 -1.510586
3.0034084 -1.5078233 -1.5089455
3.0071557 -1.4602162 -1.5073041
3.0109041 -1.4125928 -1.5056626
3.0146544 -1.3649536 -1.5040201
3.0184057 -1.3172979 -1.5023773
3.0221579 -1.269626 -1.500734
3.0259116 -1.221938 -1.4990901
3.0296671 -1.174234 -1.4974453
3.0343626 -1.1145805 -1.4953891
3.0390601 -1.054903 -1.4933318
3.0428195 -1.0071422 -1.4916854
3.0465801 -0.95936537 -1.4900384
3.0503421 -0.9115724 -1.4883908
3.054106 -0.86376297 -1.4867429
3.0578701 -0.81593698 -1.4850943
3.061636 -0.76809537 -1.483445
3.0654032 -0.72023743 -1.4817952
3.0691721 -0.67236304 -1.4801449
3.0719986 -0.63644695 -1.4789065
2.8819277 -3.0527544 -1.5302206
2.886034 -3.000761 -1.5250552
2.8897421 -2.9536502 -1.5234251
2.8934519 -2.9065237 -1.5217947
2.8971624 -2.8593807 -1.5201637
2.9008751 -2.8122225 -1.5185319
2.904588 -2.7650478 -1.5168997
2.9083028 -2.7178576 -1.5152669
2.9120185 -2.6706512 -1.5136336
2.9164352 -2.6146936 -1.5087465
2.9213233 -2.5530491 -1.4977591
2.9250438 -2.5057843 -1.496122
2.928766 -2.4585037 -1.4944841
2.9324884 -2.411207 -1.4928455
2.9362128 -2.3638947 -1.4912066
2.9399378 -2.3165662 -1.4895673
2.9436655 -2.2692218 -1.4879271
2.9473934 -2.2218614 -1.4862865
2.952055 -2.1626372 -1.4842349
2.9567184 -2.1033902 -1.4821826
2.9604511 -2.0559733 -1.4805399
2.964185 -2.0085409 -1.4788967
2.9679198 -1.9610925 -1.4772532
2.9716563 -1.9136277 -1.4756089
2.9753938 -1.866147 -1.4739642
2.9791327 -1.8186505 -1.4723189
2.9828725 -1.7711374 -1.4706728
2.9866142 -1.7236083 -1.4690263
2.9912922 -1.6641737 -1.4669676
2.9959731 -1.6047158 -1.4649078
2.9997182 -1.5571303 -1.4632595
3.0034654 -1.509529 -1.4616102
3.0072136 -1.4619114 -1.4599607
3.0109627 -1.4142778 -1.4583107
3.0147133 -1.3666281 -1.45666
3.018466 -1.318962 -1.4550089
3.0222187 -1.2712801 -1.4533571
3.0259738 -1.2235817 -1.4517047
3.0297296 -1.1758672 -1.4500518
3.0344265 -1.1162004 -1.4479849
3.039125 -1.0565101 -1.4459171
3.0428851 -1.0087388 -1.4442621
3.0466468 -0.96095139 -1.4426066
3.0504098 -0.91314781 -1.4409509
3.0541739 -0.86532789 -1.4392942
3.0579398 -0.81749183 -1.4376373
3.0617065 -0.76963949 -1.4359795
3.065474 -0.72177088 -1.4343216
3.0692441 -0.67388612 -1.4326626
2.8823638 -3.0504053 -1.4678327
2.8860719 -3.0032976 -1.4661931
2.8897815 -2.9561739 -1.4645525
2.8934917 -2.9090347 -1.4629115
2.8972042 -2.8618793 -1.4612701
2.9009171 -2.814708 -1.459628
2.9046309 -2.7675209 -1.4579854
2.9083474 -2.7203178 -1.4563422
2.9120638 -2.6730986 -1.4546987
2.9167123 -2.6140523 -1.4526432
2.9213617 -2.5549817 -1.4505869
2.9250832 -2.5077066 -1.4489415
2.9288054 -2.4604158 -1.4472952
2.9325294 -2.4131095 -1.4456484
2.9362545 -2.3657863 -1.4440011
2.939981 -2.3184481 -1.4423532
2.9437084 -2.2710931 -1.4407048
2.9474378 -2.2237225 -1.4390558
2.9521 -2.1644857 -1.4369938
2.9567654 -2.1052253 -1.434931
2.9604986 -2.0577986 -1.4332801
2.9642329 -2.0103559 -1.4316285
2.9679687 -1.9628968 -1.4299767
2.9717059 -1.915422 -1.428324
2.9754443 -1.867931 -1.4266708
2.9791837 -1.8204241 -1.4250171
2.9829249 -1.7729008 -1.423363
2.9866672 -1.7253616 -1.4217081
2.9909692 -1.670584 -1.4221714
2.9954686 -1.6136671 -1.4154496
2.9997742 -1.558847 -1.4159118
3.0035217 -1.5112352 -1.4142541
3.0072711 -1.4636077 -1.4125963
3.0110214 -1.4159635 -1.4109377
3.0147731 -1.3683032 -1.4092788
3.0185256 -1.3206269 -1.4076192
3.02228 -1.2729344 -1.405959
3.0260358 -1.2252257 -1.4042982
3.0297928 -1.1775007 -1.4026368
3.0335503 -1.1297598 -1.400975
3.0382497 -1.0700598 -1.3988969
3.0429511 -1.010336 -1.3968178
3.0467136 -0.96253836 -1.3951539
3.0504773 -0.91472423 -1.3934896
3.0542419 -0.86689389 -1.3918245
3.0580089 -0.81904745 -1.3901591
3.0617762 -0.77118468 -1.3884931
3.0655453 -0.72330546 -1.3868263
3.0693154 -0.67541021 -1.385159
2.8823936 -3.0524459 -1.4207268
2.886102 -3.0053279 -1.4190787
