# .PCD v0.7 - Point Cloud Data file format
VERSION 0.7
FIELDS x y z
SIZE 4 4 4
TYPE F F F
COUNT 1 1 1
WIDTH 1468
HEIGHT 1
VIEWPOINT 0 0 0 1 0 0 0
POINTS 1468
DATA ascii
3.2502215 -0.79987216 -0.78268099
3.32775 -0.8020159 -0.78311461
3.4094934 -0.80431712 -0.78357124
3.4910505 -0.81814855 -0.78384078
3.5771105 -0.83274353 -0.78412539
3.6785998 -0.82406843 -0.7848779
3.7754099 -0.8397283 -0.78521025
3.878062 -0.85633308 -0.78556257
3.980911 -0.88711029 -0.78568763
3.9932909 -0.86083168 -0.78618592
4.1096902 -0.87920618 -0.78659272
4.2338243 -0.89880145 -0.78702652
3.0161369 -0.71664602 -0.78646779
3.0656781 -0.7249226 -0.78277427
3.1295679 -0.73525739 -0.78299367
3.2005863 -0.73566705 -0.78341591
3.271095 -0.74679583 -0.78366232
3.349591 -0.74757355 -0.7841239
3.4277995 -0.75961292 -0.78440219
3.5102293 -0.77230203 -0.78469539
3.5972307 -0.78569508 -0.78500497
3.6998427 -0.77551675 -0.78578866
3.7977672 -0.78982657 -0.7861495
3.9016311 -0.80500424 -0.78653193
4.0057364 -0.83441222 -0.78668678
4.122859 -0.85198563 -0.78711092
3.021353 -0.66131687 -0.77749765
3.0805187 -0.68501365 -0.78350711
3.1411436 -0.70468593 -0.7835561
3.1489031 -0.68419379 -0.78393334
3.2167215 -0.69384038 -0.78418738
3.2921777 -0.69318694 -0.78465354
3.3672438 -0.70357132 -0.78493965
3.4416337 -0.7258321 -0.78503013
3.450912 -0.70317554 -0.78545117
3.5295863 -0.72602916 -0.78555793
3.617543 -0.73819673 -0.78589308
3.715905 -0.73880422 -0.78647733
3.8146765 -0.75208414 -0.78685975
3.0246477 -0.61601484 -0.76891464
3.0280464 -0.57550395 -0.76593292
3.0322924 -0.52488863 -0.76220763
3.0365367 -0.47429639 -0.75848383
3.0407789 -0.42373067 -0.75476199
3.0450191 -0.37318808 -0.75104195
3.0492568 -0.32267186 -0.74732381
3.0534933 -0.27217877 -0.7436074
3.0577271 -0.22171213 -0.7398929
3.061959 -0.1712684 -0.73618013
3.0661886 -0.12085111 -0.73246914
3.0704162 -0.070456833 -0.72876018
3.073797 -0.030159831 -0.72579414
2.9169073 -1.9027529 -0.83300257
2.9621046 -1.9208446 -0.82807112
3.0048447 -1.9037707 -0.81824744
3.2367673 -1.9247923 -0.82036364
3.5111578 -1.9496632 -0.82286745
2.9203498 -1.8625407 -0.81983954
3.0488861 -1.8861766 -0.80812442
3.0942895 -1.8680389 -0.79768848
3.2883959 -1.9060459 -0.8094126
3.3417583 -1.8866692 -0.79809356
3.5725543 -1.9296181 -0.81094092
3.9151309 -1.9580374 -0.81278336
2.9239106 -1.8224063 -0.80672073
2.965086 -1.8165734 -0.77712613
3.141118 -1.8493316 -0.7869249
3.1894414 -1.8300273 -0.77581799
3.396945 -1.8666303 -0.78638768
3.4540501 -1.8458955 -0.77427506
3.6362092 -1.9088364 -0.79857552
3.7022502 -1.887275 -0.78574663
3.9924247 -1.935653 -0.79915845
4.0729251 -1.9123402 -0.7849685
2.9280901 -1.7710884 -0.80291921
3.3483212 -1.7930231 -0.76727068
3.438729 -1.8131249 -0.76749325
3.5346482 -1.8344522 -0.76772922
3.544754 -1.8129985 -0.76813573
3.6472781 -1.835047 -0.76840007
3.7693264 -1.8502874 -0.77077317
3.885078 -1.8600445 -0.76943427
4.0233946 -1.8616719 -0.77024364
4.1587467 -1.8888121 -0.7706244
2.9323876 -1.7198629 -0.79916155
3.1136644 -1.7202892 -0.76702452
3.1904914 -1.7368114 -0.76722258
3.2759671 -1.7443223 -0.76761806
3.3619919 -1.7625084 -0.76784486
3.4579518 -1.7712593 -0.76828372
3.5600109 -1.7806101 -0.76874971
3.668813 -1.7905319 -0.76924723
3.785002 -1.8011775 -0.76977789
3.9032927 -1.824466 -0.77011728
4.0363593 -1.8371029 -0.7707178
4.049396 -1.8123977 -0.77119446
4.1795235 -1.8506618 -0.77136445
2.9366829 -1.6686642 -0.79540557
2.9824591 -1.6627095 -0.76715982
3.048353 -1.6861882 -0.76717943
3.0559328 -1.667681 -0.76752347
3.1255324 -1.6919162 -0.76755339
3.2071044 -1.6979625 -0.76794869
3.2934341 -1.7043989 -0.76836675
3.384985 -1.7111847 -0.76881051
3.4822075 -1.7184331 -0.76928121
3.580518 -1.7370753 -0.76957488
3.6905286 -1.7456436 -0.77010149
3.7014775 -1.7230108 -0.77053231
3.8080838 -1.7547691 -0.77066475
3.9277976 -1.776603 -0.77103639
4.0690966 -1.7750633 -0.77191496
4.2074943 -1.7993042 -0.77236068
2.9409761 -1.6174893 -0.79165167
2.9970145 -1.6264277 -0.76783252
3.0711942 -1.6304121 -0.76821619
3.1454813 -1.6442285 -0.76844215
3.2280509 -1.6489794 -0.76886427
3.3154955 -1.6539736 -0.7693122
3.4082248 -1.6593091 -0.7697866
3.4968989 -1.6864367 -0.7698853
3.5067554 -1.6649709 -0.77029061
3.5960243 -1.7041581 -0.77019888
3.6064286 -1.68207 -0.77061737
3.7180119 -1.6888325 -0.77118266
3.8314075 -1.7078753 -0.77156115
3.9463408 -1.7403827 -0.77173197
3.9587932 -1.7160611 -0.77219892
4.0956101 -1.7248182 -0.77288449
4.2357903 -1.7473483 -0.7733686
2.9464064 -1.5668697 -0.78828907
3.0080044 -1.5990343 -0.76834029
3.0190675 -1.5714567 -0.7688514
3.0904303 -1.5834405 -0.76908928
3.1656277 -1.5960689 -0.7693398
3.2492416 -1.5994256 -0.76979071
3.3377888 -1.6030192 -0.77026772
3.4270179 -1.6173601 -0.77057582
3.5216331 -1.6325672 -0.77090251
3.6274095 -1.637531 -0.77146167
3.7402444 -1.6428747 -0.77205729
3.8490536 -1.6723976 -0.77223927
3.860899 -1.6485794 -0.77269435
3.9776061 -1.6793146 -0.7729044
4.1224222 -1.674005 -0.77386498
2.9520221 -1.5181456 -0.78925395
2.9690344 -1.5148594 -0.76946127
3.0376565 -1.5251215 -0.7697103
3.1059673 -1.5454993 -0.76979452
3.1177015 -1.5168462 -0.77032709
3.1860034 -1.5473599 -0.77024782
3.2706506 -1.5493643 -0.77072662
3.3558106 -1.561826 -0.77104008
3.4459858 -1.5750213 -0.77137244
3.5466692 -1.5780423 -0.77193207
3.6538949 -1.5813057 -0.7725274
3.7570612 -1.6081131 -0.77271891
3.7683487 -1.5847805 -0.77316302
3.8787942 -1.6126006 -0.77338207
4.0029192 -1.6298726 -0.77385384
4.1427221 -1.6355352 -0.7746073
2.9529812 -1.4735548 -0.7912851
2.983397 -1.478338 -0.77013665
3.056422 -1.4783461 -0.77057743
3.1295173 -1.487993 -0.77086341
3.2065835 -1.4981639 -0.77116489
3.2879534 -1.508903 -0.77148318
3.3785789 -1.5097885 -0.77201629
3.4603226 -1.5430205 -0.77197456
3.4747705 -1.5107691 -0.7725814
3.5668907 -1.5340025 -0.77276367
3.5770829 -1.5118051 -0.77318263
3.6753294 -1.5358028 -0.77338982
3.7853963 -1.5495415 -0.77383357
3.9028654 -1.5642035 -0.77430701
4.0285101 -1.5798864 -0.77481359
4.1563578 -1.6096942 -0.77510589
4.1700716 -1.5837059 -0.77560747
2.9572666 -1.4224818 -0.78753614
3.0051422 -1.4230459 -0.77115893
3.0677722 -1.4500518 -0.77110183
3.0792012 -1.4215643 -0.77162999
3.1493762 -1.4395006 -0.7717647
3.2190382 -1.4683926 -0.77171987
3.2315814 -1.4384062 -0.77227879
3.3098063 -1.4578028 -0.77243865
3.4015892 -1.4571965 -0.77300268
3.4941874 -1.4674308 -0.77339685
3.5924702 -1.4782934 -0.77381551
3.6969779 -1.4898448 -0.77426094
3.8083217 -1.502151 -0.77473545
3.9271934 -1.5152898 -0.77524197
4.0543847 -1.5293477 -0.77578402
4.1907992 -1.5444252 -0.77636528
2.9615488 -1.3714325 -0.78378874
3.0234568 -1.376477 -0.77201998
3.0945437 -1.3833206 -0.77233893
3.1694293 -1.3905301 -0.77267504
3.2484279 -1.3981359 -0.77302951
3.3274443 -1.4165583 -0.77320981
3.3363292 -1.3957825 -0.77359813
3.4201946 -1.4146724 -0.77380025
3.513787 -1.4236825 -0.77422017
3.6131527 -1.4332488 -0.77466613
3.7188449 -1.4434242 -0.77514082
3.8314857 -1.4542687 -0.77564675
3.9517832 -1.4658501 -0.77618694
4.0739698 -1.4910932 -0.77651846
4.0871234 -1.4654009 -0.77701193
4.2116857 -1.5048435 -0.77712929
2.9697161 -1.3218412 -0.78136671
3.0419683 -1.3294072 -0.77289021
3.1139069 -1.3350544 -0.77323365
3.1815641 -1.3608992 -0.77322578
3.1937842 -1.3310583 -0.77378041
3.2696998 -1.3472846 -0.77397734
3.3497357 -1.3644328 -0.77418435
3.4389718 -1.3717554 -0.77460515
3.5286033 -1.3906119 -0.77484268
3.5385437 -1.3684251 -0.77526021
3.628792 -1.3991897 -0.77530944
3.6392863 -1.3763356 -0.7757411
3.7409329 -1.3965347 -0.77602959
3.8548918 -1.4058864 -0.77656746
3.9703913 -1.4284379 -0.77690196
2.9760325 -1.2747667 -0.78203136
2.9986932 -1.2590106 -0.7737633
3.0606539 -1.281893 -0.77376872
3.1334579 -1.2863207 -0.77413696
3.2101941 -1.2909875 -0.77452523
3.2868669 -1.3062475 -0.77474231
3.2955132 -1.2855787 -0.77512765
3.3722816 -1.3117118 -0.77517009
3.4626973 -1.3175287 -0.77562231
3.5535488 -1.3349328 -0.77589035
3.6551309 -1.3418291 -0.77639282
3.7632453 -1.3491685 -0.77692747
3.8725991 -1.3692825 -0.77726388
2.9743788 -1.217679 -0.78267968
3.0131884 -1.2214358 -0.77445626
3.0795431 -1.2338629 -0.77465677
3.1532269 -1.2370436 -0.77505046
3.2267444 -1.2505728 -0.77527642
3.3085587 -1.2543936 -0.77570891
3.3904817 -1.2691534 -0.77596563
3.3996503 -1.2477134 -0.77636665
3.4866815 -1.262712 -0.77665061
3.5737162 -1.2899196 -0.77673769
3.6710804 -1.3070955 -0.77704883
2.9786522 -1.1667345 -0.77893752
3.0314767 -1.1740301 -0.7753306
3.0947778 -1.195125 -0.77537298
3.1024473 -1.175624 -0.77573347
3.1731892 -1.1872839 -0.77597284
3.2434368 -1.2098105 -0.77603412
3.2560468 -1.1790185 -0.77660644
3.3260813 -1.2125065 -0.77648968
3.4088604 -1.226176 -0.77676934
2.9862621 -1.1167693 -0.77633244
3.0499358 -1.1261806 -0.77621329
3.1140141 -1.1462121 -0.77627742
3.1852674 -1.1571766 -0.77653092
3.0221341 -0.64924604 -0.73077565
3.024694 -0.61954975 -0.71844554
3.0280938 -0.57902145 -0.7154724
3.032342 -0.52838433 -0.71175784
3.0365882 -0.4777703 -0.70804489
3.040832 -0.42718279 -0.70433402
3.0450742 -0.37661842 -0.70062482
3.0493135 -0.32608053 -0.69691741
3.0535514 -0.27556568 -0.69321185
3.0577867 -0.22507721 -0.68950808
3.0620205 -0.17461197 -0.68580616
3.0662515 -0.12417293 -0.68210614
3.0704813 -0.073757067 -0.67840761
3.0738628 -0.033442751 -0.67545038
3.0763988 -0.0032169223 -0.67323303
2.9359422 -1.7786603 -0.7650106
2.9430203 -1.7610168 -0.76533753
3.0123444 -1.7783499 -0.7659539
3.0862727 -1.7857714 -0.76580429
3.1699448 -1.7848599 -0.76632452
3.2500553 -1.8035486 -0.76650751
3.339263 -1.8132432 -0.76689035
2.9572701 -1.7254963 -0.76599604
3.0295444 -1.7321181 -0.76632577
3.1018784 -1.7484646 -0.76649964
3.1822448 -1.7560968 -0.76686221
3.2629635 -1.7740443 -0.76706064
2.9716144 -1.6897402 -0.76665872
3.0408046 -1.7046199 -0.76683682
3.0247405 -0.62308758 -0.66793716
3.028142 -0.58254176 -0.6649729
3.0323915 -0.53188276 -0.66126907
3.0366397 -0.48124689 -0.65756696
3.0408857 -0.4306376 -0.65386695
3.0451288 -0.38005143 -0.65016866
3.0493703 -0.3294917 -0.6464721
3.0536096 -0.27895522 -0.64277732
3.057847 -0.2284451 -0.6390844
3.0620825 -0.17795813 -0.63539332
3.0663154 -0.12749751 -0.63170391
3.0705469 -0.07705991 -0.62801641
3.0739303 -0.036728308 -0.62506777
3.0764668 -0.0064894408 -0.62285691
3.0247867 -0.6266284 -0.6173842
3.0281899 -0.58606511 -0.6144287
3.0324411 -0.53538424 -0.61073571
3.0366912 -0.48472664 -0.60704458
3.0409381 -0.43409544 -0.60335535
3.0451839 -0.38348752 -0.59966785
3.0494268 -0.33290604 -0.59598219
3.0536683 -0.2823478 -0.59229827
3.0579069 -0.23181586 -0.58861631
3.0621438 -0.18130717 -0.5849359
3.0663791 -0.13082485 -0.58125758
3.0706117 -0.080365598 -0.57758087
3.0739963 -0.040016666 -0.57464069
3.076534 -0.0097648054 -0.57243645
3.0248334 -0.63017201 -0.56679213
4.2030859 -0.73317838 -0.52992219
3.0282378 -0.58959121 -0.5638454
4.043891 -0.68709087 -0.52865291
4.2155962 -0.7048384 -0.52952236
3.0324912 -0.53888851 -0.56016332
3.9083829 -0.61849481 -0.52711344
4.0613151 -0.64614797 -0.52807301
4.2344875 -0.66204214 -0.52891856
3.0367424 -0.48820895 -0.55648303
3.7778146 -0.56766784 -0.52586871
3.9246666 -0.57888746 -0.52655053
4.0847349 -0.59111679 -0.52729362
4.2535062 -0.6189574 -0.52831084
4.2662716 -0.59003979 -0.52790278
3.0409918 -0.43755597 -0.55280471
3.548759 -0.46489269 -0.52347213
3.6567836 -0.52058518 -0.52471554
3.6662886 -0.49594331 -0.5243631
3.7981317 -0.51660526 -0.5251407
3.9465456 -0.52566791 -0.52579421
4.1083832 -0.5355503 -0.52650666
4.2791014 -0.56097496 -0.52749276
3.0452387 -0.3869262 -0.54912794
3.4478936 -0.41289189 -0.52231091
3.5622084 -0.42897701 -0.52295691
3.6806278 -0.45876831 -0.52383137
3.8134828 -0.47802275 -0.52459055
3.8237786 -0.45214731 -0.52422166
3.9630833 -0.48544282 -0.52522248
3.9741771 -0.45845872 -0.52483898
4.1262631 -0.49353647 -0.52591163
4.2984781 -0.51708084 -0.52687347
3.0494833 -0.33632296 -0.54545325
3.2574179 -0.34045786 -0.52052104
3.3534997 -0.36422756 -0.52122432
3.4605932 -0.37801424 -0.52180934
3.580266 -0.38075715 -0.5222652
3.6998827 -0.40884477 -0.52311707
3.8393137 -0.41310096 -0.52366483
3.9853234 -0.431348 -0.52445358
4.144289 -0.45117933 -0.52531177
4.3179855 -0.47288656 -0.52625
4.3310814 -0.44322187 -0.52583152
3.0537264 -0.28574291 -0.54178011
3.1746082 -0.29699022 -0.51955545
3.2687674 -0.30761275 -0.52004659
3.3695419 -0.31897333 -0.52057195
3.4733603 -0.34294975 -0.52130502
3.4819169 -0.31944793 -0.52096707
3.5984743 -0.33213428 -0.5215677
3.7193046 -0.3584879 -0.52239662
3.860183 -0.36064681 -0.5229165
4.0021462 -0.3904264 -0.52387208
4.1685209 -0.39423954 -0.52450538
4.344243 -0.41340423 -0.52541089
3.0579672 -0.23518926 -0.53810906
3.1000521 -0.24569304 -0.5184961
3.1817863 -0.27570111 -0.51924741
3.1926062 -0.24361238 -0.51878309
3.2801726 -0.27460301 -0.51956969
3.2878151 -0.25248599 -0.51925027
3.3856878 -0.27342537 -0.51991534
3.3938134 -0.25050327 -0.51958501
3.494822 -0.28400525 -0.52045739
3.6168354 -0.28310326 -0.52086431
3.7388964 -0.3076922 -0.52166998
3.8759525 -0.32100886 -0.52235109
3.8865294 -0.29442346 -0.52197182
4.0247531 -0.33543402 -0.52309
4.1868443 -0.35118309 -0.5238955
4.3641229 -0.36836907 -0.52477551
3.062206 -0.18465884 -0.53443956
3.1172092 -0.19360261 -0.51774079
3.2071207 -0.20056655 -0.51815993
3.2993357 -0.21914327 -0.51876855
3.4060655 -0.21594048 -0.51908684
3.512145 -0.23642886 -0.51977319
3.6353509 -0.23365898 -0.52015495
3.7586586 -0.25645187 -0.52093685
3.8971546 -0.26771685 -0.52159077
4.0475745 -0.27991879 -0.52230066
4.2053185 -0.30777055 -0.5232805
4.38414 -0.32302207 -0.52413577
3.0664423 -0.13415481 -0.53077197
3.1345093 -0.14108016 -0.51697916
3.2217417 -0.15720473 -0.51753229
3.3186834 -0.16314995 -0.51795971
3.4225085 -0.16955477 -0.51841819
3.5296087 -0.18846494 -0.51908338
3.6493359 -0.19631459 -0.51961917
3.7785959 -0.20476109 -0.52019733
3.9131899 -0.22741258 -0.52101594
4.064827 -0.23795155 -0.52170396
4.230155 -0.24940611 -0.52245349
3.0706775 -0.083673805 -0.52710611
3.148464 -0.0987124 -0.51636481
3.2364697 -0.11352353 -0.5169
3.3382032 -0.10665826 -0.51714367
3.4390807 -0.12280285 -0.51774424
3.5427959 -0.15224722 -0.5185625
3.5516355 -0.12797044 -0.51821333
3.6634197 -0.15870613 -0.51907974
3.7936578 -0.16570808 -0.5196386
3.8037591 -0.13951936 -0.51926392
3.9347336 -0.173262 -0.52024341
4.0822153 -0.19564927 -0.52110237
4.2489367 -0.20526791 -0.52182794
3.0766017 -0.04301773 -0.5247665
3.162519 -0.05604127 -0.51574594
3.2513072 -0.069519207 -0.51626301
3.2625048 -0.036312133 -0.51578248
3.3500047 -0.072504118 -0.51665032
3.3579121 -0.049618408 -0.51631975
3.4515924 -0.087507784 -0.5172354
3.4599776 -0.063853309 -0.51689446
3.5649672 -0.091355711 -0.51768678
3.6823306 -0.10820545 -0.51835519
3.8189998 -0.10000391 -0.51869845
3.9510159 -0.1323373 -0.51965964
3.9619372 -0.10488601 -0.51926804
4.0997162 -0.1530762 -0.52049696
4.1114588 -0.12451196 -0.52009088
4.2678766 -0.16076006 -0.52119738
3.0829022 -0.012265399 -0.52344
3.1731236 -0.023846313 -0.51527917
3.4683962 -0.040104717 -0.51655221
3.5783718 -0.054539979 -0.51715732
3.696615 -0.070060387 -0.51780814
4.1232581 -0.095809758 -0.51968282
4.286943 -0.11595301 -0.52056259
3.0248613 -0.63229954 -0.53641677
3.0598183 -0.63742667 -0.52448314
3.1545162 -0.63826084 -0.52482277
3.2522414 -0.6498729 -0.52534127
3.3570683 -0.66232884 -0.52589738
3.4698014 -0.67572421 -0.52649552
3.5913706 -0.69016951 -0.5271405
3.8761647 -0.69686198 -0.52822715
4.0323486 -0.71421182 -0.529037
3.0282662 -0.59170824 -0.53347516
3.0733762 -0.5972178 -0.52390116
3.1652937 -0.60707265 -0.52437246
3.2636747 -0.61762053 -0.52487659
3.3692274 -0.6289373 -0.52541745
3.4827645 -0.64111006 -0.52599907
3.6052291 -0.65423989 -0.52662677
3.7377164 -0.66844434 -0.52730554
3.8868544 -0.67085958 -0.52785766
3.032521 -0.54099238 -0.52979976
3.0904639 -0.5465402 -0.52316767
3.1833866 -0.55471027 -0.52361596
3.2828755 -0.56345773 -0.52409613
3.389653 -0.57284582 -0.52461118
3.5001674 -0.59464353 -0.52533287
3.6238387 -0.6059947 -0.52593684
3.7526646 -0.63087571 -0.52676994
3.7626891 -0.60568213 -0.52641082
3.8975942 -0.64473748 -0.5274865
3.0367737 -0.49029976 -0.52612597
3.1076937 -0.49544108 -0.5224281
3.2016349 -0.50189757 -0.52285314
3.3022468 -0.50881237 -0.52330846
3.4061213 -0.52761787 -0.52396089
3.4144094 -0.5048545 -0.52363342
3.5221288 -0.53600347 -0.52449208
3.6426072 -0.55733788 -0.52524108
3.0410643 -0.43963477 -0.5224638
3.1250882 -0.44385383 -0.52168137
3.2126651 -0.46997565 -0.52239192
3.2200549 -0.44858932 -0.5220831
3.3139584 -0.47577417 -0.52283216
3.321806 -0.45363605 -0.52251303
3.4269078 -0.47052848 -0.52313989
3.5398419 -0.48870486 -0.52381366
3.0528195 -0.38909206 -0.52057564
3.1426284 -0.39183369 -0.52092838
3.2349257 -0.40555117 -0.52146137
3.333638 -0.42025846 -0.5220319
3.4394727 -0.43602008 -0.52264357
3.0695603 -0.3382661 -0.51983857
3.1567788 -0.34986699 -0.52032101
3.2498891 -0.36224562 -0.52083576
3.3455307 -0.38670903 -0.52154839
3.0864384 -0.2870239 -0.5190956
3.1674559 -0.31820217 -0.51986265
4.2625232 -0.55555344 0.28133941
4.3082256 -0.58811873 0.28126138
4.174408 -0.49276596 0.28148982
4.2179308 -0.52377868 0.28141555
3.5221508 -0.37393028 0.28425401
4.0904193 -0.43291944 0.28163323
4.1319156 -0.46248811 0.28156233
3.465095 -0.32654962 0.28431916
3.4933426 -0.3500073 0.28428689
4.0102749 -0.37581211 0.28177002
4.0498829 -0.40403527 0.28170237
3.3968856 -0.2699064 0.28439707
3.4373915 -0.30354372 0.28435078
3.9337168 -0.32126006 0.2819007
3.9715631 -0.3482275 0.28183609
3.3065095 -0.19485538 0.28450024
3.3445535 -0.22644842 0.28445682
3.825094 -0.24386011 0.2820861
3.8605089 -0.26909554 0.28202564
3.8967078 -0.29488921 0.28196386
3.2696133 -0.16421534 0.28454238
3.7565141 -0.19499338 0.28220317
3.7904372 -0.21916513 0.28214526
3.1871247 -0.09571436 0.28463656
3.2218764 -0.12457341 0.28459689
3.7070417 -0.15974137 0.2822876
4.3692808 -0.19517875 0.27907822
3.1205215 -0.040405273 0.28471261
3.1644952 -0.076922074 0.28466243
3.6124291 -0.092324898 0.28244913
3.6589262 -0.12545626 0.28236976
4.2769966 -0.14007385 0.27928641
4.3225689 -0.16728583 0.2791836
3.0836387 0.0058659911 0.28576082
3.5233893 -0.028878435 0.28260112
3.5671704 -0.06007506 0.28252637
4.1891098 -0.087594762 0.27948481
4.2325239 -0.11351791 0.27938688
3.0861917 0.036307514 0.28785217
3.4807389 0.0015120208 0.2826739
4.1260166 -0.049920171 0.27962717
3.4761286 -1.0391316 0.28767368
3.8659251 -1.0542353 0.2857514
3.9030478 -1.0895355 0.28573045
3.4057875 -0.96358413 0.28767198
3.4334807 -0.9933272 0.28767267
3.8296232 -1.019717 0.28577191
3.0521698 -0.89391828 0.28914797
3.3519874 -0.90580195 0.28767073
3.3786278 -0.93441451 0.28767133
3.7593813 -0.95292449 0.2858116
3.7941172 -0.98595482 0.28579199
4.2938108 -1.0147409 0.28337282
3.0136199 -0.83407885 0.28996736
3.0311446 -0.86869055 0.28913474
3.3002028 -0.85018498 0.28766945
3.3258498 -0.87773037 0.28767005
3.6921189 -0.88896537 0.28584963
3.72539 -0.92060202 0.28583086
4.2032576 -0.93954295 0.28347626
4.2479744 -0.97667682 0.28342518
3.0170529 -0.79314125 0.29276755
3.2503238 -0.79661399 0.28766826
3.2750313 -0.82315075 0.28766882
3.6595471 -0.85799271 0.28586805
4.1596212 -0.90330559 0.28352606
3.021342 -0.74199283 0.29626614
3.2022457 -0.74497807 0.2876671
3.2260659 -0.77056074 0.28766766
3.5964112 -0.79795736 0.28590375
3.6276515 -0.82766336 0.28588608
4.0962296 -0.85066313 0.28359848
3.0256298 -0.69086802 0.29976317
3.1673629 -0.70751369 0.28766626
3.5508127 -0.75459832 0.28592953
3.9951234 -0.7667017 0.28371394
4.0348105 -0.79965919 0.28366861
3.0290575 -0.6499871 0.30255947
3.1222095 -0.65901786 0.28766516
3.4776194 -0.68499935 0.28597087
3.5064292 -0.71239412 0.28595459
3.9563398 -0.73449457 0.28375819
3.0333407 -0.59890944 0.30605322
3.0573673 -0.58937657 0.28766364
3.0893214 -0.62369579 0.28766435
3.4080901 -0.61888415 0.28601021
3.4493732 -0.65814018 0.28598684
3.8813627 -0.67223138 0.28384382
3.9184296 -0.70301259 0.2838015
3.0376117 -0.54714882 0.29928619
3.3417029 -0.55575752 0.28604773
3.3678534 -0.58062387 0.28603292
3.8096511 -0.61267984 0.28392571
3.8451126 -0.64212787 0.28388524
3.0418904 -0.49612623 0.30277878
3.2908511 -0.5074026 0.28607652
3.3160396 -0.53135473 0.28606224
3.7409964 -0.55566674 0.28400412
3.7749546 -0.5838663 0.28396535
3.0461669 -0.44512716 0.30626971
3.2299211 -0.4494651 0.28611091
3.2661226 -0.48388878 0.28609043
3.6752069 -0.50103319 0.28407922
3.7077551 -0.52806199 0.28404206
3.0504417 -0.39415494 0.30975884
3.1830781 -0.40492231 0.28613737
3.5815151 -0.42322829 0.28418624
3.6277194 -0.46159786 0.28413346
3.0547142 -0.34320626 0.31324634
3.1049335 -0.33061525 0.28618157
3.1378675 -0.36193186 0.28616297
3.5515351 -0.39833242 0.28422043
3.0589809 -0.30000383 0.31006914
3.0834773 -0.31021252 0.2861937
3.0623863 -0.25088355 0.30927539
3.0666528 -0.20000973 0.31276032
3.0709162 -0.14916262 0.31624338
3.0751781 -0.098339021 0.31972483
3.079438 -0.04754208 0.32320452
3.0836952 0.0032314658 0.32668251
3.0862491 0.033683479 0.32876849
2.9998965 -1.0002303 0.30960616
3.1400185 -0.99932641 0.28920305
3.1629682 -1.0268633 0.28921741
3.004195 -0.9489668 0.31310502
3.0953252 -0.94569927 0.28917503
3.1174741 -0.97227585 0.28918886
3.008492 -0.89772737 0.31660214
3.07356 -0.91958386 0.28916138
3.0127869 -0.8465147 0.32009748
3.0170789 -0.79532593 0.3235912
3.0213692 -0.74416411 0.32708302
3.0256577 -0.69302595 0.33057329
3.0290871 -0.65213442 0.33336416
3.033371 -0.60104346 0.33685118
3.0376532 -0.54997617 0.34033656
3.0419331 -0.49893576 0.34382015
3.0462112 -0.44791895 0.34730214
3.0504873 -0.39692909 0.35078225
3.0547614 -0.3459627 0.35426074
3.0578897 -0.30837563 0.35339227
3.0624361 -0.25360763 0.35026458
3.0667033 -0.20271608 0.35374051
3.0709691 -0.15185139 0.35721466
3.0752325 -0.1010101 0.36068717
3.0799267 -0.045446604 0.36962643
3.1383095 -0.045092076 0.39034986
3.2322338 -0.056101486 0.39817277
3.0837669 -6.3985586e-05 0.37786874
3.0863211 0.03040123 0.37994799
3.0002103 -0.99954754 0.34756505
3.0038803 -0.95588851 0.35191607
3.0085158 -0.89993984 0.34745306
3.0128117 -0.84871393 0.3509416
3.0171051 -0.79751164 0.35442853
3.0213966 -0.74633652 0.35791364
3.0256853 -0.69518495 0.36139709
3.0291159 -0.65428269 0.36418262
3.545295 -0.48077318 0.42517078
3.5662313 -0.50609481 0.42570674
3.2784812 -0.41581595 0.42527032
3.5043206 -0.43121526 0.42412186
3.5246606 -0.45581591 0.42464256
3.0548441 -0.35079083 0.42610109
3.2444427 -0.37127262 0.4243083
3.4743855 -0.39500874 0.42335552
3.0582635 -0.31001177 0.42887002
3.1950228 -0.30660194 0.42291147
3.219466 -0.33858806 0.42360234
3.406832 -0.31330344 0.42162627
3.4353986 -0.34785444 0.42235762
3.062536 -0.25906143 0.43232965
3.1631205 -0.26485425 0.42200983
3.3696938 -0.26838529 0.42067558
3.3881354 -0.29069045 0.4211477
3.6200182 -0.28453496 0.4193784
3.0668063 -0.20813473 0.43578762
3.116755 -0.20418003 0.42069942
3.1396952 -0.23419976 0.42134774
3.3158441 -0.20325466 0.4192971
3.3425267 -0.23552749 0.41998017
3.587873 -0.24878567 0.41863984
3.0730743 -0.15250655 0.43149698
3.0941918 -0.17465407 0.42006165
3.2811253 -0.16126293 0.41840833
3.2983696 -0.1821197 0.41884983
3.5460393 -0.20226145 0.41767865
3.0753274 -0.10568942 0.43244177
3.2307305 -0.10030752 0.41711855
3.2557089 -0.13052037 0.41775781
3.4756196 -0.12394568 0.41606069
3.5053916 -0.157056 0.41674471
3.0798283 -0.051655456 0.43170083
3.1080277 -0.049749017 0.40811813
3.2062833 -0.070737556 0.41649282
3.3328686 -0.067897439 0.40655446
3.4369302 -0.080918327 0.41517168
3.4561403 -0.10228226 0.41561311
3.0838382 -0.0033623874 0.42910045
3.087245 0.037272841 0.43186361
3.052614 -0.85159868 0.43854892
3.2300146 -0.87174064 0.43786323
3.4224608 -0.88103074 0.43678147
3.6420877 -0.89163285 0.43554705
3.0180337 -0.79310089 0.43743312
3.030648 -0.81608909 0.43774623
3.1967227 -0.82140028 0.43674004
3.3937347 -0.84054178 0.43589169
3.6198514 -0.86253422 0.43491864
3.0214691 -0.75213492 0.44020647
3.1561801 -0.76009464 0.43537235
3.3563113 -0.78779566 0.4347325
3.5871551 -0.81974804 0.43399453
3.0257616 -0.7009477 0.44367188
3.1169386 -0.70075798 0.43404859
3.1324747 -0.72425044 0.4345727
3.3109283 -0.72382998 0.43332672
3.3288832 -0.74913681 0.43388289
3.5446219 -0.76408899 0.43279237
3.0291936 -0.66001689 0.44644296
3.0940235 -0.66610742 0.43327552
3.2757387 -0.67423117 0.43223679
3.2932155 -0.69886374 0.43277812
3.503315 -0.71003413 0.43162489
3.0334816 -0.60887706 0.44990522
3.0567725 -0.60977983 0.43201894
3.2246828 -0.60226989 0.4306553
3.2499855 -0.63793314 0.4314391
3.4337869 -0.61904979 0.42965978
3.4631808 -0.65751493 0.43049049
3.7101824 -0.68020225 0.42939162
3.0377576 -0.55705273 0.44308257
3.191746 -0.55584681 0.42963511
3.2081075 -0.57890731 0.43014187
3.4050739 -0.5814755 0.42884821
3.6643965 -0.62482548 0.42821968
3.0420411 -0.50596786 0.44654363
3.167623 -0.52184594 0.42888784
3.3676641 -0.53252101 0.42779094
3.6199739 -0.57109624 0.42708248
3.0463231 -0.45490673 0.45000309
3.1284292 -0.46660373 0.42767388
3.3312671 -0.48489136 0.42676216
3.5874748 -0.53178906 0.42625058
3.050602 -0.40387249 0.45346063
3.0829473 -0.40249926 0.42626506
3.3045795 -0.4499681 0.42600799
3.0548797 -0.35286185 0.45691669
3.0582998 -0.31207216 0.45968026
3.0625734 -0.26110864 0.4631331
3.0668452 -0.21016857 0.46658432
3.0711143 -0.15925542 0.47003376
3.0753813 -0.10836557 0.4734816
3.0796461 -0.057502732 0.47692764
3.0839093 -0.0066632181 0.48037201
3.0873177 0.033989489 0.48312622
3.7276945 -1.6067989 0.45566052
3.9708686 -1.6367526 0.45477509
3.9983966 -1.6760228 0.4556002
3.49403 -1.5470459 0.45571244
3.704257 -1.5709233 0.45489496
3.9437954 -1.5981295 0.45396358
4.2192316 -1.6294131 0.4528926
3.272773 -1.4643853 0.45508903
3.4539814 -1.4814966 0.45429486
3.4738622 -1.5140362 0.45499861
3.6698143 -1.5182006 0.45377004
3.8909636 -1.5227611 0.45237994
3.9171636 -1.5601375 0.45316523
4.1729612 -1.5681376 0.45162761
3.0957332 -1.4206719 0.4551686
3.2554908 -1.4342327 0.45442921
3.4343827 -1.4494178 0.45360112
3.6360633 -1.4665372 0.45266771
3.7329872 -1.4723198 0.4640547
3.8651848 -1.4859858 0.45160717
3.9734063 -1.4919674 0.4635182
4.1277566 -1.5082738 0.45039189
4.2496672 -1.514544 0.46290171
3.0140474 -0.84287196 0.46166229
3.0129123 -0.85752028 0.47447652
3.0172014 -0.80553573 0.46763539
3.0214961 -0.75431132 0.47109556
3.0257897 -0.70311081 0.47455424
3.029223 -0.66216934 0.47731984
3.0335119 -0.61101604 0.48077524
3.0377994 -0.55988646 0.48422915
3.0420842 -0.508784 0.48768109
3.0463676 -0.45770511 0.49113154
3.0506477 -0.40665308 0.49458015
3.0549273 -0.35562477 0.49802709
3.0583482 -0.31482089 0.50078344
3.062623 -0.2638396 0.50422734
3.0668967 -0.21288188 0.50766951
3.0711665 -0.16195099 0.51110989
3.0754356 -0.11104368 0.51454872
3.0797019 -0.060163125 0.5179857
3.0839663 -0.0093060881 0.52142119
3.0873764 0.031360805 0.52416825
4.1591721 -2.2672718 0.46975315
3.8877554 -2.1914763 0.46964884
4.1286516 -2.2205536 0.4687562
3.6517506 -2.1255739 0.46955985
3.8615644 -2.1486094 0.46872163
4.0986633 -2.1746497 0.46777683
3.261416 -2.0165763 0.46941262
3.4347234 -2.0493546 0.46907496
3.6290574 -2.0859838 0.4686932
3.8357999 -2.1064386 0.46780968
4.0691919 -2.1295376 0.46681422
3.2439659 -1.9822602 0.46864629
3.4052672 -1.9947262 0.46786654
3.5846965 -2.0085931 0.46699911
3.606709 -2.0469949 0.46783972
3.7855031 -2.0241156 0.46602941
3.8104486 -2.0649457 0.46691239
4.0259881 -2.0634038 0.46540308
2.9380488 -1.8998621 0.46860898
3.0750883 -1.9229512 0.46826911
3.209765 -1.915004 0.46714431
3.2267504 -1.948406 0.4678902
3.3765018 -1.9413807 0.46668637
3.5630138 -1.9707651 0.46617109
3.7609522 -1.9839318 0.46516037
3.9837551 -1.9987559 0.46402371
2.9291193 -1.861861 0.46914208
3.0449474 -1.8602402 0.46685666
3.1930048 -1.8820455 0.46640831
3.348273 -1.8890297 0.46552837
3.5311291 -1.9151404 0.46495342
3.7367871 -1.9443793 0.46430504
3.9562256 -1.9566171 0.46312457
4.2048044 -1.97048 0.46178734
2.9334614 -1.8100827 0.47262168
3.0228131 -1.8141873 0.46581948
3.1601443 -1.8174233 0.46496522
3.1764665 -1.8495214 0.46568197
3.3115854 -1.8209915 0.46402317
3.3298025 -1.8547747 0.46477062
3.4998672 -1.8606014 0.46375966
3.7012873 -1.886276 0.46304852
3.9025238 -1.8744142 0.46137065
3.929153 -1.9151754 0.46224046
4.1737576 -1.9261889 0.4608568
2.9378006 -1.7583282 0.47609949
3.0011356 -1.7690835 0.46480364
3.1360834 -1.7701075 0.46390861
3.2936177 -1.7876704 0.4632861
3.459291 -1.7898068 0.46221042
3.4794316 -1.8249471 0.46297938
3.6665158 -1.8293633 0.4618178
3.8763285 -1.8343165 0.46051514
4.1432533 -1.8826721 0.4599424
2.9480605 -1.7038562 0.47546887
2.9798114 -1.7247171 0.46380436
3.1124353 -1.723603 0.46287006
3.2671528 -1.7385893 0.46220034
3.4394379 -1.7551694 0.46145236
3.621439 -1.7555835 0.46022224
3.6438065 -1.7921927 0.46101397
3.8505561 -1.7948658 0.45967335
4.0985475 -1.8188958 0.45860231
2.9480731 -1.654907 0.47291255
3.0816379 -1.6630397 0.46151757
3.0969381 -1.6931279 0.46218956
3.2241404 -1.6588218 0.46043581
3.2411604 -1.6903863 0.46113408
3.4102201 -1.7041922 0.46033686
3.5994079 -1.7195239 0.45944238
3.8127184 -1.7369466 0.4584375
4.0548582 -1.7565701 0.45729274
2.9499364 -1.6127548 0.47548139
3.0590715 -1.6186616 0.46052659
3.2073448 -1.6276746 0.45974672
3.3721685 -1.6378031 0.45888394
3.5670135 -1.6665025 0.45829576
3.775677 -1.6802468 0.45722765
4.0263891 -1.7159562 0.45643932
2.9542675 -1.5611048 0.47895479
3.029604 -1.560714 0.45923257
3.1825919 -1.5817688 0.45873129
3.3442883 -1.5891595 0.45781952
3.5352533 -1.6145186 0.45717168
3.751498 -1.6432354 0.45643789
2.9656291 -1.5056286 0.47747308
3.0079577 -1.5181453 0.45828193
3.1423335 -1.5071011 0.45708001
3.1582696 -1.5366583 0.45773363
3.3170428 -1.5416234 0.4567793
3.5144916 -1.5805368 0.45643669
2.9653952 -1.4556668 0.47860718
3.118835 -1.4635191 0.4561162
3.2902889 -1.4949455 0.45575774
2.9663782 -1.4158335 0.4783358
3.0180392 -1.4143918 0.47605467
3.0897579 -1.420778 0.48684561
3.1673715 -1.4266226 0.47628593
3.2472134 -1.4337029 0.48768532
3.3338485 -1.4402575 0.47654396
3.4232738 -1.4481547 0.48862422
3.5206013 -1.4555533 0.47683316
3.6214452 -1.4644217 0.48968112
3.730165 -1.4733462 0.49026525
3.8461695 -1.4828684 0.49087942
3.9702153 -1.4930508 0.49154592
4.1031723 -1.5039651 0.49225032
4.2442169 -1.5162663 0.50805324
4.2665033 -1.1212392 0.54881352
4.248538 -1.0871725 0.54860544
3.0138054 -0.85020417 0.5164026
3.0172272 -0.8077265 0.49854499
3.0172536 -0.80991864 0.52947193
3.0217824 -0.75459814 0.51691842
3.0207009 -0.76964235 0.54253888
3.0258372 -0.70671839 0.52605921
3.0292716 -0.66575903 0.52881575
3.0335624 -0.61458349 0.53225982
3.0378516 -0.56343168 0.53570235
3.0421383 -0.51230693 0.53914309
3.0464237 -0.46120578 0.54258221
3.0507059 -0.41013163 0.54601949
3.0549862 -0.35908106 0.54945517
3.0584092 -0.31825942 0.55220246
3.062686 -0.26725605 0.55563498
3.0669606 -0.21627618 0.559066
3.0712335 -0.16532326 0.56249505
3.0755033 -0.11439382 0.56592262
3.0797715 -0.06349121 0.56934839
3.0840378 -0.01261209 0.57277262
3.0874488 0.028072417 0.57551062
4.0106182 -2.7516487 0.48326439
3.7806473 -2.6908796 0.48326665
3.982131 -2.7019501 0.48217654
3.3952253 -2.5890336 0.48327041
3.5769346 -2.6370497 0.48326862
3.7557228 -2.6446555 0.48224413
3.9541283 -2.653096 0.48110712
3.3757427 -2.5484979 0.48235744
3.5333333 -2.551307 0.48135388
3.5549684 -2.5938528 0.48230398
3.7311954 -2.599169 0.48123783
3.9265959 -2.6050642 0.48005569
4.1444788 -2.6116376 0.47873753
3.1976144 -2.470098 0.48155069
3.2147582 -2.5077593 0.48240554
3.3565385 -2.5085411 0.48145759
3.512022 -2.509398 0.48041803
3.6832981 -2.5103421 0.47927284
3.7070568 -2.5544038 0.48024756
3.8995235 -2.5578344 0.47902191
4.1139402 -2.5616567 0.47765642
3.1807027 -2.4329431 0.48070753
3.3282728 -2.4497316 0.48013306
3.4910271 -2.4681115 0.47949594
3.6599097 -2.4669676 0.47831333
3.8728998 -2.5113873 0.47800511
4.0839357 -2.5125506 0.47659415
3.0238104 -2.36549 0.48003834
3.1475513 -2.3601139 0.47905463
3.1640158 -2.3962853 0.47987556
3.3005345 -2.3920193 0.47883332
3.449959 -2.3873498 0.47769248
3.4703419 -2.4274325 0.47858763
3.636883 -2.4242644 0.47736865
3.8467138 -2.4657032 0.47700518
4.0544515 -2.4642959 0.47555035
3.0017018 -2.3143015 0.47886837
3.1313038 -2.32442 0.47824454
3.2823849 -2.3542562 0.47798276
3.4298723 -2.3478489 0.47681046
3.6142099 -2.3822169 0.47643846
3.7956102 -2.3765483 0.47505361
3.8209538 -2.4207625 0.47602141
4.0254755 -2.4168711 0.4745245
2.8960466 -2.2596622 0.48416269
2.9799631 -2.2639673 0.47771806
3.1073563 -2.2718098 0.47705048
3.2556579 -2.2986472 0.47673035
3.4100754 -2.3089175 0.475941
3.5698931 -2.3000298 0.4746204
3.5918825 -2.3408103 0.47552246
3.7706721 -2.3330433 0.47410125
3.9969916 -2.370255 0.47351611
2.9004064 -2.2076685 0.48764616
2.9586718 -2.2146702 0.47659135
3.0838218 -2.2201085 0.47587711
3.2294159 -2.2440474 0.4755007
3.3713255 -2.2327154 0.47423923
3.3905621 -2.2705436 0.47508407
3.548234 -2.2598619 0.47373182
3.7461317 -2.2902293 0.47316408
3.9689906 -2.3244274 0.47252476
2.9111741 -2.1485925 0.4856708
2.9377286 -2.1661801 0.47548312
3.0607898 -2.1695094 0.47472876
3.2037609 -2.1906703 0.47429854
3.3523607 -2.195421 0.47340637
3.526897 -2.2202928 0.47285646
3.7219775 -2.2480912 0.4722417
3.9143839 -2.2350569 0.4705916
3.9414582 -2.2793674 0.47155005
2.9094458 -2.1035585 0.48946565
3.0381479 -2.1197677 0.47359985
3.1785629 -2.1382425 0.47311777
3.3244426 -2.1405194 0.47218037
3.4851632 -2.1428957 0.47114432
3.5058758 -2.181308 0.47199404
3.6747954 -2.1657786 0.47043985
3.6982021 -2.2066128 0.47133374
2.9129496 -2.0570602 0.48522103
3.0159793 -2.0710669 0.47249454
3.1539176 -2.0869658 0.47196287
3.2970397 -2.0866308 0.47097707
3.4647527 -2.1050436 0.47030687
2.9169526 -2.0094891 0.49049681
2.9870331 -2.0074749 0.47105128
3.1217701 -2.0200791 0.47045654
3.2791057 -2.0513632 0.47018945
2.9213011 -1.9576247 0.49397427
2.9657691 -1.9607604 0.46999109
3.0981781 -1.9709935 0.46935105
2.9308832 -1.9106524 0.49181926
2.9291239 -1.8643315 0.50022948
2.9334664 -1.8125393 0.5037021
2.9378073 -1.7607715 0.50717312
2.9421456 -1.7090311 0.51064223
2.9464817 -1.6573145 0.51410985
2.9508159 -1.6056256 0.51757556
2.955148 -1.5539608 0.52103961
2.9586115 -1.5126481 0.52380961
2.96294 -1.4610314 0.52727056
2.9664006 -1.4197543 0.53003806
3.0133951 -1.4165044 0.52801216
3.0858665 -1.4225061 0.5295006
3.1669781 -1.4253204 0.53763533
3.2429228 -1.4355123 0.53271616
3.3265216 -1.4419549 0.53420889
3.4185174 -1.4500542 0.53631145
3.4637935 -1.4420867 0.55606771
3.5155756 -1.4575014 0.5260005
3.6161363 -1.4664202 0.54035783
3.725944 -1.474885 0.52951127
3.8244991 -1.4798579 0.54297113
3.9654505 -1.4946771 0.53350878
4.0980883 -1.5056376 0.5357278
4.2336626 -1.5164461 0.55254209
3.0455832 -1.365303 0.55765605
3.1676953 -1.3755207 0.55708265
3.3010333 -1.3866258 0.55645603
3.3109272 -1.4140203 0.55664831
3.447262 -1.3988614 0.55576944
3.6082962 -1.4122729 0.55501282
3.6205926 -1.4425747 0.55521798
3.7934349 -1.4431133 0.55428135
3.9927115 -1.4606583 0.55335355
4.2158461 -1.4802177 0.5523138
3.0335629 -1.3281825 0.55738801
3.1500394 -1.3238494 0.55671465
3.2863531 -1.3459799 0.55617094
3.4309189 -1.3561289 0.55547458
3.5900717 -1.3673637 0.5547086
3.7728846 -1.395493 0.55396557
3.969476 -1.410151 0.55302626
4.1894975 -1.4266417 0.55197591
3.0099082 -1.2551289 0.55686057
3.0216625 -1.2914295 0.55712271
3.1326566 -1.2729762 0.55635232
3.262255 -1.279258 0.55570287
3.2718318 -1.3057735 0.55588883
3.4094667 -1.3000371 0.55508763
3.4201472 -1.3279636 0.55528033
3.5602012 -1.2937551 0.55421013
3.5720642 -1.3229883 0.55440807
3.7459126 -1.3329916 0.55355096
3.9466245 -1.3604786 0.55270463
4.1635189 -1.3738177 0.55164289
2.9944272 -1.2073195 0.55651546
3.1155396 -1.2228825 0.55599552
3.2480433 -1.2399096 0.55542672
3.3936255 -1.2586172 0.55480182
3.5484428 -1.2647798 0.55401385
3.7259986 -1.2868445 0.55324495
3.9092367 -1.2792077 0.5521782
3.9240735 -1.3114595 0.55238706
4.1379919 -1.3219116 0.55131567
2.9880066 -1.1629159 0.55764365
3.0986829 -1.1735507 0.55564421
3.224709 -1.1753016 0.55497342
3.2339833 -1.2009798 0.55515373
3.3727975 -1.2041589 0.55442607
3.5252357 -1.2075912 0.5536266
3.5367882 -1.2360597 0.5538193
3.7063916 -1.2414089 0.55294359
3.8945436 -1.2472706 0.55197126
4.1128187 -1.2707229 0.55099303
2.9923205 -1.1114689 0.56109053
3.0779619 -1.1129084 0.55521244
3.0862005 -1.1370187 0.5553841
3.2109439 -1.1371895 0.5547061
3.3523147 -1.1506019 0.55405641
3.5081077 -1.1653831 0.55334061
3.6742711 -1.1669762 0.55244988
3.6870244 -1.1965301 0.55264586
3.8727899 -1.1999834 0.55166507
4.0798845 -1.2037537 0.55057096
4.0962663 -1.2370659 0.55078089
2.9966319 -1.0600458 0.56453586
3.0657282 -1.0771041 0.55495739
3.1883378 -1.0745965 0.55426699
3.1973233 -1.0994763 0.55444151
3.3321683 -1.0979247 0.55369306
3.4800196 -1.0961671 0.55287188
3.4911773 -1.123662 0.55305803
3.6553721 -1.1231818 0.55215943
3.8371823 -1.1225805 0.55116373
3.8513153 -1.1533031 0.55136275
4.0636692 -1.1707814 0.55036312
3.0208657 -1.0127854 0.56087321
3.0536151 -1.0416557 0.55470484
3.174998 -1.0376631 0.55400783
3.3123498 -1.0461056 0.55333549
3.463474 -1.0553949 0.55259579
3.6305518 -1.065665 0.55177802
3.8231835 -1.0921507 0.55096668
4.0317307 -1.1058345 0.54995382
4.0476189 -1.1381433 0.55015749
4.2846622 -1.1556735 0.54902393
3.0129912 -0.96474457 0.56409061
3.1444416 -0.95305926 0.55341429
3.1574409 -0.98905128 0.55366677
3.2928517 -0.99512374 0.5529837
3.4417255 -1.0017999 0.5522328
3.6122155 -1.0231714 0.55149621
3.7955823 -1.0321524 0.55057818
3.8093176 -1.0620093 0.55077159
4.0160012 -1.0738504 0.5497523
3.0102873 -0.91580653 0.56411183
3.1316073 -0.91752404 0.55316496
3.2736664 -0.94495893 0.5526377
3.4256437 -0.96216899 0.55196446
3.6001353 -0.99517846 0.5513106
3.0129881 -0.8641392 0.56729162
3.0172887 -0.81284297 0.57073092
3.0215874 -0.76157391 0.57416856
3.0258746 -0.70960629 0.56729072
3.0258937 -0.71105117 0.5879181
3.02932 -0.66935152 0.58035195
3.0336132 -0.61815381 0.58378476
3.037904 -0.56697965 0.58721596
3.0421922 -0.51583254 0.59064519
3.046479 -0.46470916 0.594073
3.0507636 -0.41361278 0.59749901
3.0550458 -0.36254004 0.60092342
3.05847 -0.32170072 0.60366172
3.0627489 -0.27067518 0.60708296
3.0670247 -0.21967314 0.6105026
3.0712991 -0.16869801 0.61392045
3.0755713 -0.11774661 0.61733663
3.0798419 -0.066821903 0.62075108
3.0841095 -0.015920594 0.62416404
3.087522 0.024781346 0.6268931
3.6448975 -2.7706993 0.4862532
3.8317316 -2.7856166 0.48536235
4.0396023 -2.8022132 0.48437124
3.6218908 -2.725457 0.48524284
3.8059804 -2.7378604 0.48430592
3.4350486 -2.671891 0.48513645
3.5992398 -2.6809125 0.48424816
3.4149914 -2.6301603 0.48419654
2.8960426 -2.2622385 0.51532328
2.900403 -2.2102313 0.51879996
2.9047618 -2.1582482 0.52227491
2.9091182 -2.1062925 0.52574813
2.9134727 -2.0543613 0.52921963
2.9169543 -2.012836 0.53199553
2.9213042 -1.960953 0.53546387
2.9256525 -1.9090946 0.53893054
2.9299982 -1.8572633 0.54239535
2.9343443 -1.8062756 0.55622989
2.9378173 -1.7648454 0.55899733
2.9421582 -1.7130826 0.56245494
2.946496 -1.6613431 0.56591105
2.9508319 -1.6096315 0.56936526
2.9551656 -1.5579441 0.57281792
2.958631 -1.516613 0.57557881
2.9629607 -1.4649734 0.57902825
2.9672885 -1.4133582 0.58247608
3.061832 -1.415484 0.55801827
2.9716141 -1.3617699 0.58592206
3.0536761 -1.3902988 0.55783641
2.9759378 -1.3102062 0.58936644
2.9793944 -1.2689736 0.59212071
2.9837146 -1.2174575 0.59556192
2.9880316 -1.1659652 0.59900141
2.9923468 -1.1145002 0.60243922
2.9966598 -1.0630591 0.60587543
3.0001087 -1.0219252 0.60862309
3.0044177 -0.97053188 0.61205608
3.0087256 -0.91916233 0.61548746
3.0130301 -0.86781996 0.61891705
3.0173323 -0.81650126 0.62234497
3.0216334 -0.76520991 0.62577111
3.0259321 -0.71394241 0.62919563
3.0293696 -0.67294729 0.63193417
3.0339952 -0.61677241 0.62324709
3.0332499 -0.62792063 0.650491
3.0379562 -0.57053071 0.63877541
3.0422459 -0.51936138 0.64219338
3.0465353 -0.4682157 0.64560974
3.0508213 -0.41709709 0.64902449
3.0551057 -0.36600214 0.65243751
3.058531 -0.32514504 0.65516669
3.0628111 -0.27409726 0.65857655
3.0670893 -0.22307315 0.66198492
3.0713656 -0.17207585 0.66539145
3.0756392 -0.12110217 0.66879642
3.079911 -0.070155472 0.67219955
3.0841806 -0.019232213 0.67560124
3.088448 0.031664073 0.67900091
2.8960357 -2.2665355 0.56729293
2.900398 -2.2145052 0.5707581
2.9047587 -2.1624994 0.57422149
2.9091167 -2.1105208 0.57768309
2.9134729 -2.0585668 0.5811432
2.9169562 -2.0170231 0.58390987
2.921308 -1.9651172 0.58736652
2.9256575 -1.9132354 0.59082174
2.9300058 -1.8613818 0.59427518
2.9343531 -1.8103712 0.60810399
2.9378285 -1.768923 0.6108622
2.9421706 -1.7171369 0.61430854
2.9465103 -1.665375 0.61775303
2.9508479 -1.6136405 0.62119585
2.955184 -1.5619304 0.62463707
2.9586501 -1.5205812 0.62738866
2.9629822 -1.4689188 0.63082659
2.9673116 -1.4172809 0.63426304
2.9716389 -1.36567 0.63769752
2.9759638 -1.3140833 0.64113045
2.9794228 -1.2728331 0.64387548
2.9837437 -1.2212942 0.64730531
2.9880636 -1.1697793 0.65073359
2.9923801 -1.1182917 0.65415978
2.9966955 -1.0668281 0.65758461
3.0001454 -1.0256763 0.66032308
3.0044563 -0.97426039 0.66374469
3.0087657 -0.92286843 0.66716474
3.013072 -0.87150359 0.67058289
3.0173767 -0.82016259 0.67399937
3.0216789 -0.76884878 0.67741424
3.0259788 -0.7175588 0.68082732
3.0294182 -0.67654586 0.68355668
3.0337143 -0.62530333 0.68696672
3.0380089 -0.57408452 0.69037509
3.0427241 -0.51742136 0.68896103
3.0414534 -0.53383601 0.70342338
3.0465913 -0.47172496 0.69718683
3.0508788 -0.42058408 0.70059007
3.0551648 -0.3694669 0.70399195
3.0585921 -0.32859206 0.70671195
3.0628736 -0.27752209 0.71011055
3.0671539 -0.22647581 0.71350753
3.0714314 -0.1754564 0.71690261
3.0757074 -0.12446064 0.72029632
3.0799809 -0.073491737 0.72368819
3.0842526 -0.022546455 0.72707844
3.0881772 0.02443096 0.72813648
3.0902436 0.048076987 0.74211872
2.8960283 -2.2708361 0.61930346
2.9003925 -2.2187827 0.62275702
2.9047551 -2.1667535 0.6262089
2.9091148 -2.1147523 0.629659
2.9134734 -2.0627751 0.63310742
2.9169576 -2.0212128 0.63586497
2.9213121 -1.9692841 0.6393103
2.9256635 -1.9173796 0.6427539
2.9300127 -1.8655031 0.64619571
2.9343603 -1.8136501 0.64963591
2.9378374 -1.7721875 0.6523869
2.9421799 -1.7203832 0.65582389
2.9465215 -1.6686029 0.65925914
2.950861 -1.6168504 0.66269284
2.9551978 -1.5651219 0.6661247
2.9586658 -1.5237582 0.66886896
2.9629989 -1.4720778 0.67229789
2.96733 -1.4204216 0.67572498
2.9716587 -1.3687928 0.6791504
2.9759851 -1.3171875 0.68257415
2.9794452 -1.275923 0.68531191
2.9837682 -1.2243662 0.68873256
2.9880884 -1.172833 0.69215149
2.9924068 -1.1213274 0.69556868
2.9967237 -1.0698458 0.69898432
3.0001748 -1.0286795 0.70171559
3.0044868 -0.97724563 0.70512801
3.0087979 -0.92583555 0.70853883
3.0131061 -0.87445283 0.7119478
3.0174119 -0.82309389 0.71535528
3.0217154 -0.77176219 0.71876091
3.026017 -0.7204541 0.72216499
3.0294569 -0.67942691 0.72488695
3.0337553 -0.62816644 0.72828794
3.0380509 -0.57692993 0.73168719
3.0423446 -0.52572042 0.73508477
3.0466247 -0.47383195 0.72815377
3.0466475 -0.47523725 0.74880767
3.0511751 -0.42075181 0.74649423
3.0552242 -0.37293476 0.75559217
3.0586529 -0.3320421 0.75830323
3.062937 -0.28094998 0.76169038
3.0672185 -0.22988142 0.76507604
3.0714982 -0.17883991 0.76845992
3.0757754 -0.12782194 0.77184224
3.0800507 -0.076830924 0.77522266
3.0843236 -0.025863528 0.77860153
3.0877411 0.014891565 0.78130347
3.0903029 0.045447797 0.78332925
2.8960214 -2.2751405 0.67136097
2.9003875 -2.2230639 0.67480296
2.9047518 -2.1710119 0.67824322
2.9091139 -2.1189873 0.68168181
2.9134736 -2.0669875 0.68511868
2.9169598 -2.0254064 0.68786693
2.9213154 -1.9734547 0.69130057
2.9256687 -1.9215276 0.69473267
2.9300201 -1.8696275 0.69816291
2.9343696 -1.8177524 0.70159179
2.9378474 -1.7762713 0.70433336
2.9421923 -1.7244439 0.70775872
2.9465361 -1.672641 0.71118277
2.950877 -1.6208658 0.71460474
2.9552157 -1.5691144 0.71802527
2.9586852 -1.5277326 0.72076041
2.9630198 -1.4760296 0.72417766
2.9673529 -1.4243505 0.7275933
2.9716837 -1.3726988 0.73100722
2.976012 -1.3210711 0.73441941
2.9794734 -1.2797885 0.73714811
2.9837978 -1.2282088 0.74055731
2.9881203 -1.1766531 0.74396473
2.9924407 -1.1251251 0.74737054
2.9967589 -1.0736208 0.75077462
3.000212 -1.0324365 0.75349671
3.0045261 -0.9809801 0.75689763
3.0088379 -0.92954749 0.76029706
3.0131478 -0.87814218 0.76369458
3.0174561 -0.82676077 0.76709068
3.0217614 -0.77540666 0.77048481
3.0260651 -0.72407627 0.77387756
3.0295062 -0.68303108 0.77659023
3.0338058 -0.63174832 0.77997988
3.0381033 -0.58048934 0.78336775
3.0423987 -0.52925754 0.78675395
3.0466919 -0.4780494 0.79013854
3.0507712 -0.42960098 0.79593503
3.0552719 -0.37571093 0.79690015
3.0552959 -0.37709978 0.81756556
3.0587134 -0.33549488 0.80993474
3.0630002 -0.28438061 0.81331062
3.0672829 -0.23328981 0.81668484
3.0715644 -0.18222614 0.82005727
3.0758436 -0.13118595 0.82342809
3.0801208 -0.080172792 0.82679725
3.0843954 -0.029183209 0.83016497
3.0878143 0.011589557 0.83285767
3.0903773 0.042159081 0.83487666
2.8960145 -2.2794483 0.72345942
2.9003823 -2.2273486 0.72688967
2.9047484 -2.1752732 0.73031855
2.9091125 -2.1232259 0.73374546
2.9134736 -2.0712025 0.73717082
2.9169614 -2.0296037 0.73990989
2.9213185 -1.9776289 0.74333203
2.9256744 -1.9256787 0.74675256
2.9300272 -1.8737559 0.7501713
2.9343789 -1.8218577 0.75358832
2.9378579 -1.7803583 0.75632071
2.9422054 -1.7285082 0.75973481
2.9465504 -1.6766825 0.76314712
2.9508932 -1.6248841 0.76655769
2.9552338 -1.5731101 0.7699666
2.9587049 -1.5317099 0.7726925
2.9630415 -1.479984 0.77609819
2.9673758 -1.4282823 0.77950245
2.9717083 -1.3766081 0.7829048
2.9760387 -1.3249576 0.78630567
2.979501 -1.2836566 0.78902483
2.9838278 -1.2320545 0.79242247
2.9881518 -1.1804764 0.79581851
2.9924741 -1.1289256 0.79921287
2.9967935 -1.0773988 0.80260551
3.000248 -1.0361962 0.80531836
3.0045648 -0.98471737 0.80870801
3.0088787 -0.93326235 0.81209594
3.0131905 -0.88183463 0.81548196
3.0174999 -0.83043063 0.81886661
3.0218067 -0.77905405 0.82224929
3.0261123 -0.72770119 0.82563049
3.0295548 -0.686638 0.82833409
3.0338566 -0.63533288 0.83171219
3.0381556 -0.58405155 0.83508867
3.0424531 -0.53279734 0.83846343
3.0467482 -0.48156691 0.84183669
3.0510406 -0.4303636 0.84520793
3.0553319 -0.37918401 0.84857774
3.0587635 -0.33825931 0.85127234
3.0633903 -0.28289962 0.85284096
3.0613477 -0.30826461 0.8636291
3.0673347 -0.23601858 0.85800409
3.0716171 -0.18493718 0.86136746
3.0758984 -0.13387918 0.86472934
3.0801768 -0.082848355 0.86808932
3.0844533 -0.03184104 0.87144768
3.0878725 0.0089459121 0.87413323
3.0910108 0.046100914 0.88003403
2.8968828 -2.2724719 0.76585537
2.901252 -2.2203574 0.7692762
2.9047461 -2.1786854 0.7720117
2.909111 -2.1266193 0.77542949
2.9134738 -2.0745778 0.77884543
2.9169626 -2.0329638 0.78157699
2.9213214 -1.9809711 0.78498971
2.9256785 -1.929002 0.78840113
2.9300334 -1.8770614 0.79181069
2.934386 -1.8251443 0.79521847
2.9380417 -1.7820456 0.80432642
2.9422174 -1.7325761 0.81175739
2.9465642 -1.6807272 0.81515819
2.9509087 -1.6289062 0.81855714
2.9552512 -1.5771093 0.82195455
2.958724 -1.5356913 0.82467127
2.963062 -1.4839423 0.8280654
2.9673994 -1.4322181 0.83145803
2.9717336 -1.3805208 0.83484888
2.9760652 -1.3288479 0.83823824
2.9795294 -1.2875285 0.84094828
2.9838576 -1.2359037 0.84433436
2.9881835 -1.1843028 0.84771901
2.9925075 -1.1327294 0.85110176
2.9968293 -1.08118 0.85448295
3.0006571 -1.035759 0.86044097
3.0048172 -0.98569584 0.85813922
3.0089188 -0.93698043 0.86394107
3.013232 -0.88553011 0.86731571
3.0175438 -0.83410382 0.8706888
3.0218525 -0.78270465 0.87406015
3.02616 -0.73132938 0.87742966
3.029604 -0.69024825 0.88012421
3.0339067 -0.63892066 0.88349086
3.038208 -0.58761692 0.88685608
3.0425074 -0.53634036 0.89021927
3.0468042 -0.48508757 0.89358103
3.0510991 -0.43386191 0.89694077
3.0553916 -0.38266003 0.90029919
3.0588243 -0.34171748 0.90298468
3.0631127 -0.29056299 0.90633988
3.0673742 -0.23806635 0.88901103
3.0674126 -0.24011524 0.920035
3.0718949 -0.18560377 0.91062772
3.0699968 -0.21012668 0.93238735
3.0759668 -0.13724846 0.9163959
3.0802464 -0.086195379 0.91974449
3.0845249 -0.035165951 0.92309165
