# .PCD v0.7 - Point Cloud Data file format
VERSION 0.7
FIELDS x y z
SIZE 4 4 4
TYPE F F F
COUNT 1 1 1
WIDTH 1483
HEIGHT 1
VIEWPOINT 0 0 0 1 0 0 0
POINTS 1483
DATA ascii
3.0981159 -0.5729748 1.0691651
3.1017675 -0.52889097 1.0677619
3.1054087 -0.48493594 1.0663627
3.1099443 -0.43017876 1.0646197
3.1144643 -0.37560734 1.0628828
3.1180687 -0.33209813 1.0614978
3.124351 -0.25625628 1.0590837
3.1216621 -0.28871506 1.060117
3.1270332 -0.22387579 1.058053
3.1309013 -0.17866936 1.0631419
3.135251 -0.12717064 1.0658393
2.9568934 -2.2751858 1.1117009
2.9611783 -2.2261217 1.1217853
2.9652414 -2.1770785 1.1202242
2.9692907 -2.1281855 1.1186681
2.9733286 -2.079443 1.1171165
2.9773536 -2.0308504 1.1155699
2.9813666 -1.9824061 1.114028
2.9853673 -1.9341104 1.1124905
2.9893556 -1.8859621 1.110958
2.9943242 -1.8259783 1.1090486
2.9923396 -1.8499428 1.1098114
2.9972959 -1.7901049 1.1079069
3.0022335 -1.7304981 1.1060094
3.0074749 -1.6687897 1.1108999
3.0112844 -1.6238494 1.1140258
3.0151939 -1.5766411 1.1125059
3.018981 -1.5319613 1.1156163
3.0231872 -1.4827406 1.1208415
3.0270619 -1.4359556 1.1193182
3.0309248 -1.3893112 1.1177994
3.0376573 -1.3080162 1.1151524
3.0347762 -1.3428071 1.1162852
3.0405321 -1.2733117 1.1140224
3.0443549 -1.2271547 1.1125193
3.0481663 -1.1811355 1.111021
3.0519657 -1.1352535 1.109527
3.0566993 -1.0781001 1.107666
3.0614161 -1.021145 1.1058116
3.0653839 -0.97580165 1.1155114
3.0691328 -0.93052733 1.1140205
3.0728712 -0.885387 1.1125344
3.0773802 -0.83239585 1.1171423
3.0823746 -0.77317083 1.1199406
3.0860744 -0.7284922 1.1184533
3.0897632 -0.68394488 1.1169701
3.0943584 -0.62845123 1.1151227
3.098938 -0.57314706 1.1132814
3.1025887 -0.52905464 1.1118134
3.1062298 -0.48509097 1.1103497
3.1107645 -0.430323 1.1085265
3.1155872 -0.37358171 1.1132103
3.1190929 -0.33225477 1.1162046
3.1253738 -0.25639448 1.1136512
3.1226854 -0.28886107 1.1147439
3.1280556 -0.22400615 1.1125611
3.1315265 -0.18308607 1.1155369
3.136272 -0.12727787 1.1201731
2.9579434 -2.2758434 1.1699685
2.962018 -2.2266369 1.1683304
2.9660797 -2.1775825 1.1666971
2.9701295 -2.1286798 1.1650691
2.9741669 -2.0799265 1.1634461
2.9781914 -2.0313234 1.1618278
2.982204 -1.9828687 1.1602147
2.9862041 -1.9345626 1.1586065
2.9901915 -1.886404 1.1570032
2.9951601 -1.8264076 1.1550059
2.9931755 -1.8503765 1.1558034
2.9984541 -1.7881999 1.1606169
3.0032759 -1.7310088 1.1632844
3.0080829 -1.6740083 1.1659367
3.0123258 -1.6243321 1.1711084
3.0162354 -1.5771117 1.1695018
3.020133 -1.5300336 1.1679
3.0240188 -1.4830972 1.1663032
3.0278931 -1.4363028 1.1647108
3.0317559 -1.3896488 1.1631235
3.0384884 -1.3083367 1.1603569
3.0356069 -1.3431348 1.1615409
3.0413623 -1.2736251 1.1591761
3.0451841 -1.2274586 1.1576052
3.048995 -1.1814301 1.1560391
3.0530019 -1.13561 1.165719
3.0577345 -1.078442 1.163753
3.0624509 -1.0214725 1.1617941
3.0664177 -0.97611761 1.1714143
3.0701661 -0.93083191 1.1698401
3.073904 -0.88568008 1.1682707
3.0785589 -0.82943463 1.1663162
3.0831995 -0.77338284 1.1643678
3.0868979 -0.72869533 1.1628149
3.0905871 -0.68413925 1.1612661
3.0951819 -0.62863451 1.1593372
3.0997605 -0.57331944 1.1574147
3.1037164 -0.52704072 1.1624153
3.1072564 -0.48528486 1.1653581
3.1117911 -0.43050355 1.163434
3.1162114 -0.37810096 1.165977
3.1201172 -0.33241129 1.1709354
3.1263976 -0.25653276 1.1682428
3.1237102 -0.28900728 1.1693951
3.1290789 -0.22413668 1.167093
3.1326451 -0.18104589 1.1655641
3.1370893 -0.12736365 1.1636593
2.9587841 -2.2763696 1.2166046
2.9628577 -2.2271526 1.2148939
2.9669194 -2.1780879 1.2131888
2.9709682 -2.129174 1.2114886
2.9750051 -2.08041 1.209794
2.9790292 -2.0317967 1.2081044
2.9830413 -1.9833313 1.2064201
2.9870405 -1.9350147 1.2047408
2.9912372 -1.8869566 1.2145865
2.9962044 -1.826944 1.2124786
2.9942203 -1.8509196 1.2133206
2.9990611 -1.7934856 1.2158937
3.0043201 -1.7315204 1.2205853
3.0092387 -1.6720927 1.2184765
3.0131598 -1.6247187 1.2167952
3.0170693 -1.5774882 1.2151192
3.0209661 -1.5304003 1.2134483
3.0248518 -1.4834543 1.2117823
3.0287251 -1.43665 1.2101214
3.0325875 -1.3899863 1.2084655
3.0391116 -1.3085771 1.1942717
3.037056 -1.3365175 1.2088289
3.0425086 -1.2716731 1.2110407
3.0462217 -1.2278386 1.2139879
3.0500317 -1.1817982 1.2123375
3.0540376 -1.1359665 1.2219367
3.0587697 -1.078784 1.2198658
3.0634851 -1.0217999 1.2178019
3.0672445 -0.97637045 1.2161562
3.0709929 -0.93107551 1.2145159
3.0747299 -0.88591468 1.2128803
3.0793848 -0.82965797 1.2108428
3.08495 -0.76240438 1.2084067
3.0830984 -0.78478557 1.2092173
3.0877228 -0.72889853 1.2071931
3.0917182 -0.68213743 1.2121453
3.0962105 -0.62886375 1.2146301
3.1007886 -0.57353503 1.2126057
3.1043386 -0.53164148 1.2154807
3.1082835 -0.48547876 1.2203907
3.1128173 -0.43068412 1.218366
3.1173353 -0.37607551 1.2163483
3.1209373 -0.33253673 1.2147394
3.1270123 -0.25661582 1.2010098
3.1251078 -0.28263354 1.2150804
3.1298976 -0.22424111 1.2107379
3.1334639 -0.18114206 1.2091453
3.138248 -0.124396 1.2117078
3.141655 -0.08463873 1.2164425
2.9596248 -2.2768962 1.2632595
2.9636979 -2.227668 1.2614768
2.9677596 -2.1785924 1.2596992
2.9718075 -2.129668 1.2579273
2.9758444 -2.0808938 1.2561606
2.9798679 -2.0322695 1.2543998
2.9840884 -1.98391 1.2642035
2.9880872 -1.9355805 1.2624356
2.9922833 -1.8875092 1.2721964
2.9970412 -1.8273735 1.2584755
2.995997 -1.8435048 1.2744035
3.0002203 -1.7915808 1.2686517
3.005156 -1.7319295 1.2664477
3.0100737 -1.6724894 1.2642514
3.0139947 -1.6251054 1.2625005
3.0179029 -1.5778649 1.2607549
3.0217996 -1.5307671 1.2590146
3.0256848 -1.4838115 1.2572798
3.0295577 -1.4369973 1.2555498
3.0345907 -1.3787687 1.2647345
3.0393982 -1.3206574 1.2625662
3.0431223 -1.2766746 1.2654419
3.0472593 -1.2282188 1.2703971
3.0510688 -1.1821668 1.2686615
3.0548673 -1.1362519 1.2669314
3.0595984 -1.0790578 1.2647762
3.0643134 -1.0220621 1.2626284
3.0680718 -0.9766233 1.2609162
3.0718198 -0.93131936 1.2592089
3.0755558 -0.88614935 1.257507
3.0805984 -0.82711381 1.2636322
3.0859818 -0.76266688 1.2639666
3.0841298 -0.78505355 1.2648182
3.0887542 -0.72915274 1.2626914
3.0923395 -0.68682134 1.2655125
3.09724 -0.62909305 1.2699475
3.1018176 -0.57375079 1.2678214
3.1054664 -0.52962786 1.2661264
3.1091056 -0.48563403 1.2644365
3.1136384 -0.43082863 1.2623311
3.1181564 -0.37620941 1.260233
3.1217575 -0.33266205 1.2585604
3.1265888 -0.27533007 1.261042
3.1309214 -0.22437167 1.2653179
3.1344872 -0.18126225 1.2636462
3.1387591 -0.13024214 1.2643864
3.1426768 -0.08473587 1.2707694
2.9604659 -2.2774224 1.3099333
2.9645386 -2.2281842 1.3080781
2.9685993 -2.1790977 1.3062283
2.9726472 -2.1301625 1.3043842
2.9768925 -2.0814989 1.314146
2.980916 -2.0328615 1.3122957
2.985136 -1.9844891 1.3220143
2.9891348 -1.9361465 1.3201573
2.9931207 -1.8879517 1.318306
2.9970951 -1.8399041 1.3164603
3.0020447 -1.7800581 1.3141612
3.0069771 -1.7204243 1.3118705
3.0109091 -1.6728859 1.3100443
3.0148287 -1.6254923 1.3082236
3.0187373 -1.5782418 1.3064086
3.0229526 -1.5288372 1.3113458
3.0267262 -1.4842582 1.3141773
3.0305986 -1.4374313 1.3123612
3.0356307 -1.3791878 1.3214425
3.0404372 -1.3210615 1.3191671
3.0442696 -1.2747231 1.3173531
3.0480895 -1.2285233 1.3155446
3.051899 -1.1824616 1.3137414
3.055697 -1.1365374 1.3119437
3.0604272 -1.0793315 1.3097042
3.0651417 -1.0223244 1.3074725
3.0689001 -0.97687644 1.3056934
3.072854 -0.93162423 1.3151006
3.0765896 -0.88644284 1.3133154
3.0810962 -0.83340389 1.3175836
3.0870137 -0.76292962 1.319551
3.0851622 -0.78532177 1.3204441
3.0897851 -0.72940695 1.3182144
3.093472 -0.6848197 1.3164363
3.0980644 -0.62927657 1.3142214
3.1026411 -0.57392335 1.312014
3.1062899 -0.52979177 1.3102539
3.1099281 -0.4857893 1.3084992
3.1148071 -0.42786199 1.3108989
3.1191826 -0.37637678 1.3151133
3.1227841 -0.33281901 1.3133603
3.1270976 -0.28127074 1.3140191
3.1319456 -0.22450235 1.3199223
3.1355109 -0.18138257 1.3181711
3.1399527 -0.12766436 1.31599
3.1434946 -0.084813543 1.3142496
2.9613066 -2.2779493 1.356626
2.9653802 -2.2287004 1.3546979
2.969768 -2.1772275 1.3596622
2.9736972 -2.1307809 1.3624828
2.977942 -2.0821042 1.3721588
2.9819646 -2.0334537 1.3702188
2.9859753 -1.9849521 1.3682845
2.9899731 -1.9365993 1.3663561
2.9939585 -1.8883942 1.3644338
2.9979324 -1.8403364 1.3625174
3.0028815 -1.7804776 1.3601302
3.007813 -1.7208312 1.3577516
3.011744 -1.673283 1.3558556
3.015985 -1.6235703 1.3607315
3.0197802 -1.5787128 1.3635021
3.0235643 -1.5339819 1.3662601
3.0277681 -1.4847047 1.3711013
3.0316401 -1.4378661 1.3691992
3.0364633 -1.3795235 1.3668298
3.0412698 -1.321385 1.3644686
3.0451007 -1.2750369 1.3625861
3.0489206 -1.2288277 1.3607098
3.0527296 -1.1827564 1.3588388
3.0565267 -1.1368229 1.3569734
3.0616484 -1.0767998 1.3629603
3.0661774 -1.0226521 1.363553
3.0699348 -0.977193 1.3616903
3.0738893 -0.93192935 1.3710175
3.0776243 -0.88673663 1.3691491
3.0822768 -0.83044052 1.3668216
3.0876331 -0.76308715 1.3529149
3.0866742 -0.77808839 1.3683645
3.090611 -0.72961044 1.3626528
3.0942969 -0.68501437 1.360809
3.0988889 -0.62946028 1.358512
3.1037707 -0.57191122 1.3627628
3.1073194 -0.52999681 1.3654377
3.1109567 -0.48598349 1.3636018
3.1153131 -0.43389893 1.3641777
3.1202097 -0.3765443 1.3700181
3.1238103 -0.33297583 1.3681849
3.1282954 -0.27869967 1.3659012
3.1329947 -0.22099879 1.3598294
3.1320786 -0.23543125 1.3750111
3.1363301 -0.1814788 1.3618102
3.1407709 -0.12775025 1.3595498
3.1443129 -0.084891364 1.3577465
2.9624786 -2.2760882 1.4102437
2.9664311 -2.2293456 1.4130007
2.9703722 -2.1827369 1.4157449
2.9747477 -2.1313996 1.4206091
2.9787822 -2.0825887 1.4185908
2.9828043 -2.0339274 1.4165789
2.986814 -1.9854158 1.4145731
2.9908113 -1.9370524 1.4125737
2.9947968 -1.888837 1.4105802
2.9987698 -1.8407691 1.4085929
3.0037179 -1.7808973 1.4061173
3.0089717 -1.7189176 1.410437
3.0127892 -1.6737794 1.4131459
3.0165958 -1.6287689 1.4158422
3.0208235 -1.5791845 1.4206219
3.0247188 -1.5320523 1.4186386
3.0286021 -1.4850624 1.4166614
3.0324736 -1.4382138 1.4146901
3.0372963 -1.379859 1.4122348
3.0421019 -1.3217086 1.4097879
3.0468888 -1.2637789 1.4073504
3.0449762 -1.2869231 1.4083242
3.0497522 -1.2291323 1.4058925
3.0537682 -1.1831256 1.415236
3.0575647 -1.1371801 1.4132861
3.0621419 -1.0832525 1.4174181
3.067214 -1.0229803 1.4196587
3.070971 -0.97750944 1.4177121
3.074717 -0.93217337 1.4157714
3.0784516 -0.88697153 1.4138361
3.0831041 -0.8306641 1.4114256
3.0877404 -0.77455056 1.4090235
3.0914369 -0.72981399 1.4071081
3.0951223 -0.68520904 1.4051987
3.0997138 -0.62964398 1.4028199
3.1040535 -0.57796746 1.404292
3.1081424 -0.5301609 1.4096018
3.1117797 -0.48613891 1.4077011
3.1163106 -0.43129867 1.4053333
3.1208262 -0.37664476 1.4029733
3.1244264 -0.33306998 1.4010921
3.1289115 -0.27878597 1.3987484
3.1342731 -0.21388617 1.3959461
3.1324887 -0.2354846 1.3968786
3.1369448 -0.18155104 1.3945498
3.1413856 -0.12781477 1.3922302
3.144927 -0.084949702 1.3903794
2.9630814 -2.2816553 1.4665319
2.967483 -2.2299914 1.471331
2.9715419 -2.1808677 1.4692279
2.9755883 -2.1318951 1.4671314
2.9796228 -2.0830736 1.4650412
2.983644 -2.0344017 1.4629577
2.9876533 -1.9858795 1.4608804
2.9916506 -1.937506 1.4588096
2.995635 -1.8892801 1.456745
2.9996076 -1.8412015 1.4546868
3.0055432 -1.7693586 1.4516112
3.0025792 -1.8052347 1.4531469
3.0092278 -1.7256495 1.4535644
3.0136256 -1.6741768 1.4589963
3.0175433 -1.6267505 1.4569486
3.02145 -1.5794677 1.4549072
3.0253448 -1.532328 1.4528716
3.0292277 -1.4853306 1.4508429
3.0330982 -1.4384749 1.4488195
3.037921 -1.3801107 1.4462996
3.042726 -1.3219514 1.4437885
3.047513 -1.2640128 1.441287
3.0456004 -1.2871605 1.4422864
3.0503759 -1.2293607 1.439791
3.9961743 -0.5587129 -1.7180552
3.7263417 -0.53551465 -1.5940627
3.7312131 -0.53640777 -1.5534598
3.49084 -0.51526791 -1.485846
3.7360964 -0.53730273 -1.5127666
3.4951272 -0.51608056 -1.4477032
3.2847772 -0.49769124 -1.378593
2.9284072 -1.8690467 -1.2797182
2.9326739 -1.823047 -1.2799491
2.9369416 -1.7770355 -1.2801796
2.9412107 -1.731012 -1.2804103
2.9465489 -1.6734654 -1.2806987
2.9518886 -1.6159016 -1.2809874
2.9561615 -1.5698371 -1.2812183
2.9604359 -1.5237602 -1.2814493
2.9647107 -1.4776716 -1.2816805
2.9689875 -1.4315712 -1.2819114
2.9732642 -1.3854587 -1.2821425
2.9786124 -1.3278012 -1.2824317
2.9839625 -1.270126 -1.2827208
2.9882441 -1.223972 -1.2829521
2.9925261 -1.1778063 -1.2831835
2.9968095 -1.1316289 -1.2834148
3.0010939 -1.0854388 -1.2836466
3.0064511 -1.0276845 -1.283936
3.0118098 -0.96991277 -1.2842256
3.0160985 -0.92368144 -1.2844573
3.0203881 -0.87743819 -1.2846892
3.0246782 -0.83118308 -1.2849209
3.0289707 -0.7849161 -1.2851528
3.0343366 -0.72706461 -1.2854428
3.0397043 -0.66919589 -1.2857327
3.0439997 -0.62288713 -1.2859651
3.0482965 -0.57656616 -1.2861972
3.0525947 -0.53023338 -1.2864296
3.0857491 -0.48639804 -1.2920164
2.9289403 -1.8692325 -1.2450343
2.933208 -1.8232284 -1.2452604
2.9374766 -1.7772123 -1.2454867
2.9417458 -1.731184 -1.245713
2.9470849 -1.673632 -1.2459958
2.952425 -1.6160626 -1.2462788
2.9566984 -1.5699934 -1.2465053
2.9609728 -1.5239118 -1.2467316
2.9652486 -1.477819 -1.2469584
2.9695253 -1.4317137 -1.2471851
2.9744811 -1.378687 -1.2451302
2.9795446 -1.3233111 -1.2500336
2.9845028 -1.2702531 -1.2479787
2.9887838 -1.2240944 -1.2482057
2.9930673 -1.1779242 -1.2484326
2.9973512 -1.1317419 -1.2486595
3.0018167 -1.0855839 -1.2372981
3.0068617 -1.030702 -1.2404637
3.0096807 -1.0047803 -1.2145104
3.0111003 -0.98153478 -1.2609887
3.0128212 -0.96774411 -1.233237
3.0168242 -0.92380524 -1.2380881
3.0211139 -0.87755591 -1.238314
3.0254049 -0.8312946 -1.2385399
3.0296969 -0.78502136 -1.2387658
3.0350642 -0.72716248 -1.2390485
3.0404329 -0.66928619 -1.2393309
3.0447292 -0.62297124 -1.239557
3.0490265 -0.57664418 -1.2397834
3.0533252 -0.53030527 -1.2400098
3.0574832 -0.48627871 -1.2355815
3.0618114 -0.44147557 -1.2249647
2.9298301 -1.869542 -1.1872121
2.9340987 -1.8235303 -1.1874309
2.9383678 -1.7775066 -1.1876496
2.9426384 -1.7314709 -1.1878685
2.947978 -1.6739097 -1.1881421
2.9533191 -1.6163305 -1.1884159
2.9575934 -1.5702537 -1.188635
2.9618692 -1.524165 -1.1888541
2.966145 -1.4780643 -1.1890733
2.9704232 -1.4319518 -1.1892924
2.9757714 -1.374294 -1.1895666
2.981122 -1.3166186 -1.189841
2.9854031 -1.2704643 -1.1900601
2.9896855 -1.2242985 -1.1902797
2.993969 -1.1781204 -1.1904992
2.9982538 -1.1319308 -1.1907188
3.0027204 -1.0857651 -1.1793473
3.0057549 -1.05107 -1.1911043
3.0085449 -1.0233784 -1.1773232
3.0134401 -0.97020477 -1.179893
3.0177302 -0.92395979 -1.1801113
3.0220213 -0.87770283 -1.1803297
3.0263128 -0.83143395 -1.1805481
3.0306063 -0.78515315 -1.1807666
3.0359745 -0.72728491 -1.18104
3.0413442 -0.66939902 -1.1813132
3.0456409 -0.62307632 -1.181532
3.0499392 -0.57674187 -1.1817508
3.0542388 -0.53039521 -1.1819696
3.0585394 -0.48403671 -1.1821886
3.0628409 -0.43766633 -1.1824075
3.0668464 -0.39515388 -1.1787368
2.9307203 -1.8698518 -1.1293722
2.9349899 -1.8238325 -1.1295835
2.93926 -1.7778012 -1.129795
2.943531 -1.7317582 -1.1300064
2.9488716 -1.6741873 -1.1302708
2.9542141 -1.6165988 -1.1305354
2.9584889 -1.5705147 -1.130747
2.9627652 -1.5244181 -1.1309586
2.9670424 -1.47831 -1.1311704
2.9713206 -1.4321898 -1.1313823
2.9766707 -1.3745226 -1.1316471
2.9820213 -1.3168378 -1.131912
2.9863043 -1.270676 -1.1321241
2.9905877 -1.2245026 -1.1323359
2.9948721 -1.1783168 -1.1325482
2.999157 -1.1321197 -1.1327603
3.0021911 -1.0974272 -1.1445141
3.0038614 -1.0820709 -1.129125
3.0088038 -1.0281311 -1.1332377
3.0141654 -0.97033471 -1.1335032
3.018456 -0.92408365 -1.1337155
3.022748 -0.87782043 -1.1339279
3.02704 -0.83154571 -1.1341406
3.0313339 -0.78525871 -1.1343532
3.0367031 -0.72738272 -1.1346189
3.0420737 -0.66948932 -1.1348848
3.0463715 -0.6231606 -1.1350975
3.0506701 -0.5768199 -1.1353103
3.0549703 -0.53046721 -1.1355233
3.0592713 -0.48410258 -1.1357362
3.0635734 -0.43772602 -1.1359493
3.068953 -0.37973788 -1.1362154
3.0740361 -0.32560337 -1.1325905
2.9314327 -1.8700994 -1.0830861
2.9357028 -1.8240741 -1.0832915
2.9399734 -1.778037 -1.0834969
2.9442453 -1.7319881 -1.0837026
2.9495869 -1.6744096 -1.0839597
2.9549298 -1.6168135 -1.0842165
2.9592052 -1.5707229 -1.0844222
2.9634824 -1.5246207 -1.084628
2.9677601 -1.4785063 -1.0848339
2.9720392 -1.4323801 -1.0850396
2.9773893 -1.3747052 -1.085297
2.9827418 -1.317013 -1.0855545
2.9870248 -1.2708455 -1.0857607
2.9913092 -1.2246656 -1.0859667
2.995594 -1.1784742 -1.0861729
2.9986277 -1.1437846 -1.0979241
3.0002975 -1.1284325 -1.0825306
3.0041671 -1.0860553 -1.0865854
3.0095282 -1.0282686 -1.0868431
3.0148907 -0.97046459 -1.0871011
3.0191817 -0.92420733 -1.0873076
3.0234742 -0.87793827 -1.087514
3.0277672 -0.83165717 -1.0877206
3.0320616 -0.78536415 -1.0879272
3.0374312 -0.72748065 -1.0881855
3.0428028 -0.66957963 -1.088444
3.047101 -0.62324482 -1.0886509
3.0514007 -0.5768981 -1.0888577
3.0557017 -0.53053927 -1.0890646
3.0600033 -0.48416853 -1.0892714
3.0643063 -0.43778583 -1.0894785
3.0696869 -0.37979001 -1.0897374
3.0750685 -0.3217766 -1.0899965
3.0790777 -0.27922425 -1.0863116
2.9321456 -1.8703473 -1.0367879
2.9364157 -1.8243159 -1.0369872
2.9406872 -1.778273 -1.037187
2.9449596 -1.7322179 -1.0373867
2.9503016 -1.6746318 -1.037636
2.9556465 -1.6170282 -1.0378857
2.9599223 -1.5709318 -1.0380853
2.9642 -1.5248233 -1.0382851
2.9684782 -1.4787028 -1.0384852
2.9727583 -1.4325711 -1.038685
2.9781089 -1.3748883 -1.0389349
2.9834619 -1.3171885 -1.0391849
2.9877458 -1.2710146 -1.0393851
2.9920306 -1.2248287 -1.0395852
2.9950638 -1.1901425 -1.0513335
2.9967337 -1.1747943 -1.0359364
3.0006032 -1.1324217 -1.0399859
3.0048914 -1.0862005 -1.040186
3.0102525 -1.0284061 -1.0404365
3.0156155 -0.97059447 -1.0406871
3.0199075 -0.92433119 -1.0408876
3.0242004 -0.87805599 -1.041088
3.0284948 -0.83176899 -1.0412886
3.0327897 -0.78546977 -1.0414891
3.0381603 -0.7275787 -1.0417401
3.0435324 -0.66966987 -1.0419911
3.0478315 -0.62332898 -1.0421919
3.0521321 -0.57697612 -1.0423928
3.0564332 -0.53061128 -1.0425935
3.0607357 -0.48423442 -1.0427948
3.0650392 -0.43784559 -1.0429957
3.0704203 -0.37984207 -1.0432472
3.0758033 -0.32182112 -1.0434986
3.0801105 -0.2753903 -1.0436996
3.0844183 -0.22894746 -1.0439011
3.0878353 -0.19411477 -1.0324221
2.9328585 -1.8705952 -0.99047756
2.937129 -1.8245578 -0.99067104
2.9414015 -1.7785084 -0.99086452
2.9456749 -1.7324476 -0.99105811
2.9510179 -1.6748543 -0.99130034
2.9563618 -1.6172431 -0.99154246
2.96064 -1.5711404 -0.99173641
2.9649172 -1.5250261 -0.99193037
2.9691968 -1.4789 -0.9921242
2.9734769 -1.4327614 -0.99231815
2.9788294 -1.3750713 -0.99256063
2.9841828 -1.3173637 -0.99280334
2.9884667 -1.2711838 -0.99299741
2.9915004 -1.2365006 -1.0047426
2.9931693 -1.221156 -0.98934126
2.9970384 -1.1787887 -0.99338579
3.0013261 -1.1325731 -0.99358022
3.0056152 -1.0863454 -0.99377465
3.0109773 -1.0285436 -0.9940176
3.0163412 -0.9707244 -0.99426031
3.0206337 -0.92445505 -0.99445498
3.0249271 -0.87817377 -0.99464965
3.029222 -0.83188057 -0.99484408
3.0335178 -0.78557539 -0.99503887
3.0388889 -0.72767651 -0.99528241
3.0442624 -0.66976029 -0.99552584
3.0485625 -0.62341326 -0.99572074
3.0528631 -0.57705432 -0.99591553
3.0571647 -0.53068334 -0.99611056
3.0614681 -0.48430037 -0.99630535
3.0657725 -0.43790546 -0.99650049
3.0711541 -0.37989426 -0.99674439
3.0765376 -0.32186559 -0.99698853
3.0808458 -0.27542865 -0.9971838
3.085155 -0.22897971 -0.99737906
3.0894651 -0.18251872 -0.99757445
3.0928831 -0.14767089 -0.98608637
2.9335713 -1.8708431 -0.9441548
2.9378424 -1.8247999 -0.94434249
2.9421148 -1.7787447 -0.94453025
2.9463892 -1.7326772 -0.94471776
2.9517331 -1.6750766 -0.94495261
2.9570789 -1.6174577 -0.94518733
2.9613566 -1.5713493 -0.94537514
2.9656353 -1.5252289 -0.94556314
2.9699149 -1.4790964 -0.94575113
2.974196 -1.432952 -0.94593906
2.9795489 -1.3752545 -0.94617409
2.9849033 -1.3175393 -0.94640923
2.9879365 -1.2828588 -0.95815158
2.9896059 -1.2675183 -0.94274622
2.9934745 -1.2251557 -0.94678587
2.9977617 -1.1789458 -0.94697404
3.0020499 -1.132724 -0.94716233
3.0063386 -1.0864906 -0.9473508
3.0117021 -1.028681 -0.9475863
3.017067 -0.9708544 -0.94782186
3.0213599 -0.92457896 -0.94801044
3.0256538 -0.87829155 -0.94819885
3.0299501 -0.83199239 -0.94838762
3.034246 -0.78568113 -0.94857627
3.0396185 -0.72777456 -0.94881231
3.044992 -0.66985071 -0.94904828
3.049293 -0.62349749 -0.94923699
3.0535946 -0.57713252 -0.94942617
3.0582223 -0.52844679 -0.94264853
3.0623841 -0.48438284 -0.93817633
3.066689 -0.43798023 -0.93836379
3.072072 -0.37995949 -0.93859851
3.077456 -0.32192126 -0.93883312
3.0817657 -0.27547666 -0.93902075
3.0860758 -0.22902006 -0.93920845
3.0903864 -0.18255141 -0.9393965
3.0946989 -0.13607076 -0.93958431
2.9342842 -1.8710914 -0.89782017
2.938735 -1.8251027 -0.88641411
2.9430089 -1.7790394 -0.88659436
2.9472833 -1.7329648 -0.88677448
2.9526277 -1.6753545 -0.88699991
2.9579744 -1.6177266 -0.88722533
2.9622531 -1.5716103 -0.88740581
2.9665332 -1.5254824 -0.8875863
2.9708133 -1.4793421 -0.88776672
2.9750953 -1.4331906 -0.88794732
2.9801364 -1.378358 -0.89106262
2.9829516 -1.3524865 -0.86505753
2.9843731 -1.3292172 -0.91156024
2.9860911 -1.3154672 -0.88376671
2.9900904 -1.2715654 -0.88857973
2.9943771 -1.2253598 -0.88876045
2.9986658 -1.1791428 -0.88894141
3.002954 -1.1329132 -0.88912225
3.0072441 -1.0866721 -0.88930327
3.0126085 -1.0288531 -0.88952929
3.0179739 -0.97101688 -0.88975567
3.0222678 -0.92473382 -0.88993675
3.0265632 -0.87843889 -0.89011788
3.0308595 -0.83213204 -0.89029908
3.0351572 -0.78581315 -0.89048028
3.0405302 -0.72789711 -0.89070684
3.0459051 -0.6699636 -0.89093357
3.0502062 -0.62360305 -0.89111495
3.0545087 -0.57723027 -0.89129645
3.05867 -0.53317201 -0.88681716
3.0633001 -0.48446527 -0.88002902
3.067606 -0.43805504 -0.88020897
3.0729899 -0.38002476 -0.88043427
3.0783753 -0.32197693 -0.88065952
3.0826855 -0.27552468 -0.88083977
3.0869961 -0.22906041 -0.88102007
3.0913081 -0.18258408 -0.88120055
3.0956211 -0.13609575 -0.88138068
2.9351759 -1.8714013 -0.83988392
2.9396276 -1.8254051 -0.82846779
2.9439015 -1.7793347 -0.82864052
2.9481769 -1.7332526 -0.82881349
2.9535232 -1.6756327 -0.82902956
2.9588709 -1.6179954 -0.82924569
2.96315 -1.5718713 -0.82941866
2.9674306 -1.5257359 -0.82959163
2.9717121 -1.4795884 -0.82976466
2.9759946 -1.433429 -0.82993793
2.9790273 -1.3987553 -0.84167266
2.9818144 -1.371104 -0.82785076
2.9867063 -1.3179784 -0.8303709
2.990993 -1.2717774 -0.83054411
2.9952803 -1.2255641 -0.83071756
2.9995689 -1.1793392 -0.83089083
3.0038586 -1.1331024 -0.83106416
3.0081496 -1.0868537 -0.83123761
3.013515 -1.0290253 -0.83145458
3.0188818 -0.97117943 -0.83167154
3.0231762 -0.92488879 -0.83184516
3.027473 -0.87858629 -0.83201879
3.0317693 -0.83227181 -0.8321926
3.036068 -0.7859453 -0.83236635
3.0414419 -0.72801971 -0.83258361
3.0468183 -0.67007673 -0.83280092
3.0511203 -0.62370843 -0.83297479
3.0554237 -0.57732803 -0.83314878
3.0597277 -0.53093553 -0.83332282
3.0640335 -0.48453125 -0.83349681
3.0683393 -0.43811497 -0.83367097
3.0737247 -0.38007697 -0.83388859
3.0791111 -0.32202148 -0.83410639
3.0834217 -0.27556309 -0.83428067
3.0877333 -0.22909266 -0.83445489
3.0920458 -0.18261021 -0.83462924
3.0963593 -0.13611573 -0.8348037
3.2195959 -1.9275389 -0.77681291
3.3228526 -1.9416753 -0.77822298
3.432765 -1.956723 -0.779724
3.678575 -1.9615896 -0.78327465
3.8129768 -1.9789624 -0.78511709
2.9358897 -1.8716495 -0.79352266
2.9454651 -1.8784125 -0.77314705
3.0320611 -1.8899373 -0.77433211
3.1250858 -1.8900412 -0.77568758
3.2237639 -1.8901558 -0.7771253
3.3271832 -1.9031291 -0.77854568
3.4357686 -1.9302039 -0.77994639
3.4387732 -1.9036734 -0.78016865
3.5546932 -1.9316686 -0.78167015
3.6818433 -1.9332377 -0.78351313
3.8163939 -1.949603 -0.78536445
2.9401627 -1.8255869 -0.79369092
2.9504566 -1.8326936 -0.77352715
3.0385222 -1.8311551 -0.77482164
3.1317844 -1.8295293 -0.77619261
3.2293248 -1.840278 -0.77754211
3.3329616 -1.8516982 -0.77897602
3.4432836 -1.863855 -0.78050244
3.5609584 -1.876822 -0.78213054
3.6867485 -1.8906834 -0.78387111
3.8215227 -1.905535 -0.78573596
2.944438 -1.7795118 -0.79385918
2.9567018 -1.7754954 -0.77400261
3.0449877 -1.7723197 -0.77531147
3.137146 -1.7810743 -0.77659655
3.23489 -1.7903593 -0.77795923
3.3387446 -1.8002241 -0.77940691
3.4493003 -1.8107249 -0.78094786
3.5672297 -1.8219265 -0.78259164
3.6932936 -1.8339007 -0.78434879
3.8283663 -1.8467306 -0.78623146
2.9487138 -1.7334251 -0.79402757
2.9629517 -1.7182477 -0.77447861
3.0501652 -1.7252091 -0.77570355
3.1425118 -1.732581 -0.77700061
3.2404599 -1.7403998 -0.77837646
3.344532 -1.7487063 -0.77983791
3.4553232 -1.7575493 -0.78139359
3.5735064 -1.766982 -0.78305292
3.6982069 -1.7912807 -0.78470725
3.7014842 -1.7628502 -0.7849465
3.8335037 -1.8025923 -0.78660363
2.9540606 -1.6757995 -0.79423815
2.9679565 -1.6724094 -0.77485967
3.0553465 -1.6780629 -0.77609611
3.147882 -1.6840492 -0.7774052
3.2460327 -1.6903988 -0.77879387
3.3503246 -1.6971456 -0.78026932
3.4598436 -1.7176386 -0.78172815
3.578217 -1.7257427 -0.78339922
3.7047629 -1.734406 -0.78518558
3.838645 -1.7584184 -0.78697574
2.9594088 -1.6181566 -0.79444867
2.9729648 -1.6265374 -0.77524114
3.0592346 -1.6426803 -0.77639055
3.0618286 -1.6190802 -0.77658707
3.1532569 -1.6354791 -0.7778101
3.2516098 -1.6403571 -0.77921158
3.3546705 -1.658447 -0.7805928
3.4643669 -1.6776987 -0.78206289
3.582931 -1.6844724 -0.78374571
3.7096844 -1.6917136 -0.78554481
3.8455052 -1.6994731 -0.78747261
2.9636884 -1.5720283 -0.79461724
2.9779768 -1.5806305 -0.77562273
3.0657206 -1.5836616 -0.77688187
3.1586351 -1.5868707 -0.77821517
3.2571921 -1.590275 -0.77962971
3.3590207 -1.619722 -0.78091657
3.4704018 -1.6244069 -0.78250933
3.589222 -1.6294045 -0.78420818
3.7162509 -1.6347463 -0.78602397
3.8523717 -1.6404711 -0.78796995
2.9679694 -1.5258883 -0.79478568
2.9829926 -1.53469 -0.77600467
3.0709138 -1.5364063 -0.77727526
3.1640186 -1.5382237 -0.77862084
3.2627792 -1.540152 -0.78004795
3.3648233 -1.5680519 -0.78134853
3.4764409 -1.5710685 -0.782956
3.5955172 -1.5742865 -0.78467077
3.72118 -1.5919883 -0.78638369
3.8575263 -1.5961839 -0.78834313
2.9722514 -1.479736 -0.79495442
2.9892678 -1.4772137 -0.77648246
3.0761108 -1.4891149 -0.77766889
3.1694055 -1.4895386 -0.77902663
3.2683702 -1.489988 -0.78046674
3.3691788 -1.5292723 -0.78167278
3.3720841 -1.5034047 -0.7818889
3.4824853 -1.5176836 -0.78340292
3.6018167 -1.5191189 -0.78513348
3.7261124 -1.5491968 -0.78674364
3.8626842 -1.5518613 -0.78871673
2.9754634 -1.4451146 -0.79508078
2.9895678 -1.4204684 -0.7830289
3.0813122 -1.4417871 -0.77806282
3.1747975 -1.4408147 -0.77943265
3.2739658 -1.4397832 -0.7808857
3.3764443 -1.4645816 -0.78221351
3.4885345 -1.4642527 -0.78385019
3.606545 -1.4777119 -0.7854808
3.7326927 -1.4920963 -0.78722364
3.8695679 -1.4927173 -0.78921515
2.9893651 -1.3749607 -0.78813785
3.0865169 -1.3944228 -0.77845722
3.1801929 -1.3920524 -0.7798391
3.2795663 -1.3895373 -0.78130513
3.3822622 -1.4127814 -0.78264654
3.4945898 -1.4107749 -0.78429806
3.6112776 -1.4362743 -0.78582835
3.7392788 -1.4349428 -0.78770381
3.8747344 -1.4483235 -0.78958917
2.996429 -1.3228207 -0.78663588
3.093029 -1.3351647 -0.77895045
3.1855931 -1.3432511 -0.78024596
3.2851706 -1.3392507 -0.78172481
3.3880849 -1.3609374 -0.78307992
3.4991341 -1.370638 -0.78463405
3.6175904 -1.3809828 -0.78629196
3.7442222 -1.3920447 -0.7880643
3.8799033 -1.4038936 -0.78996319
3.0010905 -1.2766528 -0.78691214
3.0995479 -1.275853 -0.77944416
3.1909971 -1.2944115 -0.78065306
3.2893777 -1.3015101 -0.78204
3.3939123 -1.3090496 -0.78351355
3.5036817 -1.3304716 -0.78497046
3.6239104 -1.3256415 -0.78675616
3.7491689 -1.3491132 -0.78842503
3.8850751 -1.359435 -0.79033738
3.8885264 -1.3297772 -0.79058713
3.0057545 -1.2304617 -0.78718835
3.1047668 -1.2283612 -0.77983952
3.1964064 -1.245533 -0.78106046
3.2935867 -1.2637435 -0.78235519
3.3997455 -1.2571183 -0.78394765
3.5097504 -1.2768781 -0.78541917
3.6302352 -1.2702506 -0.78722072
3.7557702 -1.2918267 -0.7889064
3.8919783 -1.3001047 -0.79083705
3.0132403 -1.1782714 -0.78580517
3.1099901 -1.180833 -0.78023511
3.2018185 -1.1966159 -0.78146815
3.2992034 -1.2133542 -0.78277582
3.405582 -1.2051432 -0.78438228
3.5158229 -1.2232376 -0.78586829
3.6349831 -1.2286763 -0.7875694
3.7623768 -1.2344874 -0.78938812
3.8971596 -1.2555677 -0.79121178
3.0163531 -1.1264449 -0.78783768
3.1152172 -1.133268 -0.78063107
3.2072358 -1.1476603 -0.78187621
3.3048239 -1.1629233 -0.78319675
3.4114251 -1.1531246 -0.78481716
3.5219011 -1.1695505 -0.78631783
3.6397343 -1.1870706 -0.78791833
3.7673364 -1.1914492 -0.78974962
3.9040742 -1.1961374 -0.79171216
3.0210252 -1.0801756 -0.78811455
3.1204486 -1.0856662 -0.78102732
3.2126575 -1.0986654 -0.78228462
3.3104496 -1.1124517 -0.78361803
3.4172721 -1.1010616 -0.78525239
3.5279856 -1.1158171 -0.78676766
3.6460743 -1.131555 -0.78838396
3.7722993 -1.1483778 -0.79011154
3.9092641 -1.1515291 -0.79208767
3.0238013 -1.0283046 -0.79005039
3.1256833 -1.0380279 -0.78142387
3.2180834 -1.0496317 -0.78269345
3.3160796 -1.0619385 -0.78403968
3.4216609 -1.0619874 -0.78557903
3.5340748 -1.0620364 -0.78721792
3.6524186 -1.0759895 -0.78884989
3.7789221 -1.0909047 -0.79059446
3.9144578 -1.1068847 -0.79246348
3.0314517 -0.97599512 -0.78871119
3.1309228 -0.99035275 -0.78182077
3.2235131 -1.000559 -0.78310233
3.3217144 -1.0113839 -0.78446168
3.4260526 -1.0228853 -0.78590584
3.5386448 -1.0216719 -0.78755587
3.6571813 -1.0342842 -0.78919977
3.7838926 -1.0477664 -0.79095685
3.0361314 -0.92965281 -0.78898865
3.1361661 -0.94264078 -0.78221792
3.2289476 -0.95144755 -0.78351164
3.327354 -0.96078825 -0.78488398
3.4319124 -0.97071278 -0.78634202
3.5432181 -0.98127782 -0.78789419
3.6603584 -1.0064639 -0.78943306
3.0408139 -0.88328671 -0.78926599
3.1414137 -0.8948921 -0.78261542
3.2343864 -0.90229696 -0.78392148
3.3329978 -0.91015095 -0.78530663
3.4363103 -0.93155593 -0.78666937
3.0488968 -0.8308326 -0.78804666
3.1466651 -0.84710646 -0.78301316
3.2384682 -0.86540967 -0.78422892
3.0370941 -0.78218049 -0.78975064
3.042172 -0.7281177 -0.78607059
3.0475488 -0.67016715 -0.78628051
3.0518517 -0.62379277 -0.78644842
3.0561557 -0.57740617 -0.78661633
3.0604601 -0.53100771 -0.78678435
3.0647664 -0.48459727 -0.78695244
3.0690737 -0.43817478 -0.78712052
3.0744596 -0.38012919 -0.78733075
3.0798464 -0.32206607 -0.78754109
3.0841575 -0.27560151 -0.78770924
3.0884695 -0.22912493 -0.7878775
3.0927835 -0.18263635 -0.78804588
3.1018462 -0.13664271 -0.78959435
3.149662 -0.12995979 -0.76771516
3.0386009 -0.77457058 -0.73938346
3.042902 -0.72821593 -0.73954535
3.0482798 -0.67025775 -0.73974764
3.0525832 -0.62387705 -0.73990971
3.0568876 -0.57748449 -0.74007159
3.0611935 -0.53107983 -0.7402336
3.0655003 -0.48466328 -0.74039578
3.069808 -0.43823469 -0.74055785
3.0751944 -0.38018143 -0.74076045
3.0805821 -0.32211056 -0.74096322
3.0848942 -0.27563995 -0.74112558
3.0892067 -0.22915724 -0.74128777
3.0935206 -0.18266249 -0.74145013
3.0967569 -0.14778394 -0.74157178
3.1826549 -0.13345072 -0.75299692
3.2163563 -0.13701658 -0.73796272
3.2507892 -0.14065984 -0.72260207
3.039331 -0.77467489 -0.69285196
3.0436325 -0.72831416 -0.69300771
3.0490108 -0.67034823 -0.69320267
3.0533152 -0.62396145 -0.6933586
3.05762 -0.57756275 -0.69351459
3.0619268 -0.53115207 -0.69367069
3.0662336 -0.48472935 -0.69382668
3.0705423 -0.43829465 -0.69398278
3.0759296 -0.38023368 -0.69417793
3.0813184 -0.32215515 -0.69437325
3.0856309 -0.2756784 -0.69452941
3.0899444 -0.22918954 -0.69468576
3.0942583 -0.18268865 -0.69484198
3.0974956 -0.14780548 -0.69495928
3.2859774 -0.14438301 -0.70690441
3.3219466 -0.1481888 -0.6908586
3.3587222 -0.15207997 -0.67445278
3.04006 -0.77477914 -0.64630812
3.0443625 -0.72841221 -0.64645803
3.0497422 -0.67043877 -0.64664537
3.0540471 -0.62404591 -0.64679527
3.0583529 -0.57764119 -0.64694536
3.0626597 -0.53122425 -0.64709532
3.066968 -0.48479542 -0.64724535
3.0712767 -0.43835455 -0.64739549
3.0766649 -0.38028595 -0.64758307
3.0820541 -0.32219973 -0.64777082
3.0863676 -0.27571675 -0.64792109
3.0906816 -0.22922185 -0.64807129
3.0949965 -0.18271482 -0.64822161
3.0982342 -0.14782701 -0.64833438
3.4155688 -0.15809476 -0.64909297
3.4741726 -0.16429549 -0.62295008
3.0409732 -0.77490956 -0.58811045
3.0452762 -0.72853512 -0.58825284
3.0506568 -0.67055196 -0.58843088
3.0549617 -0.62415141 -0.58857328
3.0592685 -0.577739 -0.58871573
3.0635767 -0.53131455 -0.58885831
3.0678854 -0.48487797 -0.5890007
3.0721955 -0.43842945 -0.5891434
3.0775843 -0.38035128 -0.58932161
3.0829749 -0.32225552 -0.58949995
3.0872884 -0.27576488 -0.58964258
3.0916038 -0.22926226 -0.5897854
3.0959196 -0.18274754 -0.58992809
3.0991578 -0.14785397 -0.59003514
3.5144558 -0.16855779 -0.60497457
3.555685 -0.17292011 -0.58656943
3.0531445 -0.7666924 -0.53206003
3.1926365 -0.77408952 -0.52447087
3.3318787 -0.79118186 -0.52652705
3.4838462 -0.80983621 -0.52877092
3.831234 -0.82215458 -0.53314251
3.0527606 -0.72591251 -0.53366435
3.1906662 -0.73599809 -0.52349561
3.3295884 -0.75140035 -0.52550578
3.481185 -0.76820755 -0.52769917
3.6472731 -0.78662163 -0.53010237
3.828835 -0.79161394 -0.53235096
3.0560126 -0.67196089 -0.53112632
3.1880455 -0.68539035 -0.52219933
3.3265457 -0.69855589 -0.52414906
3.4776492 -0.712919 -0.52627575
3.6431623 -0.72865188 -0.52860516
3.8252478 -0.74596 -0.53116775
3.057044 -0.62458128 -0.53057665
3.1854362 -0.63499916 -0.52090859
3.3235135 -0.64594668 -0.52279794
3.4741297 -0.65788835 -0.52485889
3.6390719 -0.67096555 -0.52711529
3.8204856 -0.68534833 -0.52959704
3.060185 -0.57783699 -0.53046811
3.1828375 -0.58482313 -0.51962328
3.3204951 -0.5935719 -0.52145278
3.470624 -0.60311329 -0.52344793
3.6360154 -0.62787664 -0.52600253
3.8169298 -0.64008397 -0.52842391
3.0644937 -0.53140479 -0.53060305
3.1802502 -0.53486103 -0.51834357
3.3174896 -0.54142994 -0.52011353
3.4680047 -0.56219119 -0.52239388
3.6329694 -0.58496195 -0.52489352
3.8133879 -0.59501195 -0.52725577
3.0688033 -0.48496056 -0.53073812
3.1776743 -0.48511145 -0.5170691
3.3144979 -0.48951939 -0.51878029
3.465395 -0.52142721 -0.52134383
3.6289239 -0.52797419 -0.52342099
3.8075085 -0.52024871 -0.52531731
3.8098559 -0.55009305 -0.5260911
3.0731144 -0.43850443 -0.53087318
3.1757488 -0.44793123 -0.51611668
3.3122621 -0.45073009 -0.517784
3.4610643 -0.45378098 -0.51960135
3.4627934 -0.48078927 -0.52029711
3.6248984 -0.47126275 -0.52195555
3.8051682 -0.4904806 -0.52454537
4.0044794 -0.51174819 -0.52740937
3.0785036 -0.38041654 -0.5310421
3.3107762 -0.42494696 -0.51712185
3.4584794 -0.4133932 -0.51856107
3.6218915 -0.42890093 -0.52086097
3.8016677 -0.44597939 -0.52339149
3.9990363 -0.44925761 -0.52578282
3.0838952 -0.32231125 -0.53121096
3.6178999 -0.37266839 -0.51940787
3.6198931 -0.4007507 -0.5201335
3.7970209 -0.3868953 -0.52185953
3.9949718 -0.4025982 -0.52456844
3.0882106 -0.27581295 -0.5313462
3.79355 -0.34276912 -0.5207153
3.9909263 -0.35614592 -0.5233593
3.092526 -0.22930261 -0.53148139
3.9868941 -0.30985826 -0.52215457
3.0968428 -0.18278024 -0.53161657
3.1000814 -0.14788094 -0.53171802
3.5979052 -0.17738733 -0.5677219
3.6633096 -0.18430763 -0.53852493
3.174469 -0.42321461 -0.51548362
3.1725545 -0.38624421 -0.51453656
3.3092928 -0.39922071 -0.51646101
3.1693754 -0.32486993 -0.51296455
3.1706452 -0.34937814 -0.5135923
3.307076 -0.36074483 -0.51547289
3.4550457 -0.3597497 -0.51717931
3.1674771 -0.28821093 -0.51202548
3.3041296 -0.30963188 -0.5141601
3.4516277 -0.30635291 -0.51580393
3.6149192 -0.33068037 -0.51832294
3.1649551 -0.23950371 -0.51077783
3.3011966 -0.25874346 -0.51285321
3.448226 -0.25320122 -0.51443487
3.610961 -0.27492061 -0.51688206
3.7900944 -0.29882866 -0.51957589
3.1624432 -0.19100103 -0.50953543
3.2982764 -0.20807809 -0.51155186
3.4448385 -0.20029277 -0.51307201
3.6070218 -0.21942836 -0.51544809
3.7855062 -0.2404874 -0.51806331
3.9828801 -0.26377517 -0.52095509
3.1605659 -0.15475112 -0.50860679
3.2960944 -0.17021766 -0.51057953
3.7820797 -0.19691485 -0.51693344
3.9788804 -0.21785474 -0.51975989
3.6139426 -1.1735617 0.28035837
3.6225924 -1.1194406 0.28048918
3.6290922 -1.078774 0.28058752
3.6356034 -1.0380321 0.28068602
3.6443014 -0.98360831 0.2808176
3.6530194 -0.9290626 0.28094944
3.6595697 -0.88807702 0.28104851
3.0216532 -1.1368232 0.31075925
3.2070055 -1.1565112 0.2859478
3.2106452 -1.1324694 0.28600863
3.0270371 -1.0788229 0.31072649
3.2161121 -1.0963593 0.28610009
3.032423 -1.0208051 0.31069377
3.223413 -1.0481327 0.28622219
3.0367332 -0.97437692 0.31066754
3.2307286 -0.99981052 0.2863445
3.0410438 -0.92793673 0.31064138
3.2380581 -0.95139223 0.28646711
3.0453563 -0.88148433 0.31061512
3.2454028 -0.90287757 0.28658989
3.0496697 -0.83502007 0.31058887
3.2527618 -0.85426646 0.28671297
3.6639428 -0.86071235 0.2811147
3.0539837 -0.78854376 0.31056267
3.2601361 -0.8055585 0.28683633
3.6705132 -0.81960434 0.28121406
3.0593781 -0.73043066 0.31052986
3.2675252 -0.75675327 0.28695986
3.6770926 -0.77843446 0.28131357
3.0647755 -0.6723001 0.31049705
3.2749281 -0.70785052 0.28708372
3.6836848 -0.73718768 0.28141332
3.0690932 -0.6257813 0.31047079
3.2823462 -0.65885019 0.28720772
3.6924915 -0.68208903 0.2815465
3.0734129 -0.57925081 0.3104445
3.2897792 -0.60975182 0.28733203
3.7013168 -0.62686628 0.28168005
3.0777335 -0.53270817 0.31041828
3.2972269 -0.56055492 0.28745657
3.7079487 -0.58537132 0.28178033
3.0820551 -0.48615336 0.31039199
3.3065586 -0.49891514 0.28761262
3.7145929 -0.54379845 0.28188083
3.0863781 -0.43958655 0.31036568
3.3159122 -0.43713084 0.28776905
3.7234631 -0.48826262 0.28201482
3.091783 -0.38136041 0.3103328
3.3215351 -0.39998579 0.28786308
3.3252897 -0.3751893 0.28792587
3.7323403 -0.43259916 0.28214851
3.0971899 -0.3231166 0.31029993
3.3290472 -0.35036781 0.28798872
3.7412372 -0.37681034 0.2822825
3.1015162 -0.27650738 0.31027368
3.3346915 -0.31308568 0.28808311
3.7479224 -0.3348901 0.28238314
3.1058445 -0.22988617 0.3102473
3.3422294 -0.26329255 0.28820914
3.7546201 -0.292891 0.28248399
3.1101737 -0.18325281 0.31022099
3.3497734 -0.21339786 0.28833491
3.7635679 -0.23678681 0.2826187
3.1145034 -0.13660732 0.3101947
3.357327 -0.16340214 0.28846067
3.7725358 -0.18055573 0.28275377
3.1177511 -0.10161565 0.31017494
3.3630013 -0.12584248 0.28855512
3.0232763 -1.1253383 0.34582397
3.0275841 -1.0789315 0.34580231
3.0329709 -1.0209081 0.34577525
3.037281 -0.97447515 0.34575361
3.0415931 -0.92803037 0.34573191
3.0459056 -0.88157332 0.34571022
3.05022 -0.83510447 0.34568852
3.0545344 -0.78862351 0.34566689
3.0599294 -0.73050463 0.34563974
3.0658088 -0.66850668 0.35341588
3.069829 -0.62586629 0.35729966
3.0741496 -0.57932955 0.35727948
3.0784707 -0.53278071 0.35725927
3.0827928 -0.48621973 0.3572391
3.0871167 -0.43964678 0.3572188
3.0925231 -0.38141292 0.35719356
3.09793 -0.32316139 0.35716832
3.1022577 -0.27654606 0.35714805
3.106586 -0.22991863 0.35712782
3.1109157 -0.18327913 0.35710764
3.1152463 -0.13662747 0.35708737
3.118495 -0.10163114 0.35707217
3.4653363 -1.0059474 0.43235973
3.7336979 -1.0421268 0.42881811
3.4620061 -0.96382076 0.43167561
3.7267838 -0.96647501 0.42760417
3.7295432 -0.99666762 0.42808867
3.2267232 -0.88327289 0.43392777
3.4586897 -0.9218775 0.43099457
3.7240314 -0.93636721 0.42712104
3.2240653 -0.84437305 0.43328962
3.454288 -0.8661955 0.43009034
3.7199197 -0.89137447 0.42639911
3.2205353 -0.79271609 0.43244216
3.4499087 -0.81080264 0.4291909
3.2170219 -0.74130881 0.43159881
3.4444656 -0.74195582 0.42807293
3.4466386 -0.76943749 0.42851916
3.2135262 -0.69014961 0.43075955
3.4412184 -0.70087528 0.4274058
3.2100468 -0.63923657 0.42992434
3.4379821 -0.65993619 0.42674103
3.2057204 -0.57593113 0.42888576
3.207448 -0.60120481 0.42930037
3.4347591 -0.61917228 0.42607915
3.2031384 -0.53814197 0.42826584
3.430481 -0.56505305 0.42520031
3.1997085 -0.48795682 0.42744255
3.4262242 -0.5112108 0.42432597
3.1962957 -0.43801093 0.42662317
3.421989 -0.45764339 0.4234561
3.1928988 -0.38830251 0.42580768
3.4177761 -0.40434891 0.4225907
3.1895185 -0.33882993 0.42499608
3.4135838 -0.35132509 0.42172965
3.1861534 -0.28959146 0.42418829
3.4094105 -0.29856965 0.42087269
3.1828046 -0.24058539 0.42338437
3.4052577 -0.24608079 0.42002007
3.112741 -0.17164248 0.40400308
3.1803012 -0.20397508 0.42278364
3.1159897 -0.13664761 0.4039925
3.1192389 -0.10164664 0.40398192
3.5776587 -2.3256152 0.45452866
3.5743923 -2.2784166 0.45380521
3.8579288 -2.3016586 0.44980302
3.5700583 -2.2157826 0.45284531
3.5722222 -2.2470591 0.45332468
3.8538313 -2.2509909 0.44903529
3.3225455 -2.1562111 0.45569497
3.5668225 -2.1690288 0.45212871
3.8497515 -2.2005572 0.44827101
3.3199759 -2.1127398 0.45502192
3.5635982 -2.1224356 0.45141461
3.8456869 -2.1503096 0.4475095
3.3165622 -2.0550096 0.45412806
3.5603871 -2.0760415 0.45070356
3.84164 -2.1002936 0.44675156
3.1004643 -1.9827676 0.45628431
3.3131657 -1.9975551 0.45323852
3.557188 -2.0298061 0.44999483
3.8376093 -2.0504615 0.44599637
3.0977693 -1.9291724 0.45544723
3.3106284 -1.9546356 0.45257401
3.5539989 -1.9837652 0.44928893
3.8335962 -2.0008581 0.44524458
2.9554043 -1.8784384 0.47456095
3.0950866 -1.8758167 0.45461383
3.3081012 -1.9118868 0.45191213
3.5497632 -1.9226379 0.4483515
3.8295979 -1.9514365 0.44449565
2.9596963 -1.8322105 0.47455591
3.093082 -1.8359486 0.45399112
3.3047447 -1.8551133 0.45103317
3.5465999 -1.876987 0.44765151
3.8256187 -1.9022406 0.44375011
2.9650621 -1.7744083 0.47454968
3.0910845 -1.7962283 0.45337069
3.301403 -1.7986085 0.45015818
3.5434508 -1.83153 0.44695443
3.8216529 -1.8532246 0.44300726
2.9704299 -1.7165886 0.47454345
3.0884314 -1.7434633 0.45254657
3.2980742 -1.7423689 0.44928706
3.539269 -1.771176 0.44602892
3.8177052 -1.8044313 0.44226775
2.9747252 -1.6703192 0.47453851
3.0857902 -1.6909323 0.45172608
3.2955866 -1.7003553 0.4486362
3.5361462 -1.726102 0.44533774
3.8111601 -1.7235227 0.44104162
3.8137727 -1.7558157 0.44153103
2.9790225 -1.6240375 0.47453353
3.0831604 -1.6386333 0.45090923
3.2931089 -1.6585064 0.44798794
3.5330367 -1.6812172 0.44464946
3.8085542 -1.6913172 0.44055355
2.9833202 -1.5777436 0.47452852
3.0805392 -1.5865629 0.45009559
3.2898192 -1.6029271 0.44712698
3.5429697 -1.6144835 0.45424333
3.7116046 -1.6122595 0.46055424
3.7992067 -1.6353551 0.44912139
3.8657985 -1.6263627 0.45992032
2.9922404 -1.5464642 0.46355376
3.0422859 -1.551383 0.46937674
3.0924597 -1.5556312 0.46314171
3.1458726 -1.5608687 0.46915218
3.1994801 -1.5654188 0.46268958
3.2566113 -1.5710088 0.46889964
3.3140206 -1.5758955 0.46221876
3.3734498 -1.5809535 0.45528889
3.3770962 -1.5827974 0.48199588
3.4368987 -1.587134 0.46169963
3.5027347 -1.5935471 0.46835166
3.5670304 -1.5982388 0.44705388
3.6379056 -1.6051122 0.45367226
3.0389271 -0.97476989 0.45105496
3.2347584 -1.0008608 0.43585685
3.0432396 -0.92831117 0.45104691
3.2311769 -0.94844353 0.43499693
3.047554 -0.88184047 0.45103893
3.2285013 -0.90929031 0.43435457
3.0518689 -0.83535779 0.45103085
3.0572653 -0.7772367 0.45102081
3.0626621 -0.71909809 0.45101082
3.0669818 -0.67257321 0.45100272
3.0713019 -0.62603617 0.4509947
3.0756235 -0.57948709 0.45098659
3.079946 -0.5329259 0.45097855
3.08427 -0.48635265 0.45097047
3.0885944 -0.43976742 0.45096248
3.0940022 -0.38151807 0.45095238
3.0994115 -0.3232511 0.45094231
3.1037402 -0.2766234 0.45093426
3.1080699 -0.22998366 0.45092618
3.112401 -0.18333176 0.45091814
3.1167326 -0.13666773 0.45091009
3.1199827 -0.10166215 0.45090401
2.9561229 -1.8786886 0.52126968
2.9604154 -1.8324543 0.52127075
2.9657826 -1.7746446 0.52127206
2.9711514 -1.7168175 0.52127331
2.9754477 -1.6705416 0.52127445
2.9797444 -1.6242542 0.52127552
2.9840431 -1.5779544 0.52127659
3.1538401 -1.5651289 0.53160983
3.2634273 -1.5745544 0.52057385
3.3210721 -1.5795124 0.51477545
3.3807502 -1.5846448 0.5087586
3.442574 -1.5899622 0.50253987
3.5086246 -1.5964392 0.50997251
3.5772123 -1.6031649 0.51769078
3.6442471 -1.6081339 0.49685019
3.7181993 -1.6153537 0.50460577
3.7951632 -1.6228675 0.51267707
3.8729377 -1.629608 0.50575644
2.9980226 -1.5496821 0.51110798
3.0467615 -1.5538409 0.50561351
3.0986233 -1.5589712 0.51224375
3.1506481 -1.5634221 0.50658792
3.2044172 -1.5680231 0.50075501
3.2600155 -1.5727797 0.49471068
3.0398417 -0.97493374 0.50958335
3.0441551 -0.92846727 0.50958294
3.04847 -0.88198894 0.50958234
3.0527864 -0.83549863 0.50958192
3.0581832 -0.77736795 0.50958139
3.0635819 -0.71921962 0.50958079
3.0679016 -0.67268711 0.50958043
3.0722227 -0.62614232 0.50957996
3.0765452 -0.57958567 0.50957948
3.0808687 -0.53301674 0.50957906
3.0851936 -0.48643583 0.50957859
3.089519 -0.43984285 0.50957805
3.0949273 -0.38158381 0.50957763
3.1003375 -0.32330722 0.50957704
3.1046672 -0.27667183 0.5095765
3.1089978 -0.23002431 0.5095762
3.1133299 -0.18336469 0.50957566
3.1176629 -0.13669294 0.50957519
3.120913 -0.10168154 0.50957489
2.9568419 -1.8789384 0.56799084
2.9611349 -1.8326983 0.56799787
2.9665027 -1.7748808 0.56800675
2.9718723 -1.7170464 0.56801569
2.9761696 -1.6707644 0.56802279
2.9804673 -1.6244706 0.56802988
2.9847665 -1.5781651 0.56803697
3.051249 -1.5563056 0.54194146
3.10326 -1.5614841 0.54918802
3.2093668 -1.5706338 0.53892106
3.2668457 -1.5763326 0.54648924
3.3844118 -1.5864964 0.53557736
3.448267 -1.5927995 0.54349631
3.6506095 -1.6111659 0.54015803
3.8777142 -1.6317796 0.53641146
2.9890666 -1.5318469 0.56804413
3.1237893 -1.5351415 0.55168593
3.2912188 -1.5496777 0.54934609
3.4772377 -1.5658281 0.54674631
3.6851215 -1.583877 0.54384106
3.9189687 -1.6041801 0.54057294
2.9933677 -1.4855174 0.56805134
3.1279945 -1.4866073 0.55164719
3.2956519 -1.4985917 0.5493052
3.4819236 -1.5119065 0.5467031
3.690093 -1.5267869 0.54379511
3.9229383 -1.5586901 0.54053622
2.9987464 -1.4275876 0.56806016
3.1322002 -1.4380695 0.55160838
3.3000851 -1.4475014 0.54926425
3.4866109 -1.4579809 0.54665977
3.693821 -1.4839664 0.54376066
3.9269066 -1.5131965 0.54049939
3.0041261 -1.3696405 0.56806904
3.1364064 -1.3895285 0.55156958
3.3045192 -1.3964077 0.54922336
3.4901261 -1.4175336 0.54662734
3.6975498 -1.4411426 0.54372621
3.9322 -1.4525341 0.54045051
3.0084314 -1.323269 0.56807619
3.1406131 -1.340984 0.5515309
3.3089533 -1.3453097 0.54918242
3.4936423 -1.3770843 0.54659486
3.7025218 -1.3840407 0.54368019
3.9361691 -1.4070337 0.5404138
3.0127378 -1.2768852 0.56808335
3.1448197 -1.2924361 0.55149204
3.3133879 -1.2942083 0.54914153
3.4983301 -1.3231475 0.54655159
3.7074943 -1.3269336 0.5436343
3.9388161 -1.3766983 0.5403893
3.0170455 -1.2304891 0.56809044
3.1490269 -1.2438841 0.55145329
3.317822 -1.2431028 0.54910058
3.5030184 -1.2692065 0.54650825
3.7112241 -1.2841002 0.54359978
3.0213537 -1.1840813 0.56809753
3.153234 -1.1953291 0.55141449
3.322257 -1.1919931 0.54905963
3.5077066 -1.2152611 0.54646498
3.0267415 -1.126054 0.56810647
3.1574416 -1.1467705 0.55137569
3.3266926 -1.1408798 0.5490188
3.0321298 -1.0680094 0.56811547
3.1616492 -1.0982082 0.55133688
3.0364428 -1.0215594 0.56812251
3.1648054 -1.0617844 0.55130774
3.0407562 -0.97509748 0.56812972
3.0450711 -0.92862344 0.56813687
3.0493865 -0.88213754 0.56814396
3.0537038 -0.83563942 0.56815118
3.0591016 -0.7774992 0.56816006
3.0645013 -0.7193414 0.56816906
3.0688219 -0.67280102 0.56817615
3.073144 -0.62624854 0.56818336
3.077467 -0.5796842 0.56819046
3.0817914 -0.53310764 0.56819767
3.0861163 -0.48651889 0.56820482
3.0904436 -0.43991822 0.56821197
3.0958529 -0.38164961 0.56822091
3.1012645 -0.32336333 0.56822985
3.1055946 -0.27672023 0.56823701
3.1099262 -0.23006499 0.56824428
3.1142588 -0.18339759 0.56825143
3.1185923 -0.13671809 0.56825858
3.1218438 -0.10170094 0.56826395
2.957561 -1.8791884 0.61472422
2.9618545 -1.8329425 0.61473739
2.9672236 -1.7751175 0.61475384
2.9725943 -1.7172751 0.61477029
2.9768915 -1.6709872 0.61478341
2.9811902 -1.6246873 0.61479664
2.9854903 -1.5783755 0.61480975
2.9897909 -1.5320514 0.61482292
2.9947748 -1.4787736 0.61717784
2.999866 -1.4231334 0.61251414
3.0048523 -1.3698239 0.61486912
3.0091586 -1.3234459 0.61488229
3.0134649 -1.277056 0.61489552
3.0177736 -1.2306541 0.6149087
3.0220828 -1.18424 0.61492193
3.0274715 -1.1262052 0.61493838
3.0328608 -1.0681528 0.61495495
3.0371742 -1.0216967 0.61496806
3.0414882 -0.97522867 0.61498129
3.045804 -0.92874849 0.61499447
3.0501204 -0.88225627 0.61500776
3.0544376 -0.83575213 0.61502093
3.0598369 -0.7776041 0.6150375
3.065237 -0.71943879 0.61505401
3.0695586 -0.67289221 0.61506724
3.0738811 -0.62633359 0.61508048
3.0782051 -0.57976305 0.61509383
3.08253 -0.5331803 0.615107
