# .PCD v0.7 - Point Cloud Data file format
VERSION 0.7
FIELDS x y z
SIZE 4 4 4
TYPE F F F
COUNT 1 1 1
WIDTH 1468
HEIGHT 1
VIEWPOINT 0 0 0 1 0 0 0
POINTS 1468
DATA ascii
2.894906 -2.0102234 -0.83374977
2.9470432 -2.042357 -0.8382079
3.0089216 -2.0473549 -0.83929223
3.0737433 -2.0525911 -0.84042841
3.1417239 -2.0580821 -0.84161985
3.2130985 -2.0638473 -0.84287077
3.2881293 -2.0699079 -0.84418577
3.3671043 -2.076287 -0.84556991
2.9024794 -1.973953 -0.81846964
2.9723814 -1.9976636 -0.8165229
3.03527 -2.0016501 -0.8171075
3.1011705 -2.0058279 -0.81772017
3.1703048 -2.0102105 -0.81836295
3.2429163 -2.0148137 -0.81903809
3.4503424 -2.0830107 -0.84702873
3.5381989 -2.0901072 -0.8485688
3.6310689 -2.0976088 -0.8501963
3.7293947 -2.1055508 -0.85191965
3.8336706 -2.1139739 -0.85374719
3.9444542 -2.1229219 -0.85568875
2.9096544 -1.934478 -0.8063755
2.9980555 -1.9523767 -0.79455006
3.0619762 -1.9553242 -0.79462141
3.1289792 -1.9584137 -0.79469609
3.1992931 -1.9616563 -0.79477453
3.2731702 -1.9650627 -0.79485697
3.3192749 -2.0196538 -0.81974798
3.3996782 -2.0247509 -0.82049537
3.4844558 -2.0301254 -0.8212837
3.5739758 -2.0358 -0.82211596
3.6686456 -2.0418015 -0.82299614
3.7689245 -2.0481586 -0.82392842
4.0623746 -2.132447 -0.85775554
4.1881433 -2.1426055 -0.85995972
2.9081373 -1.8722503 -0.81165904
2.9057417 -1.9003482 -0.8038668
3.350888 -1.9686464 -0.79494357
3.432754 -1.9724214 -0.79503489
3.5191095 -1.9764032 -0.79513115
3.6103342 -1.9806098 -0.79523283
3.7068517 -1.9850602 -0.79534054
3.8753264 -2.0549033 -0.82491755
3.9884279 -2.0620732 -0.82596916
4.1088834 -2.0697095 -0.82708907
4.2374344 -2.0778584 -0.82828408
2.9124675 -1.828059 -0.80080718
3.8091369 -1.9897771 -0.79545468
3.9177215 -1.9947836 -0.79557568
4.0332074 -2.0001092 -0.79570454
2.917316 -1.7777625 -0.79171216
4.1562729 -2.0057838 -0.79584175
4.2876911 -2.0118434 -0.79598826
2.9221532 -1.727587 -0.78263897
4.143806 -1.9073015 -0.77386087
2.9269927 -1.6775594 -0.77359831
2.9772284 -1.6825434 -0.75131941
3.0330293 -1.6976027 -0.75227994
3.1035957 -1.6980411 -0.75399941
3.1650448 -1.7141988 -0.75506866
3.2293756 -1.7311147 -0.75618923
3.3107822 -1.7325219 -0.75814927
3.3748019 -1.7591488 -0.75899911
3.3894668 -1.742433 -0.75981206
3.4570966 -1.7699841 -0.76072562
3.5520713 -1.7726796 -0.7629838
3.6274226 -1.8025409 -0.76402426
3.6443954 -1.7845927 -0.76492721
3.715446 -1.8247756 -0.76558244
3.7332687 -1.8064294 -0.76651698
3.817807 -1.8388845 -0.76771259
3.8460884 -1.8105742 -0.76917386
3.9365268 -1.8442382 -0.77048171
4.0424352 -1.8698941 -0.77238613
4.1660337 -1.8869859 -0.774957
4.1884785 -1.8664699 -0.77606362
4.298274 -1.9052126 -0.77770895
2.9334044 -1.6300832 -0.76965052
2.9693203 -1.6363924 -0.75237679
3.0115583 -1.6380192 -0.75336897
3.0627177 -1.6598555 -0.75403196
3.1346879 -1.6593109 -0.75581241
3.1843724 -1.6906265 -0.75618213
3.2039359 -1.6667676 -0.75730902
3.263109 -1.6908592 -0.7581079
3.3319511 -1.7078228 -0.75933796
3.3462079 -1.6911887 -0.76013851
3.4191806 -1.7085627 -0.76145905
3.4802213 -1.7442539 -0.76199025
3.5036571 -1.7181776 -0.76327211
3.5764854 -1.7461855 -0.764301
3.5929408 -1.7283275 -0.76518863
3.6701441 -1.7573651 -0.76629692
3.7694352 -1.7692006 -0.76841336
3.8747959 -1.7818378 -0.77065706
3.9665954 -1.8150014 -0.77201188
3.9868898 -1.7952684 -0.77304465
4.074173 -1.8399551 -0.77397633
4.1064196 -1.8095359 -0.77559191
4.2225933 -1.835289 -0.77774578
2.9369073 -1.5809696 -0.7643581
2.984916 -1.587253 -0.75409192
3.0407217 -1.6001955 -0.75511014
3.0928898 -1.6214936 -0.75581264
3.1112478 -1.5981534 -0.75689584
3.1663001 -1.6199331 -0.7576558
3.23702 -1.6264174 -0.759215
3.2904999 -1.6581725 -0.75966591
3.3113542 -1.6332879 -0.76085228
3.3750889 -1.6574924 -0.76176047
3.456912 -1.665555 -0.7635504
3.5353277 -1.682938 -0.76500422
3.626312 -1.6921128 -0.76698893
3.7137961 -1.7112054 -0.76861894
3.8154421 -1.7218411 -0.77082574
3.9136527 -1.7429413 -0.77266461
4.0177126 -1.7652982 -0.77461302
4.139082 -1.7787242 -0.77722836
4.1611404 -1.7579163 -0.77833372
4.2688398 -1.7930197 -0.7800262
2.947717 -1.5360658 -0.76249874
2.9916584 -1.5362287 -0.75564122
3.0249946 -1.5342606 -0.75651234
3.076364 -1.5539695 -0.75723821
3.1360714 -1.5665921 -0.7583608
3.1985226 -1.5797946 -0.75953484
3.2706778 -1.585369 -0.76115394
3.3466406 -1.591181 -0.76285982
3.4043434 -1.6233602 -0.7634033
3.4266279 -1.5973603 -0.76465482
3.4876595 -1.6305076 -0.76525474
3.5110281 -1.6038705 -0.76654994
3.5756757 -1.6380438 -0.7672109
3.6687295 -1.64608 -0.76927722
3.7493217 -1.6736387 -0.77050877
3.7673419 -1.6545835 -0.77146745
3.8435383 -1.6929201 -0.77229893
3.8624916 -1.6734092 -0.77329278
3.9432404 -1.7133241 -0.77419335
3.9632077 -1.6933364 -0.7752251
4.0700603 -1.7143996 -0.77727717
4.183413 -1.7369055 -0.77944976
4.205905 -1.7156875 -0.78057659
4.316021 -1.7498951 -0.78235263
2.9485064 -1.4767675 -0.75804329
2.9982104 -1.4848919 -0.75719416
3.0542381 -1.495595 -0.75827843
3.1066182 -1.5147312 -0.75904453
3.1431069 -1.5127569 -0.75999326
3.1802974 -1.5103613 -0.76097059
3.2379446 -1.5306891 -0.76183361
3.3050079 -1.5435001 -0.7631315
3.38256 -1.5483197 -0.76490349
3.4567308 -1.5622393 -0.76634574
3.5347118 -1.5768741 -0.76786274
3.6084876 -1.6015351 -0.76900548
3.6251206 -1.5830275 -0.7699151
3.7033386 -1.6085222 -0.77114427
3.7946882 -1.625666 -0.77292204
3.891264 -1.6437916 -0.77480155
3.9203842 -1.6138157 -0.77632833
3.9935284 -1.6629843 -0.77679169
4.0242271 -1.6322546 -0.77837765
4.123579 -1.6623611 -0.78000069
4.2400894 -1.6834402 -0.78228927
4.3520079 -1.7170024 -0.78412712
2.9720771 -1.4368219 -0.75785667
3.0210433 -1.4541321 -0.75858843
3.032588 -1.438579 -0.75929344
3.0839522 -1.4563072 -0.76007283
3.1436491 -1.4667046 -0.76125556
3.2060814 -1.4775785 -0.76249224
3.2646775 -1.4973896 -0.76339257
3.2782085 -1.4805349 -0.76418155
3.3399432 -1.500893 -0.76514399
3.4118149 -1.5134107 -0.76656789
3.4873128 -1.5265601 -0.76806349
3.5586526 -1.5495856 -0.76918977
3.5747867 -1.5311953 -0.77008408
3.6503487 -1.5549568 -0.77129495
3.7296662 -1.5799515 -0.77256465
3.822355 -1.5964093 -0.77439374
3.0216553 -0.6905663 -0.61452061
3.025975 -0.64515507 -0.60870689
3.0306954 -0.59437072 -0.60675412
3.0352423 -0.54721129 -0.59819025
3.0397792 -0.50016189 -0.5896461
3.0443041 -0.45323762 -0.58112466
3.0508902 -0.38412303 -0.57178211
3.048548 -0.41003302 -0.57007015
3.0543444 -0.34765309 -0.56771654
3.0586174 -0.30238008 -0.56332928
3.0639882 -0.24667168 -0.55319852
3.7683008 -0.34746614 -0.53416258
4.0520496 -0.39733285 -0.54054564
4.1658344 -0.40740639 -0.54305941
4.2634945 -0.44469821 -0.54534805
4.3919215 -0.45706397 -0.54818845
4.5162392 -0.48432252 -0.55100805
3.0684533 -0.2003708 -0.54477847
3.1078544 -0.19663042 -0.5191443
3.1610835 -0.20876724 -0.52035463
3.2166369 -0.22147468 -0.52161795
3.2679703 -0.24471693 -0.52283871
3.281472 -0.22472 -0.5230388
3.3425102 -0.23837 -0.52442545
3.3990951 -0.2631214 -0.52576679
3.4657795 -0.27837491 -0.52728343
3.4810948 -0.25701696 -0.5275166
3.5517895 -0.27251714 -0.52912116
3.60935 -0.3111642 -0.5305481
3.6260595 -0.28885555 -0.53080708
3.7042577 -0.30600095 -0.53258198
3.7958677 -0.31234193 -0.53459764
3.8639283 -0.35519266 -0.53627169
3.8832433 -0.3311817 -0.53657925
3.9654469 -0.36339536 -0.5385108
3.9858451 -0.3386803 -0.53883874
4.0842109 -0.35938868 -0.5410673
4.1884818 -0.38141635 -0.54343015
4.2993274 -0.40475228 -0.54594111
4.4300537 -0.41581747 -0.54882538
4.556613 -0.44200358 -0.55168873
3.0743053 -0.15414873 -0.53687185
3.1260481 -0.16816692 -0.51940703
3.1799386 -0.17978671 -0.52062929
3.211153 -0.18103833 -0.52131188
3.2494266 -0.1719889 -0.52209985
3.3019302 -0.19442077 -0.52334213
3.3709338 -0.19708344 -0.52485061
3.4211562 -0.23171186 -0.5260998
3.4360204 -0.21054982 -0.52632427
3.5043185 -0.22463085 -0.52787018
3.5760055 -0.23946282 -0.52949315
3.5923302 -0.21717975 -0.52974391
3.6514111 -0.25500917 -0.53119999
3.7396927 -0.25976446 -0.53313625
3.8237674 -0.27679342 -0.53503799
3.9125769 -0.29471701 -0.53704655
4.0168343 -0.30113193 -0.53933674
4.1167955 -0.32094437 -0.54159588
4.21136 -0.35516196 -0.54380471
4.2344713 -0.32863915 -0.5441829
4.3479404 -0.35055411 -0.5467447
4.4687381 -0.37397251 -0.54947168
3.0781438 -0.097475149 -0.53561574
3.1040289 -0.10986856 -0.51865971
3.1568048 -0.1200479 -0.51985115
3.2118542 -0.1307321 -0.5210942
3.2760906 -0.13174768 -0.52249169
3.3295557 -0.15350655 -0.52375168
3.3998036 -0.15514925 -0.52528244
3.4661472 -0.1676579 -0.52677882
3.5277963 -0.19189042 -0.52822775
3.5436199 -0.16982356 -0.52846861
3.6170936 -0.18337792 -0.53012437
3.6770544 -0.22077332 -0.53159761
3.6943476 -0.19768548 -0.53186572
3.7757597 -0.21270442 -0.53370035
3.852092 -0.24070364 -0.53548509
3.9523022 -0.24533486 -0.53767931
4.0482221 -0.26309943 -0.53984129
4.1499214 -0.28186071 -0.54213321
4.2696166 -0.28830773 -0.54475832
4.3850441 -0.3091861 -0.54735768
4.5081296 -0.33136082 -0.55012912
3.0817807 -0.062162578 -0.51964653
3.1220539 -0.08117947 -0.51891786
3.1817646 -0.080998488 -0.52021164
3.2378006 -0.090852171 -0.52147222
3.2963393 -0.10118821 -0.5227893
3.3576066 -0.1119617 -0.5241676
3.4291294 -0.11255207 -0.52572119
3.4966798 -0.12418804 -0.52723968
3.5121529 -0.10215878 -0.52747315
3.5676186 -0.13635665 -0.52883399
3.6421378 -0.14919291 -0.53050923
3.659024 -0.12614331 -0.53076875
3.7205896 -0.16265017 -0.53227258
3.812475 -0.16479871 -0.5342747
3.8807631 -0.2041719 -0.53593761
3.9001129 -0.1795176 -0.5362429
3.9825659 -0.20771405 -0.53816134
4.0029974 -0.18231529 -0.53848678
4.0801225 -0.22444835 -0.54035401
4.1834912 -0.24225409 -0.54267764
4.2061725 -0.21549442 -0.54304564
4.3052468 -0.24741839 -0.54534155
4.422811 -0.2670787 -0.54798162
4.5480986 -0.28812057 -0.55079544
3.747139 -0.12720463 -0.53268397
3.9196424 -0.15463454 -0.5365513
4.0236249 -0.15667358 -0.53881538
4.1233521 -0.17206728 -0.54104877
4.2290835 -0.18846318 -0.54341727
4.3293314 -0.21977979 -0.54573578
4.3536682 -0.19185105 -0.54613423
4.4611216 -0.22436537 -0.5486145
4.5751395 -0.25886607 -0.55124635
4.4870315 -0.19547756 -0.54904252
2.908915 -1.8749888 -0.76926309
2.9059932 -1.9053059 -0.77471417
2.9620402 -1.9046903 -0.77271914
3.0240736 -1.9064847 -0.77228361
3.0890472 -1.9083648 -0.77182752
3.1571774 -1.9103357 -0.77134943
3.2286983 -1.9124044 -0.77084726
2.9128044 -1.8346354 -0.76200736
2.9292586 -1.8383118 -0.74800539
2.9888687 -1.8491764 -0.74903286
3.0548596 -1.8515869 -0.74934751
3.1255543 -1.8550099 -0.75028414
3.1951427 -1.8674434 -0.75165528
3.2895577 -1.8936037 -0.76190031
3.3829787 -1.916868 -0.7697643
3.4663429 -1.9192795 -0.76917911
3.5543156 -1.9218245 -0.76856154
2.917654 -1.7843157 -0.75295967
2.9582322 -1.7927021 -0.74786603
3.0077384 -1.8174473 -0.74840993
3.0312061 -1.7882134 -0.74977815
3.0836213 -1.8135084 -0.75037932
3.1573725 -1.8170393 -0.75209391
3.2083697 -1.8520107 -0.75239819
3.2284064 -1.828633 -0.75352329
3.3031852 -1.8407811 -0.75502962
3.3599219 -1.8781085 -0.75541103
3.3819201 -1.8536316 -0.75661397
3.457283 -1.8755453 -0.7578702
3.5527937 -1.8814573 -0.76005441
3.6464789 -1.9105585 -0.76491624
3.7494478 -1.915462 -0.76579624
3.8500471 -1.9303797 -0.76648569
3.9700253 -1.9382008 -0.76875812
2.9270031 -1.7476828 -0.7483207
2.943584 -1.7261782 -0.74931061
2.9923511 -1.7493216 -0.74987948
3.0610182 -1.7510774 -0.75151646
3.1144812 -1.7758685 -0.7521565
3.1332617 -1.7529625 -0.75323814
3.1897326 -1.7784228 -0.75393438
3.2623014 -1.7890862 -0.75542682
3.3386457 -1.8003619 -0.7569952
3.4116359 -1.8205678 -0.75823933
3.434216 -1.7954428 -0.75947422
3.4962454 -1.8332623 -0.75997216
3.5939469 -1.8379395 -0.76224351
3.6628902 -1.878876 -0.76282668
3.6890175 -1.8519807 -0.76419675
3.7806523 -1.8760765 -0.76579309
3.8873224 -1.8920805 -0.76797771
4.0007806 -1.9091884 -0.77029908
4.099997 -1.9473443 -0.77170068
4.1217947 -1.9274199 -0.77277547
4.2511878 -1.9468551 -0.77542496
2.9603121 -1.7044826 -0.75030941
3.0154598 -1.7199407 -0.75124311
3.085202 -1.720953 -0.75292665
3.1459019 -1.7375458 -0.75396615
3.2094328 -1.7549133 -0.75505495
3.2898259 -1.7569724 -0.75697243
3.36025 -1.7757359 -0.7581926
3.5279233 -1.7988855 -0.76168108
3.0230191 -0.68864024 -0.56565833
3.0268974 -0.64735818 -0.56237698
3.031146 -0.60188937 -0.55971861
3.0356941 -0.55470371 -0.5512104
3.2500477 -0.57922024 -0.52399844
3.317996 -0.59164369 -0.52552927
3.3894765 -0.6047132 -0.52713966
3.4647708 -0.61847997 -0.52883506
3.5441935 -0.63300157 -0.53062314
3.6280942 -0.64834201 -0.53251207
3.7168643 -0.66457272 -0.53451067
3.8109386 -0.68177319 -0.5366286
3.9108074 -0.70003331 -0.53887695
4.0276761 -0.70757997 -0.54144478
4.1415043 -0.72793651 -0.54400527
4.2510853 -0.76224971 -0.54653805
4.2750731 -0.73710656 -0.54694235
4.393218 -0.77295136 -0.54966778
3.0454803 -0.51047993 -0.53947687
3.0890694 -0.50967592 -0.52018619
3.1425602 -0.52880776 -0.52143443
3.2049878 -0.53947538 -0.52283752
3.2705181 -0.55067325 -0.52431017
3.3393891 -0.56244195 -0.52585793
3.4118624 -0.57482624 -0.52748668
3.4882288 -0.5878756 -0.5292027
3.5605557 -0.61215633 -0.53088212
3.5770581 -0.59113342 -0.53114319
3.6539581 -0.61619556 -0.53292501
3.7440839 -0.63159621 -0.53494918
3.839633 -0.64792371 -0.53709513
3.9411097 -0.66526401 -0.53937411
4.0598421 -0.67172313 -0.54197717
4.1756082 -0.69104755 -0.5445751
4.2993145 -0.71169746 -0.54735112
4.431807 -0.73381412 -0.55032432
3.048281 -0.46100843 -0.53550547
3.1135526 -0.47341481 -0.52054924
3.1743708 -0.48260149 -0.52191043
3.2247951 -0.51127517 -0.5231365
3.2448521 -0.48271927 -0.52343905
3.3051643 -0.50235796 -0.52483779
3.3682902 -0.52299225 -0.52630192
3.3902535 -0.49301246 -0.5266394
3.4497809 -0.52420199 -0.52807444
3.5199385 -0.54650152 -0.52969891
3.5440524 -0.51503682 -0.53007603
3.6105342 -0.54848337 -0.53167236
3.6889503 -0.57270277 -0.53348368
3.7716322 -0.59822142 -0.53539288
3.7902207 -0.57570148 -0.53569233
3.8686845 -0.61365283 -0.53756738
3.8882942 -0.59051967 -0.53788614
3.9718015 -0.63004839 -0.53987753
3.9925261 -0.60626829 -0.54021752
4.0925426 -0.63526976 -0.5425185
4.2102976 -0.65352452 -0.54515457
4.336194 -0.67304146 -0.54797286
4.4579105 -0.70733964 -0.55076849
4.4843025 -0.68057215 -0.55121756
3.0518851 -0.3843075 -0.53011167
3.0612307 -0.41478291 -0.53001344
3.120904 -0.41448566 -0.52043575
3.1508713 -0.41814473 -0.52110249
3.2067327 -0.43559414 -0.52239448
3.271935 -0.44416127 -0.52384782
3.3333127 -0.46310401 -0.52526635
3.3475707 -0.44322115 -0.52548343
3.4125106 -0.46263185 -0.52698129
3.4806132 -0.48303884 -0.52855235
3.4962409 -0.46217456 -0.52879471
3.568507 -0.48312855 -0.53045863
3.6531036 -0.49424377 -0.53234428
3.7245648 -0.52843511 -0.5340519
3.751672 -0.49473852 -0.53448367
3.8184452 -0.54150796 -0.53614694
3.9180803 -0.55538213 -0.53837019
4.0240178 -0.57013381 -0.54073405
4.12568 -0.59832847 -0.54306692
4.1480699 -0.57336974 -0.5434376
4.2573528 -0.60262549 -0.54594058
4.3736014 -0.6338321 -0.54860353
4.3988986 -0.60731608 -0.54902995
4.5109882 -0.65350664 -0.5516715
3.0544927 -0.35483158 -0.53440702
3.0638094 -0.35827667 -0.51893759
3.1218407 -0.36454025 -0.52022493
3.1762576 -0.38054726 -0.52147883
3.239743 -0.38764548 -0.52288818
3.2925062 -0.41487378 -0.52415824
3.3133419 -0.38520983 -0.52447277
3.3691814 -0.4130834 -0.52581251
3.4425862 -0.42157888 -0.52744335
3.519942 -0.4305315 -0.52916205
3.5932391 -0.45085859 -0.53084552
3.6099145 -0.42910022 -0.53110629
3.6878555 -0.44996467 -0.5328927
3.7699602 -0.4720045 -0.53477514
3.8566573 -0.49521276 -0.53676218
3.9584272 -0.50778675 -0.53902602
4.0666962 -0.52116358 -0.54143399
4.1821094 -0.53542304 -0.54400098
4.305398 -0.55065536 -0.54674315
4.4244704 -0.58051217 -0.54946113
3.0589821 -0.30826426 -0.52598643
3.0936346 -0.31243587 -0.51937211
3.1528907 -0.3176797 -0.52068126
3.2019548 -0.34248787 -0.52185977
3.2149625 -0.32322335 -0.52205271
3.2733362 -0.33884975 -0.52339059
3.3414822 -0.34514585 -0.5248974
3.3983781 -0.37236825 -0.52625704
3.4205663 -0.34142596 -0.52659488
3.4731517 -0.37985703 -0.52791286
3.5439069 -0.3985365 -0.52953351
3.5600615 -0.37696806 -0.52978402
3.6352146 -0.39608797 -0.53150195
3.7232223 -0.4049021 -0.53345102
3.7884138 -0.44906479 -0.53506893
3.807035 -0.4259167 -0.53536552
3.8857579 -0.45995247 -0.53722996
3.9054005 -0.43615219 -0.53754568
3.9891715 -0.4715189 -0.53952569
4.0099287 -0.44702899 -0.53986239
4.0992336 -0.48382929 -0.54196775
4.1212139 -0.45860901 -0.54232824
4.2282739 -0.48396042 -0.54476517
4.3420677 -0.51099002 -0.54735565
4.4633894 -0.53971839 -0.55011708
3.0673134 -0.26185718 -0.51894528
3.1178339 -0.27524188 -0.51972467
3.1300774 -0.25642365 -0.51990306
3.1844699 -0.27002159 -0.52114522
3.2413015 -0.28421426 -0.52244318
3.3006892 -0.29911807 -0.5237999
3.3628616 -0.31470698 -0.52521998
3.3772638 -0.29420224 -0.52543741
3.4430518 -0.3100692 -0.52693725
3.5042193 -0.33744997 -0.52839029
3.5278409 -0.30520713 -0.52875328
3.5845671 -0.34425116 -0.53016388
3.6608071 -0.36269513 -0.53190225
3.6780663 -0.34017524 -0.53217226
3.7501414 -0.37060404 -0.533876
3.8353081 -0.39077041 -0.53581583
3.935235 -0.40000248 -0.5380252
4.0308871 -0.42230147 -0.54020244
4.143414 -0.43313611 -0.54269236
4.3668618 -0.48417071 -0.54776978
3.089874 -0.22476122 -0.51888478
3.1424086 -0.23747039 -0.52008259
3.2036941 -0.24100742 -0.52142769
3.3214664 -0.26893839 -0.52411073
3.0250731 -0.69502676 -0.52853072
3.1575859 -0.70815432 -0.52258921
3.0340142 -0.66157413 -0.5263207
3.0796385 -0.66931641 -0.52072048
3.1153588 -0.66708207 -0.52148485
3.1770062 -0.68107605 -0.5228858
3.2417109 -0.69576395 -0.52435553
3.3097069 -0.71119893 -0.52590019
3.3961647 -0.70798516 -0.52775931
3.4722583 -0.72464371 -0.52948517
3.5607953 -0.7319901 -0.53143781
3.6460857 -0.7503196 -0.53337055
3.8515275 -0.76805246 -0.53790468
3.0315061 -0.60790765 -0.52206862
3.080688 -0.61868036 -0.52050906
3.1404967 -0.63129187 -0.52186418
3.203223 -0.64451849 -0.52328551
3.2231319 -0.61675513 -0.52358866
3.2760143 -0.64894605 -0.52488387
3.345566 -0.66333067 -0.52645749
3.4263525 -0.66860092 -0.52823263
3.5039032 -0.68433022 -0.52998585
3.5857794 -0.70093703 -0.53183663
3.672354 -0.71849656 -0.53379369
3.7640431 -0.73709345 -0.53586644
3.8809814 -0.73425686 -0.53838789
3.9854836 -0.75461471 -0.54074633
4.0857296 -0.78826773 -0.54307365
4.1078596 -0.76432991 -0.54344332
4.2273474 -0.78713131 -0.54613781
4.3551846 -0.81152606 -0.54902071
3.0530641 -0.56300068 -0.51965225
3.1113632 -0.57412326 -0.52096784
3.1595829 -0.60411954 -0.52215225
3.1789041 -0.5766108 -0.52244389
3.2365386 -0.59805882 -0.5237928
3.3038814 -0.61090952 -0.52531242
3.374711 -0.62442553 -0.52691048
3.4493029 -0.63865972 -0.52859265
3.5279689 -0.65367115 -0.53036654
3.6110511 -0.66952562 -0.53224003
3.6989331 -0.68629587 -0.53422195
3.792043 -0.70406365 -0.53632152
3.0915482 -0.16860791 0.28598726
3.0950944 -0.13162054 0.29189557
3.0997515 -0.081439503 0.29351541
3.1038384 -0.038011611 0.29726404
3.107456 -0.0027132705 0.31248713
3.0625641 -0.48559991 0.29356819
3.0670719 -0.43857595 0.30100691
3.0723739 -0.38081384 0.30046779
3.0768566 -0.33404505 0.30787829
3.0822699 -0.27415705 0.30385846
3.0801682 -0.30031559 0.31644034
3.085696 -0.23939623 0.31323624
3.0901451 -0.19298837 0.32060152
3.0954695 -0.13744617 0.32941651
3.099895 -0.09128318 0.33674294
3.1043088 -0.045242123 0.34404999
3.1078329 -0.0084821507 0.34988409
3.04022 -0.72860289 0.29420152
3.0438726 -0.69048524 0.30019206
3.0484293 -0.64293396 0.30766523
3.052882 -0.5940026 0.30562115
3.0583208 -0.53725255 0.31455466
3.0628409 -0.49008706 0.32197934
3.0673492 -0.44304743 0.32938421
3.0727444 -0.38675019 0.33824641
3.0772285 -0.33996063 0.34561193
3.0834873 -0.27465412 0.3558923
3.0808072 -0.30261606 0.35149062
3.0860693 -0.24526949 0.35087305
3.090519 -0.19884112 0.3581937
3.0940714 -0.16177207 0.36403859
3.1324904 -0.087721229 0.38522273
3.2525983 -0.10263591 0.39296049
3.1047797 -0.052477561 0.39086688
3.2850215 -0.098111488 0.37313032
3.4026742 -0.11678106 0.3911171
3.4388702 -0.11217475 0.37011868
3.5912359 -0.13029903 0.3778944
3.760772 -0.15053323 0.38671857
3.9767652 -0.17089131 0.38406545
3.1089234 -0.010057941 0.400738
4.2246633 -0.19425656 0.38102055
4.5121002 -0.22134858 0.37748992
3.0112641 -1.0457398 0.30348182
3.0159061 -0.99728239 0.31102234
3.0208328 -0.94385672 0.31147474
3.0259845 -0.88958001 0.31796795
3.0307178 -0.83867908 0.32002318
3.0350895 -0.79205847 0.32338071
3.03967 -0.74424565 0.33084559
3.0442386 -0.69656122 0.33829045
3.0487962 -0.64898872 0.34571779
3.0530293 -0.6033904 0.34727263
3.0586896 -0.54325926 0.35249966
3.0628784 -0.49871576 0.35622925
3.0676265 -0.44752061 0.35777229
3.072125 -0.40057492 0.36512607
3.5350692 -0.40764141 0.41451555
3.6493726 -0.43808961 0.41275138
3.0841405 -0.28496388 0.42186719
3.153569 -0.30601692 0.42040366
3.2391436 -0.32881236 0.41908294
3.3307884 -0.35322475 0.41766852
3.4291728 -0.37943256 0.41615003
3.0868163 -0.25702658 0.42621458
3.7996955 -0.34810901 0.40550923
3.9355938 -0.37868461 0.40319985
4.0837703 -0.41202262 0.40068185
4.2459674 -0.44851491 0.39792567
4.4242716 -0.48863143 0.39489573
3.0916696 -0.2051848 0.42946494
3.1737382 -0.20726511 0.41614783
3.2601519 -0.22671121 0.41467875
3.352706 -0.2475393 0.41310531
3.4520917 -0.2699022 0.41141605
3.5590937 -0.29397643 0.40959775
3.6746087 -0.31996602 0.40763479
3.0965014 -0.15348244 0.43270308
3.1010501 -0.10454588 0.43456572
3.1939991 -0.10818294 0.41187817
3.2812796 -0.12425648 0.41026014
3.3747747 -0.14147455 0.4085269
3.475173 -0.15996401 0.40666556
3.5832691 -0.17987087 0.40466166
3.6999824 -0.20136482 0.40249795
3.8263869 -0.22464347 0.40015459
3.9637415 -0.24993876 0.39760822
4.1135345 -0.27752465 0.39483124
4.2775345 -0.3077268 0.39179093
4.4578633 -0.34093624 0.38844782
3.1052506 -0.059718356 0.43771911
3.1096573 -0.013733141 0.44489872
3.0125537 -1.0422684 0.34344727
3.0164161 -1.0009392 0.34589583
3.0155196 -1.0162914 0.36716282
3.0205808 -0.95702517 0.35100538
3.0263472 -0.89574623 0.35627627
3.0306151 -0.85035336 0.36003691
3.035454 -0.79818022 0.36158925
3.040035 -0.75034583 0.36900812
3.599335 -0.67293572 0.42292535
3.0595195 -0.55678713 0.43795514
3.383611 -0.59728575 0.42556596
3.4873707 -0.63367224 0.4242959
4.1833272 -0.72806954 0.41010731
4.3576002 -0.78179061 0.40769404
3.0640423 -0.50955331 0.44523203
3.1134315 -0.50253963 0.42887312
3.1973433 -0.53196555 0.42784601
3.2871852 -0.56347138 0.42674631
3.7467663 -0.59349597 0.41615266
3.8797655 -0.63449407 0.41431093
4.0247231 -0.67917836 0.41230357
3.0684607 -0.46095216 0.44301242
3.4063501 -0.48855972 0.42086661
3.5111744 -0.52087283 0.41941512
3.6243045 -0.55574602 0.41784853
3.0729609 -0.4139595 0.45026439
3.1334672 -0.40444133 0.42464548
3.2182074 -0.43056318 0.42347199
3.3089483 -0.45853472 0.42221546
4.054143 -0.54590261 0.40650564
4.214551 -0.58862549 0.40403092
4.3908501 -0.63558078 0.40131098
3.0773559 -0.36560938 0.44804424
3.7731252 -0.47105482 0.41084141
3.9075696 -0.50686449 0.40876693
3.0827265 -0.30952406 0.45671386
3.0875897 -0.25751922 0.4599238
3.0863926 -0.27369311 0.47191036
3.0916431 -0.21642056 0.47110569
3.096972 -0.16078027 0.47970647
3.1014004 -0.1145361 0.48685479
3.1058173 -0.06841404 0.49398434
3.1109073 -0.015870117 0.50450301
3.2223577 -0.87606084 0.44024301
3.6683407 -0.95779836 0.43195546
3.0537214 -0.79489541 0.44147271
3.1351762 -0.83409989 0.44087869
3.4400346 -0.8579849 0.43400192
3.5496926 -0.90592647 0.43301898
3.9663939 -0.94394565 0.42382276
4.12152 -1.0050113 0.42217642
3.0407665 -0.76255751 0.44540304
3.243891 -0.77223253 0.43575996
3.3383825 -0.81354356 0.43491298
3.824558 -0.88811159 0.42532802
3.0453372 -0.7148087 0.45271009
3.0735598 -0.69776523 0.43728673
3.1558275 -0.7337321 0.43654931
3.5744641 -0.78966165 0.42798209
3.694375 -0.83686459 0.42670959
4.1523504 -0.86686659 0.41615611
4.3246665 -0.92729414 0.41404682
3.0498061 -0.66565573 0.45046932
3.3609557 -0.70561314 0.43024808
3.4636581 -0.74604213 0.42915809
3.9954922 -0.81185985 0.4180761
3.054354 -0.61815214 0.45775104
3.0934632 -0.6003139 0.43308687
3.1765497 -0.63302124 0.43220514
3.2654998 -0.6680367 0.43126112
3.7205164 -0.71543157 0.42144203
3.8521025 -0.76157594 0.41983134
3.0597966 -0.56130052 0.46646571
3.0643201 -0.51405084 0.47370845
3.0688314 -0.46692723 0.48093194
3.0733323 -0.41991368 0.48813862
3.0778213 -0.3730253 0.49532592
3.0831935 -0.31690893 0.50392789
3.0885503 -0.26095402 0.51250505
3.0867672 -0.27958503 0.50964916
3.0921121 -0.22375387 0.51820737
3.0974419 -0.16808289 0.52674109
3.1018713 -0.12181325 0.53383368
3.1062894 -0.075665832 0.54090744
3.1115775 -0.020434998 0.54937369
3.0308371 -0.89389408 0.46472162
3.0319536 -0.86458027 0.46905744
3.3158927 -0.92107964 0.43956095
3.0365479 -0.81656802 0.47635502
3.041132 -0.76866901 0.48363549
3.0457044 -0.72089875 0.4908964
3.0502653 -0.67324078 0.49814028
3.0548141 -0.62571061 0.5053646
3.0602584 -0.56882703 0.51401073
3.0647829 -0.52155089 0.52119648
3.0692954 -0.47440106 0.52836305
3.0737977 -0.42736134 0.53551298
3.0782871 -0.38044694 0.54264367
3.0836608 -0.3242994 0.55117786
3.0881269 -0.27763414 0.55827081
3.0925808 -0.23109281 0.56534493
3.0979118 -0.17539103 0.57381135
3.1023431 -0.12909599 0.58084804
3.1067617 -0.082923114 0.58786619
3.1120505 -0.027661882 0.59626561
3.1156635 0.0076519996 0.61122453
3.0296452 -0.90115988 0.51263869
3.0324087 -0.87227798 0.51699132
3.0370052 -0.82423878 0.52423096
3.04159 -0.77631271 0.53145373
3.0461633 -0.72851562 0.53865683
3.0507255 -0.68083084 0.54584318
3.0552752 -0.63327396 0.55301017
3.0607204 -0.57635856 0.56158757
3.0652461 -0.52905607 0.56871623
3.0697596 -0.48187998 0.57582587
3.0742626 -0.43481401 0.58291894
3.0787532 -0.38787347 0.589993
3.0841286 -0.33169478 0.59845936
3.0885952 -0.28500372 0.60549593
3.0939407 -0.22913241 0.61391598
3.09127 -0.25704485 0.60970932
3.0986755 -0.18148184 0.62832993
3.1029086 -0.13784173 0.63730806
3.1073296 -0.091638371 0.64425915
3.1126192 -0.036340877 0.65257847
3.116138 0.00043909252 0.65811181
3.8336978 -1.7424203 0.45885533
4.1727409 -1.8040028 0.4525032
2.9664767 -1.5792056 0.4805066
3.1056221 -1.6101727 0.47249591
3.3111954 -1.6475143 0.46864468
3.5508113 -1.6910374 0.46415538
2.9712448 -1.5293441 0.48793066
3.0247324 -1.5445253 0.47213566
3.2170436 -1.5756993 0.46839458
3.4399815 -1.6118352 0.46405739
3.7015016 -1.6542253 0.45896947
4.0125699 -1.7046467 0.45291758
2.9759114 -1.4780101 0.48559159
3.1293461 -1.5088065 0.46816152
3.3373301 -1.5384783 0.46396649
3.5798712 -1.5730802 0.45907438
3.8663616 -1.6139519 0.45329577
4.209938 -1.6629673 0.44636577
3.0193558 -1.4567248 0.48364723
3.0751932 -1.4616574 0.4791441
3.1301866 -1.466867 0.48462653
3.1909006 -1.4722391 0.4799757
3.254389 -1.4778557 0.47508621
3.3170848 -1.4837779 0.48085511
3.3825955 -1.4899659 0.48688304
3.4614027 -1.4972908 0.47050953
3.5314775 -1.5031769 0.4765287
3.6070986 -1.5102992 0.48290622
3.6912284 -1.517776 0.47737855
3.7323663 -1.5308326 0.45364243
4.0474892 -1.5697043 0.44706225
3.7799113 -1.5256557 0.47151506
3.8681796 -1.5339453 0.47828126
3.9667888 -1.5427214 0.4721604
4.0711956 -1.5520118 0.46563655
4.1755738 -1.5617868 0.47283572
4.2927465 -1.5722293 0.46598774
4.2750592 -1.2684577 0.53803241
3.0427246 -1.045975 0.56303978
3.204921 -1.0644199 0.55953258
3.3676722 -1.0675538 0.55570662
3.4110484 -1.1037219 0.55539197
3.600147 -1.1096084 0.55099082
3.6513362 -1.1495374 0.550565
3.8738019 -1.1591113 0.54543883
3.9350231 -1.2036257 0.54486483
3.0238156 -0.97959316 0.56978542
3.0210371 -1.0086449 0.56545979
3.1497037 -1.0153652 0.55987304
3.3257003 -1.0325568 0.5560112
3.5507476 -1.0710759 0.55140191
3.0290658 -0.92169702 0.56660402
3.06271 -0.93808067 0.56040961
3.0966787 -0.96825838 0.56020015
3.2850645 -0.99867439 0.55630583
3.0328643 -0.87998164 0.56496221
3.0374625 -0.83191538 0.57214397
3.0420477 -0.78396225 0.57930869
3.0466225 -0.73613822 0.58645421
3.0511854 -0.68842661 0.59358287
3.0557363 -0.64084315 0.60069233
3.0611827 -0.58389598 0.60920095
3.0657096 -0.53656697 0.61627245
3.0702243 -0.48936453 0.62332499
3.0747285 -0.44227237 0.6303612
3.0792203 -0.39530575 0.63737851
3.0845964 -0.33909589 0.64577681
3.0890644 -0.29237884 0.65275693
3.0945511 -0.23402789 0.65760964
3.092232 -0.26048356 0.66235459
3.0986543 -0.19351065 0.67304128
3.1033809 -0.14513539 0.68439376
3.1078022 -0.098906606 0.69128895
3.1130934 -0.043578684 0.69954127
3.117492 0.0024062097 0.7064001
3.1430142 -1.8882452 0.48178053
3.7690365 -1.996739 0.46986121
2.9514658 -1.8213484 0.48574686
3.2593555 -1.8636897 0.47791958
3.4932301 -1.9247441 0.4742223
3.9434779 -1.9716477 0.46450293
4.3095183 -2.0598624 0.45844483
2.9485953 -1.7764122 0.49139172
3.0585377 -1.811265 0.48109418
3.3852572 -1.8371162 0.47374135
3.6403747 -1.8986006 0.46951932
2.9534113 -1.7260371 0.49884021
2.9655507 -1.7427588 0.48815811
3.1675568 -1.7846452 0.47734356
3.5219331 -1.8082575 0.46920466
3.8012574 -1.8700129 0.46437705
4.1358223 -1.9439812 0.45859474
2.9571669 -1.6842065 0.49498695
3.0820162 -1.7109889 0.47680664
3.2852058 -1.7559179 0.47329581
3.6708381 -1.7768123 0.46426159
3.977901 -1.8386246 0.45873088
2.9619603 -1.6340694 0.50241309
3.0021152 -1.6421893 0.47630519
3.1922362 -1.6804664 0.47288173
3.4125395 -1.724816 0.46891403
2.9667404 -1.5840709 0.50981885
2.9715097 -1.534192 0.51720691
2.9762657 -1.4844503 0.52457452
3.0073915 -1.4570072 0.52241701
3.0595965 -1.4619882 0.52862245
3.1171627 -1.4671116 0.5250566
3.177294 -1.4724621 0.52129036
3.2366033 -1.4781046 0.52788496
3.3021908 -1.4839505 0.52406037
3.3670173 -1.4901092 0.53102058
3.4388592 -1.4965214 0.52708322
3.4470148 -1.496466 0.50452793
3.5142848 -1.5032526 0.52291834
3.5890622 -1.5103382 0.5303728
3.6769576 -1.5177715 0.51396853
3.7598586 -1.5256041 0.52159631
3.8418269 -1.5338229 0.54237491
3.8523061 -1.5338678 0.51686531
3.9444487 -1.5425631 0.52499032
3.9555707 -1.5426375 0.49865985
4.0416431 -1.5517352 0.53356087
4.0533929 -1.5518419 0.50653464
4.1443167 -1.5614241 0.5426147
4.1567473 -1.5615668 0.51485467
4.2727509 -1.5719498 0.50929177
3.0868101 -1.3498492 0.56804931
3.2383282 -1.3692197 0.56481576
3.4082277 -1.39094 0.56118977
3.6000679 -1.4154654 0.55709565
3.6520538 -1.4616491 0.55677509
3.8783393 -1.4933608 0.5520013
4.1388936 -1.529875 0.54650456
4.3820467 -1.5827659 0.53299153
3.018882 -1.2780308 0.56823939
3.0523398 -1.3134046 0.56814581
3.161937 -1.292821 0.56511664
3.1995308 -1.3304186 0.56496847
3.3642795 -1.3494619 0.56141222
3.5499279 -1.3709211 0.55740488
3.7607198 -1.3952868 0.55285472
3.8183935 -1.4433764 0.55243629
4.0690961 -1.4754268 0.54708576
4.3599534 -1.5126107 0.54087859
2.9999535 -1.2392054 0.57082313
3.1254914 -1.2563715 0.56526011
3.2806449 -1.2705261 0.56183559
3.3217759 -1.3093461 0.56162739
3.4548047 -1.2864147 0.5579915
3.5015371 -1.3279312 0.55770332
3.7051921 -1.3489861 0.5532577
3.9378448 -1.3730395 0.54817897
4.0021367 -1.4231925 0.54764348
4.2813721 -1.4554696 0.54161584
3.0046368 -1.1902175 0.57806653
3.0558403 -1.1867136 0.56553441
3.0901418 -1.2210187 0.56539935
3.202244 -1.1965307 0.56223238
3.2408209 -1.2329402 0.56203717
3.4096479 -1.2462978 0.55826998
3.600111 -1.2613671 0.55402011
3.6516924 -1.3043767 0.55364579
3.8760655 -1.3248461 0.54869342
4.1341133 -1.3483878 0.54299784
4.2061634 -1.4007801 0.54232174
3.0128052 -1.1411371 0.57591522
3.1648555 -1.1612432 0.56242156
3.3237517 -1.1699883 0.55879974
3.365988 -1.2075106 0.55853927
3.5503473 -1.2198728 0.55438119
3.7594757 -1.2338959 0.54966444
3.8166535 -1.2784996 0.54918826
4.065022 -1.2981492 0.5436458
3.0138779 -1.0910423 0.58284557
3.0934315 -1.0938323 0.56278312
3.1286013 -1.1270262 0.56260508
3.2432802 -1.0984981 0.55929607
3.2828705 -1.1336697 0.55905193
3.4559009 -1.1411211 0.55506641
3.5023065 -1.1798152 0.5547297
3.7044084 -1.1909382 0.55012298
3.9987125 -1.2499349 0.54426759
4.3527637 -1.3209075 0.53722286
3.0185263 -1.042425 0.59004658
3.0250137 -0.97457159 0.60009706
3.0222361 -1.0036234 0.5957939
3.0287094 -0.93591416 0.60582286
3.03332 -0.88769054 0.6129657
3.0379188 -0.83959711 0.62008929
3.0425067 -0.79161716 0.62719601
3.0470817 -0.74376619 0.63428366
3.0518837 -0.69503272 0.64737165
3.0562904 -0.64993322 0.65795493
3.0617383 -0.59294772 0.66638082
3.0662668 -0.545587 0.67338359
3.0707822 -0.49835289 0.68036759
3.0752876 -0.45122913 0.68733531
3.0797806 -0.40423119 0.6942845
3.0851583 -0.3479839 0.70260113
3.0896275 -0.30123574 0.70951337
3.0957716 -0.23451751 0.70971298
3.0936031 -0.26035315 0.71831989
3.0994194 -0.19881162 0.72465783
3.1038537 -0.15243462 0.73151517
3.1082759 -0.10618056 0.73835427
3.1135678 -0.050822027 0.74653965
3.1179671 -0.0048118755 0.75334269
3.7052217 -2.2476096 0.48071772
4.2315316 -2.3495131 0.47109008
2.9888501 -2.1088908 0.49382013
3.0943351 -2.0937293 0.49058086
3.3043458 -2.1699836 0.48804969
3.4363294 -2.1555314 0.48416305
3.875361 -2.23487 0.47592425
2.925648 -2.0267227 0.49489826
3.2080989 -2.0773776 0.48708749
3.5800149 -2.1397984 0.47993183
4.0628085 -2.2208171 0.47064185
2.9295511 -1.985889 0.50089365
3.0119555 -2.0102115 0.48960084
3.118607 -1.9912714 0.48619288
3.3311551 -2.0596905 0.48330873
3.737031 -2.1226053 0.47530824
4.2703724 -2.2052548 0.46479225
2.9348814 -1.9296765 0.50108743
3.2336533 -1.9708411 0.48251677
3.4646909 -2.0404968 0.47920817
3.6101053 -2.0195966 0.47474289
3.9093001 -2.1037269 0.47023392
2.9391859 -1.88252 0.50597858
3.0351839 -1.9110044 0.48535889
3.3581254 -1.9487367 0.47853941
4.0991797 -2.082916 0.46464074
2.9440272 -1.831872 0.51342809
2.9489434 -1.7829925 0.53068608
2.9535856 -1.729315 0.51845914
2.9526405 -1.7453353 0.54023671
2.9576044 -1.6923779 0.54399061
2.9623995 -1.6422122 0.55135626
2.9671812 -1.5921843 0.55870163
2.971951 -1.5422767 0.56602931
2.9767082 -1.4925061 0.57333684
2.984338 -1.4470263 0.58447272
3.0480165 -1.4519845 0.56930792
3.1074748 -1.4672936 0.55513102
3.1802924 -1.4694018 0.56500095
3.2911229 -1.4840811 0.55618167
3.3554523 -1.4902225 0.56382936
3.430758 -1.4965805 0.54951507
3.5015299 -1.5033172 0.5573858
2.9865067 -1.3914292 0.5938741
3.0151784 -1.4042244 0.57084572
3.12234 -1.3874145 0.56795001
3.1589799 -1.4261526 0.56784749
3.3197718 -1.4506713 0.56449491
3.5007558 -1.4782691 0.56072146
3.6628191 -1.5177758 0.55027115
3.7059886 -1.5095644 0.55644244
3.9333966 -1.5424891 0.55115259
2.9909072 -1.3439431 0.5951497
3.278388 -1.4092829 0.56465781
3.4536927 -1.4338504 0.5609597
2.9956157 -1.2946815 0.60238254
3.0003128 -1.2455373 0.60959816
3.0049968 -1.196527 0.61679399
3.00967 -1.1476334 0.62397289
3.0143299 -1.0988727 0.63113213
3.0189793 -1.0502276 0.63827443
3.0252864 -0.97922909 0.62897879
3.0234075 -1.0045253 0.64744967
3.0291653 -0.94365644 0.65392172
3.0337765 -0.89540553 0.66100621
3.0383768 -0.84728491 0.66807163
3.0429654 -0.79927778 0.67512029
3.0475416 -0.75139976 0.68215007
3.0519609 -0.70615089 0.69270796
3.0567524 -0.6575141 0.70571047
3.0622013 -0.60049653 0.71406728
3.0667307 -0.55310941 0.72101265
3.0712481 -0.505849 0.72793955
3.0757539 -0.45869896 0.73485017
3.0802479 -0.41167477 0.74174231
3.0856268 -0.35539618 0.74999094
3.0900972 -0.30862218 0.75684643
3.0945554 -0.26197249 0.7636838
3.0998914 -0.20614138 0.7718668
3.1043267 -0.15973878 0.77866787
3.1087496 -0.11345913 0.78545099
3.114043 -0.05807019 0.79356909
3.118443 -0.012034699 0.80031633
3.1210775 0.015531987 0.80435681
3.4909024 -2.4957728 0.49529916
3.6422448 -2.4950995 0.49142766
3.1323075 -2.3933504 0.50064379
3.2512033 -2.3886106 0.49744743
3.8081551 -2.4943614 0.48718351
3.9908442 -2.4935486 0.48251009
3.0461915 -2.2969561 0.4992848
3.3801305 -2.3834713 0.49398118
3.5204153 -2.3778794 0.49020976
4.1929922 -2.4926488 0.47733903
2.9064362 -2.2406702 0.51442409
3.1574273 -2.2886274 0.49615085
3.2776959 -2.2796216 0.49276245
3.6736274 -2.3717713 0.48609072
3.8416398 -2.3650737 0.48157376
2.911366 -2.1890793 0.52193224
2.9658675 -2.2070463 0.49801713
3.0701969 -2.1956227 0.49494481
3.4081433 -2.2698543 0.48908728
4.0267057 -2.3576961 0.47659844
2.9161975 -2.1359267 0.51950711
3.1826904 -2.1833045 0.4916321
3.5501187 -2.2592232 0.48508734
2.9201217 -2.0948603 0.52549422
2.9250145 -2.0436518 0.53295982
2.9298961 -1.9925679 0.54040748
2.9347639 -1.9416264 0.54783428
2.9396195 -1.890808 0.55524313
2.9444621 -1.8401307 0.56263143
2.9493797 -1.7912225 0.57983321
2.9532354 -1.7508718 0.58570546
2.9584095 -1.6962066 0.59165007
2.9562092 -1.7222995 0.59991837
2.9628391 -1.6503602 0.60033309
2.9676216 -1.6003034 0.60761791
2.972393 -1.5503669 0.61488521
2.9771514 -1.5005679 0.62213266
2.9818978 -1.4508879 0.6293627
2.9866316 -1.4013441 0.63657284
2.9913538 -1.3519192 0.64376569
2.9960632 -1.3026289 0.65093911
3.0007615 -1.2534567 0.65809512
3.0054469 -1.2044183 0.6652317
3.0101211 -1.1554967 0.67235142
3.0147822 -1.1067084 0.6794517
3.019433 -1.0580357 0.68653506
3.024071 -1.009495 0.69359916
3.0299203 -0.95014882 0.70962715
3.0280468 -0.97539937 0.72814888
3.0343251 -0.9046706 0.71869957
3.0389256 -0.8565172 0.72569489
3.0435164 -0.80847764 0.73267382
3.0480936 -0.76056731 0.73963386
3.0526602 -0.71276987 0.7465775
3.0572145 -0.66510069 0.75350267
3.0626652 -0.60805136 0.76179039
3.0671952 -0.56063759 0.76867837
3.0717132 -0.51335073 0.77554786
3.0762203 -0.46617439 0.78240132
3.0807154 -0.41912404 0.78923649
3.0860958 -0.36281422 0.79741681
3.0905669 -0.31601414 0.80421555
3.0950265 -0.26933867 0.81099629
3.1008441 -0.20774361 0.81718159
3.0986814 -0.23354214 0.82586622
3.1047995 -0.16704842 0.82585621
3.1092238 -0.12074322 0.83258319
3.1145186 -0.065323919 0.84063411
3.1189191 -0.019263022 0.84732556
3.1215546 0.008318603 0.85133249
3.5801075 -2.7392871 0.50199485
3.7418888 -2.7502255 0.49828523
3.9199102 -2.7622609 0.49420345
4.1167479 -2.775569 0.48969018
3.3246207 -2.6086152 0.50367898
3.4615784 -2.6129119 0.50035596
3.6110721 -2.6176021 0.49672896
3.7749057 -2.6227419 0.49275392
3.2248671 -2.4969568 0.5021047
3.3522902 -2.4963894 0.49884498
3.9552467 -2.6283998 0.48837829
4.1547227 -2.6346581 0.48353863
2.9067764 -2.2474699 0.55420381
2.9117067 -2.1958542 0.56166214
2.9166253 -2.1443651 0.56910217
2.9205506 -2.1032739 0.57503968
2.9254451 -2.0520356 0.58244359
2.9303277 -2.0009217 0.58982921
2.9351959 -1.94995 0.59719449
2.9400539 -1.8991021 0.60454196
2.9452112 -1.8462093 0.61650777
2.9498162 -1.7994587 0.62901932
2.9546354 -1.7490085 0.63629609
2.9594424 -1.6986802 0.64355534
2.9632785 -1.6585146 0.64934874
2.9680624 -1.6084288 0.65657288
2.9728353 -1.5584633 0.66377997
2.9775946 -1.5086354 0.67096692
2.9823427 -1.458927 0.67813677
2.9870775 -1.4093548 0.68528688
2.9918003 -1.3599011 0.69241989
2.9965115 -1.3105828 0.69953346
3.0012109 -1.2613823 0.70663005
3.0058968 -1.2123158 0.71370721
3.0105731 -1.1633666 0.72076762
3.0152352 -1.1145502 0.72780871
3.0198867 -1.0658497 0.73483312
3.0245259 -1.0172815 0.74183857
3.0310929 -0.95103335 0.76125169
3.0283203 -0.98005927 0.75707269
3.0347824 -0.91239738 0.76681459
3.0393844 -0.86421692 0.77375156
3.0439754 -0.81615007 0.78067219
3.0485544 -0.76821291 0.78757417
3.0531218 -0.72038829 0.79445982
3.0576777 -0.67269266 0.80132705
3.0631292 -0.6156112 0.80954564
3.0676603 -0.56817085 0.81637597
3.0721793 -0.52085751 0.82318819
3.0766878 -0.47365493 0.82998437
3.0811841 -0.4265784 0.83676243
3.086565 -0.37023705 0.84487432
3.0911317 -0.32489136 0.86110187
3.0955923 -0.27818477 0.86781442
3.1022158 -0.20759815 0.87312376
3.0999026 -0.23403564 0.87802798
3.1053672 -0.17582671 0.88252544
3.1097927 -0.12949082 0.88918483
3.1150897 -0.074034862 0.89715505
3.1194911 -0.027943589 0.90377915
3.1228676 0.0064297095 0.91256285
2.9072022 -2.2559752 0.60396343
2.9121342 -2.2043295 0.61135942
2.9170542 -2.1528096 0.61873704
2.9219596 -2.1014333 0.62609422
2.9268534 -2.0501828 0.63343334
2.9307594 -2.0092819 0.63929057
2.9356298 -1.9582804 0.64659411
2.9404879 -1.9074028 0.65387982
2.9451127 -1.8596123 0.66324604
2.950253 -1.8077009 0.67823946
2.9550734 -1.7572215 0.68545514
2.9608421 -1.6968061 0.69409102
2.9589212 -1.7169212 0.69121569
2.9637191 -1.6666747 0.69839811
2.9685042 -1.61656 0.70556176
2.9732776 -1.5665656 0.71270806
2.9780388 -1.5167086 0.71983474
2.9827871 -1.4669716 0.72694439
2.9875236 -1.4173709 0.73403448
2.9922481 -1.3678888 0.74110758
2.9969599 -1.3185421 0.74816126
3.0016606 -1.2693133 0.75519812
3.0063479 -1.2202188 0.76221579
3.011024 -1.1712415 0.7692169
3.0157788 -1.1239675 0.78588253
3.0204315 -1.0752339 0.79283601
3.0250721 -1.0266325 0.79977065
3.0324733 -0.94911385 0.81083125
3.029701 -0.97814643 0.80668867
3.0352402 -0.92013037 0.8149668
3.0398426 -0.87192225 0.82184523
3.044435 -0.82382858 0.82870752
3.0490155 -0.77586436 0.83555138
3.0535839 -0.72801292 0.84237903
3.0581403 -0.68029022 0.84918821
3.0635931 -0.62317669 0.85733747
3.0681255 -0.57570988 0.86411023
3.0726457 -0.52837002 0.87086493
3.0771546 -0.48114109 0.87760383
3.0816522 -0.43403825 0.88432467
3.0870345 -0.37766567 0.89236814
3.0916021 -0.33229458 0.90854329
3.0960639 -0.2855621 0.9151991
3.1031804 -0.21101968 0.92581588
3.1005151 -0.23893832 0.92183954
3.1058416 -0.18314743 0.92978573
3.1102679 -0.13678594 0.93638849
3.1155658 -0.081299514 0.94429141
3.1199682 -0.035182908 0.95085949
3.1234825 0.0016250759 0.95610201
2.9076285 -2.264487 0.65375781
2.9125619 -2.2128103 0.66109127
2.9174826 -2.1612604 0.66840661
2.9223895 -2.1098537 0.6757015
2.9272847 -2.058573 0.68297863
2.9311912 -2.0176482 0.68878615
2.9360626 -1.9666165 0.69602787
2.9409227 -1.915709 0.70325208
2.9460826 -1.8627543 0.71509427
2.95069 -1.8159497 0.72749847
2.9555113 -1.7654407 0.73465317
2.9611058 -1.7017156 0.72356009
2.9601641 -1.7177211 0.74543637
2.9641593 -1.6748413 0.74748629
2.9689457 -1.6246974 0.75458902
2.9737208 -1.5746744 0.76167482
2.9784822 -1.5247883 0.76874101
2.9832327 -1.4750226 0.77579027
2.9879696 -1.4253931 0.78282017
2.9926958 -1.3758827 0.78983325
2.9974082 -1.3265076 0.7968272
3.00211 -1.2772506 0.80380422
3.006799 -1.2281282 0.81076241
3.0114768 -1.1791226 0.81770396
3.0162325 -1.1318215 0.83431488
3.0208859 -1.0830601 0.84120935
3.0255277 -1.0344312 0.84808487
3.0328388 -0.9553169 0.84940356
3.0307305 -0.98041797 0.85769516
3.0356987 -0.92786849 0.86315155
3.0403023 -0.87963331 0.86997151
3.0448947 -0.83151197 0.87677532
3.0494759 -0.7835207 0.88356096
3.0540466 -0.73564255 0.89033043
3.0586038 -0.68789303 0.89708179
3.0640583 -0.63074744 0.9051615
3.0686841 -0.58476365 0.9214353
3.0732052 -0.53739208 0.92812091
3.0777159 -0.49013138 0.93479091
3.0822148 -0.4429971 0.94144291
3.0875988 -0.38658684 0.94940412
3.0920732 -0.33970359 0.95602083
3.0965357 -0.29294515 0.9626199
3.1018767 -0.2369841 0.97051775
3.1063161 -0.19047372 0.97708172
3.1107433 -0.1440867 0.98362833
3.1160419 -0.088569641 0.99146342
3.1204453 -0.042427734 0.99797553
3.1246424 0.00093381107 1.0064986
2.9080546 -2.273005 0.70359218
2.9129887 -2.2212982 0.71086287
2.9179113 -2.1697176 0.71811563
2.9228199 -2.1182811 0.72534841
2.9277163 -2.0669696 0.73256332
2.9316239 -2.026021 0.73832124
2.9364963 -1.9749593 0.7455011
2.9413574 -1.924022 0.75266349
2.9459841 -1.8761759 0.76191646
2.9511275 -1.8242042 0.77679193
2.9559503 -1.7736653 0.78388524
2.9607608 -1.7232492 0.79096133
2.9646001 -1.6830136 0.79660839
2.969388 -1.6328404 0.80365056
2.9741635 -1.5827882 0.81067544
2.9789267 -1.5328735 0.81768101
2.9836783 -1.4830791 0.8246699
2.9884167 -1.4334213 0.83163947
2.9931436 -1.3838822 0.83859247
2.9978578 -1.3344786 0.8455264
3.0025604 -1.2851934 0.8524437
3.0073404 -1.2376266 0.86906368
3.0120194 -1.1885873 0.87593377
3.016686 -1.1396818 0.88278514
3.0213406 -1.0908924 0.88962007
3.0259833 -1.0422357 0.89643669
3.0315397 -0.98400605 0.90459418
3.0363045 -0.93305922 0.9077844
3.0354178 -0.94837916 0.92932081
3.0407617 -0.88735008 0.91813499
3.0453556 -0.83920169 0.92488039
3.0499372 -0.79118323 0.93160754
3.0545089 -0.74327803 0.93831879
3.0590675 -0.69550157 0.94501215
3.064523 -0.6383239 0.9530223
3.0691504 -0.59231424 0.96924287
3.0736728 -0.54491615 0.97587079
3.0781841 -0.49762914 0.98248333
3.0826843 -0.45046854 0.9890781
3.088069 -0.39402676 0.99697053
3.0925446 -0.34711748 1.0035301
3.0970082 -0.30033302 1.0100721
3.1023507 -0.24434105 1.0179018
3.1076767 -0.18851009 1.025709
3.1059029 -0.20709971 1.0231094
3.1115117 -0.14936928 1.0353218
3.1166141 -0.097300299 1.0481129
3.1210189 -0.05112797 1.0545574
3.125412 -0.0050775036 1.0609848
2.9084811 -2.2815299 0.7534616
2.9134169 -2.2297919 0.76066953
2.9183407 -2.1781812 0.76785988
2.9232502 -2.1267138 0.77503014
2.928148 -2.0753722 0.78218281
2.9320564 -2.0343993 0.78789097
2.9369304 -1.9833078 0.7950089
2.9417925 -1.9323406 0.80210936
2.9469552 -1.8793242 0.81382769
2.9515653 -1.8324652 0.82612449
2.956389 -1.7818972 0.83315617
2.961201 -1.7314512 0.8401711
2.9665239 -1.6769325 0.85278016
2.9640822 -1.7012467 0.84437126
2.9700472 -1.638074 0.85064185
2.9746072 -1.5909086 0.85971451
2.9793713 -1.5409652 0.8666594
2.9841237 -1.4911419 0.87358785
2.9888637 -1.4414554 0.8804971
2.9935918 -1.3918878 0.88738978
2.998307 -1.3424557 0.89426368
3.003011 -1.2931423 0.90112108
3.0077922 -1.2455479 0.91768605
3.0124724 -1.1964808 0.92449647
3.0171399 -1.1475471 0.93128842
3.0217962 -1.0987302 0.93806422
3.0264397 -1.0500457 0.94482142
3.0319972 -0.9917829 0.95290816
3.0375376 -0.93369091 0.96097112
3.0356929 -0.95303309 0.95828652
3.0412214 -0.8950721 0.9663313
3.0458167 -0.84689653 0.97301799
3.0506999 -0.79676569 0.98418856
3.055064 -0.75244749 0.99594927
3.059624 -0.70463908 1.0025728
3.0650816 -0.64742279 1.0104992
3.0696166 -0.59987068 1.0170873
3.0741403 -0.55244607 1.0236574
3.0786526 -0.5051325 1.0302122
3.0831532 -0.45794556 1.0367494
3.0885398 -0.40147242 1.0445732
3.0930169 -0.35453704 1.0510756
3.0974813 -0.30772662 1.0575607
3.1028242 -0.25170353 1.065322
3.1080575 -0.1943748 1.0635871
3.1068692 -0.2105251 1.0758655
3.1114972 -0.16138734 1.0802498
3.1170912 -0.10458159 1.0953566
3.1214967 -0.058383726 1.1017449
3.125891 -0.012308016 1.1081163
3.1294003 0.024479583 1.1132033
2.9089084 -2.290061 0.80337095
2.9138451 -2.2382927 0.81051612
2.9187696 -2.186651 0.8176437
2.9236808 -2.1351531 0.82475156
2.9285798 -2.0837817 0.83184177
2.9324894 -2.0427845 0.83750021
2.9373646 -1.9916629 0.84455597
2.9422278 -1.9406658 0.85159475
2.9468575 -1.8927639 0.86073387
2.9520032 -1.8407317 0.8754912
2.9568279 -1.790134 0.88246149
2.9616416 -1.739659 0.88941503
2.9683588 -1.669217 0.89911926
2.9654827 -1.6993766 0.89496434
2.9712296 -1.6391091 0.90326685
2.9750509 -1.5990347 0.90878755
2.9798164 -1.5490624 0.91567171
2.9845703 -1.4992101 0.92253941
2.989311 -1.4494951 0.92938834
2.9940403 -1.3998989 0.93622077
2.9990597 -1.3491653 0.95069295
3.0035524 -1.3026886 0.95957965
3.0082448 -1.2534758 0.9663465
3.0129256 -1.2043803 0.97309721
3.0175943 -1.1554189 0.97982943
3.0231814 -1.096825 0.98788625
3.0278244 -1.0481292 0.99458194
3.032455 -0.99956572 1.0012594
3.0378132 -0.93833995 0.98993385
3.0369267 -0.95367301 1.0115187
3.0416811 -0.90280008 1.0145648
3.0462778 -0.85459721 1.0211928
3.0506554 -0.80930805 1.0298783
3.055527 -0.76009476 1.0440117
3.0600884 -0.71225929 1.050577
3.0655468 -0.65501094 1.0584339
3.0700834 -0.60743213 1.0649637
3.0746076 -0.55998093 1.0714762
3.0791211 -0.51264095 1.0779732
3.0836232 -0.46542764 1.084453
3.0890107 -0.40892303 1.0922077
3.0937235 -0.36097637 1.1046215
3.0980489 -0.31660569 1.1145905
3.1033931 -0.26054519 1.1222697
3.1078353 -0.21395248 1.1286522
3.1124635 -0.16479567 1.1329662
3.1106856 -0.18898469 1.1514292
3.1175685 -0.11186827 1.1426361
3.1219757 -0.065645039 1.1489679
3.1263707 -0.019543886 1.1552829
3.12988 0.017263785 1.1603251
2.9093354 -2.2985981 0.85331565
2.914273 -2.246799 0.8603977
2.9191995 -2.1951263 0.86746252
2.9241121 -2.1435988 0.87450767
2.9290123 -2.0921967 0.88153541
2.9329228 -2.0511756 0.88714409
2.9377995 -2.0000238 0.89413768
2.9426634 -1.9489967 0.90111428
2.9475148 -1.8981112 0.9080717
2.9524415 -1.849005 0.92489702
2.9572675 -1.7983779 0.93180585
2.9620824 -1.7478733 0.93869793
2.9687128 -1.6757549 0.93847311
2.9663608 -1.7037235 0.94759893
2.9716725 -1.6472651 0.95242733
2.9754951 -1.6071674 0.95789933
2.9802618 -1.5571659 0.96472275
2.9850171 -1.5072849 0.97152978
2.9897587 -1.4575408 0.9783181
