# .PCD v0.7 - Point Cloud Data file format
VERSION 0.7
FIELDS x y z
SIZE 4 4 4
TYPE F F F
COUNT 1 1 1
WIDTH 1470
HEIGHT 1
VIEWPOINT 0 0 0 1 0 0 0
POINTS 1470
DATA ascii
3.1914279 -1.6690679 0.67582923
3.192729 -1.6146102 0.67304212
3.1937692 -1.5710689 0.6708135
3.1950693 -1.5166725 0.66802937
3.1963685 -1.4623067 0.66524684
3.197407 -1.4188387 0.6630221
3.1984451 -1.3753916 0.66079843
3.1997423 -1.3211131 0.65802032
3.2010384 -1.2668649 0.65524381
3.2020748 -1.223491 0.6530239
3.2033694 -1.1693037 0.65025055
3.2046633 -1.1151469 0.64747864
3.205698 -1.0718458 0.64526254
3.2069907 -1.0177498 0.64249372
3.2082825 -0.96368402 0.63972646
3.2093155 -0.92045569 0.637514
3.2106056 -0.86645055 0.63474995
3.2118959 -0.81247556 0.63198739
3.2129266 -0.76931977 0.62977856
3.214005 -0.71981728 0.62509912
3.2154553 -0.66788578 0.62673312
3.2165325 -0.61843759 0.62205625
3.2175615 -0.57537484 0.61985219
3.2188468 -0.52157658 0.61709881
3.2201314 -0.46780831 0.61434674
3.2211585 -0.42481774 0.6121465
3.2224417 -0.37110958 0.60939759
3.2237244 -0.31743139 0.60665029
3.2247498 -0.2745128 0.60445362
3.2260308 -0.2208945 0.60170937
3.2273121 -0.16730615 0.5989666
3.2283356 -0.12445945 0.59677362
3.2296145 -0.070930779 0.5940339
3.2308929 -0.017432064 0.59129572
3.2319148 0.02534309 0.5891065
3.2329361 0.06809786 0.58691823
3.1831567 -2.1035755 0.74131441
3.1839411 -2.0707479 0.73962641
3.1852472 -2.0160613 0.73681438
3.1865525 -1.9614058 0.73400402
3.1875961 -1.9177058 0.73175693
3.1889 -1.8631119 0.72894973
3.1902032 -1.8085482 0.72614402
3.1912451 -1.7649221 0.72390074
3.1922865 -1.7213172 0.72165865
3.1935873 -1.6668416 0.71885741
3.1948876 -1.6123965 0.71605784
3.1959274 -1.5688647 0.71381944
3.1972263 -1.5144809 0.71102303
3.1985245 -1.4601277 0.70822817
3.1995623 -1.4166695 0.70599347
3.2005997 -1.3732321 0.70376003
3.201896 -1.3189662 0.70096964
3.203191 -1.2647303 0.69818074
3.2042267 -1.2213662 0.69595093
3.2055204 -1.1671913 0.69316518
3.2068136 -1.1130468 0.69038123
3.2078476 -1.0697556 0.68815506
3.2091391 -1.0156717 0.68537396
3.2104301 -0.96161819 0.6825946
3.2114623 -0.91839975 0.68037218
3.2127516 -0.86440682 0.67759585
3.2140408 -0.810444 0.67482114
3.215071 -0.7672981 0.67260259
3.2161009 -0.72417277 0.670385
3.2173877 -0.67029631 0.66761476
3.2186737 -0.61644995 0.66484588
3.220237 -0.57290268 0.67332333
3.2215216 -0.51911956 0.67055452
3.222805 -0.46536645 0.66778737
3.2238314 -0.42238802 0.66557467
3.2251134 -0.36869496 0.66281074
3.2263949 -0.31503192 0.66004807
3.2274196 -0.27212542 0.65783924
3.2286994 -0.21852219 0.65507972
3.2299788 -0.16494891 0.65232176
3.2310021 -0.1221142 0.65011674
3.2322798 -0.068600655 0.64736193
3.233557 -0.0151169 0.64460844
3.2345784 0.027646214 0.642407
3.2355986 0.070389003 0.64020663
3.1853232 -2.1012502 0.78442299
3.1861064 -2.0684299 0.7827276
3.1874115 -2.013756 0.77990323
3.1887159 -1.9591128 0.77708042
3.1897593 -1.9154232 0.77482343
3.1915324 -1.8576882 0.77993214
3.1929042 -1.8057263 0.77994239
3.1939454 -1.7621127 0.77768666
3.1949859 -1.7185202 0.77543223
3.1962857 -1.66406 0.77261561
3.1975846 -1.6096303 0.7698006
3.1986237 -1.5661112 0.76754981
3.1999214 -1.5117429 0.76473802
3.2012186 -1.4574051 0.76192778
3.2022552 -1.4139593 0.75968075
3.2032917 -1.3705343 0.7574349
3.204587 -1.3162837 0.75462914
3.2058809 -1.2620635 0.75182492
3.2069154 -1.2187115 0.74958271
3.2082081 -1.164552 0.74678189
3.2095001 -1.1104228 0.74398226
3.2105327 -1.0671439 0.74174398
3.2118235 -1.0130756 0.73894757
3.2131133 -0.95903724 0.73615283
3.2141447 -0.91583103 0.73391825
3.2154331 -0.86185342 0.73112637
3.2167203 -0.80790597 0.72833651
3.2177503 -0.76477218 0.72610557
3.2187793 -0.72165906 0.72387576
3.2200646 -0.6677978 0.72109032
3.2213495 -0.6139667 0.71830624
3.2229118 -0.57043171 0.7267676
3.224195 -0.51666373 0.72398347
3.2254775 -0.46292585 0.721201
3.2265029 -0.41995952 0.71897632
3.2277837 -0.36628157 0.71619695
3.2290645 -0.3126336 0.71341926
3.230088 -0.26973918 0.71119815
3.2313666 -0.21615109 0.7084235
3.2326453 -0.16259284 0.70565033
3.2336671 -0.11977014 0.70343304
3.2349436 -0.066271603 0.70066303
3.2362201 -0.012802899 0.69789445
3.2372403 0.029948264 0.69568092
3.2382596 0.072679043 0.69346839
3.1880293 -2.0983448 0.83828163
3.1888125 -2.0655341 0.83657694
3.1901159 -2.0108759 0.83373708
3.1914198 -1.9562484 0.83089876
3.1924615 -1.9125711 0.82862949
3.1939974 -1.8607987 0.83210212
3.1956041 -1.8029057 0.83371347
3.1966441 -1.7593046 0.83144546
3.1976836 -1.7157245 0.82917857
3.1989825 -1.6612798 0.82634658
3.2002807 -1.6068658 0.82351607
3.2013183 -1.563359 0.82125324
3.2026148 -1.5090061 0.81842595
3.2039106 -1.4546839 0.81560016
3.2049465 -1.4112505 0.81334108
3.2059824 -1.3678379 0.81108266
3.2072761 -1.3136027 0.80826157
3.2085693 -1.2593977 0.80544204
3.2096031 -1.2160583 0.80318767
3.2108943 -1.1619141 0.80037123
3.2121851 -1.1078004 0.7975564
3.213217 -1.0645337 0.79530579
3.2145064 -1.0104805 0.79249412
3.215795 -0.95645773 0.78968406
3.2168255 -0.91326374 0.78743702
3.2181127 -0.85930133 0.7846303
3.219399 -0.80536914 0.78182489
3.2204278 -0.76224756 0.77958179
3.2214558 -0.71914661 0.77733988
3.2227404 -0.66530061 0.77453905
3.2240241 -0.61148465 0.77173966
3.2250504 -0.56845593 0.76950151
3.2263329 -0.51470011 0.76670527
3.2276144 -0.46097431 0.76391059
3.2286389 -0.41801769 0.76167613
3.2299192 -0.36435184 0.75888473
3.2311985 -0.31071597 0.75609463
3.2322218 -0.26783121 0.75386399
3.2334998 -0.21425514 0.75107706
3.2347767 -0.16070892 0.74829179
3.2357981 -0.11789586 0.74606478
3.2370739 -0.064409345 0.74328262
3.238349 -0.010952592 0.74050194
3.2393687 0.031788945 0.73827875
3.2403874 0.074510127 0.73605663
3.1907344 -2.0954411 0.89211303
3.1915166 -2.0626397 0.8903991
3.1928194 -2.007997 0.88754368
3.1941216 -1.9533854 0.88468987
3.1951625 -1.9097205 0.88240832
3.1962509 -1.8596458 0.87763608
3.1977148 -1.8070787 0.87919998
3.1988022 -1.7570592 0.87443089
3.1998413 -1.7134891 0.87215424
3.201139 -1.6590569 0.86930984
3.202436 -1.6046553 0.866467
3.2034729 -1.5611584 0.8641941
3.2047687 -1.5068181 0.86135459
3.2060635 -1.4525082 0.85851657
3.207099 -1.4090846 0.85624743
3.2081337 -1.3656818 0.85397941
3.2094264 -1.3114588 0.85114616
3.2107186 -1.2572665 0.84831417
3.2117517 -1.2139366 0.84605008
3.2130423 -1.1598049 0.84322143
3.2143321 -1.1057034 0.8403942
3.2153637 -1.0624466 0.83813393
3.2166519 -1.0084057 0.83530992
3.2179394 -0.95439512 0.83248764
3.2189693 -0.91121083 0.83023101
3.2202554 -0.85726064 0.82741177
3.2215407 -0.80334067 0.82459414
3.2225688 -0.76022881 0.82234138
3.2235961 -0.71713758 0.82008964
3.22488 -0.66330379 0.81727654
3.2265344 -0.60705125 0.82075888
3.2277224 -0.56598747 0.82289213
3.2290037 -0.51224685 0.82008076
3.2302837 -0.45853612 0.81727111
3.2313077 -0.4155916 0.81502426
3.2325869 -0.36194086 0.81221753
3.2338653 -0.30832008 0.80941236
3.2348871 -0.26544738 0.8071695
3.2361639 -0.21188638 0.80436736
3.2374401 -0.15835518 0.80156702
3.2384605 -0.11555412 0.79932785
3.2397356 -0.062082678 0.79653054
3.241009 -0.0086408854 0.79373485
3.242028 0.034088731 0.7914995
3.2433002 0.087470978 0.78870672
3.1928973 -2.0931194 0.93515652
3.1936789 -2.0603254 0.9334349
3.1949809 -2.0056953 0.9305672
3.1962819 -1.9510961 0.92770106
3.1973221 -1.9074413 0.9254095
3.1983619 -1.8638073 0.92311913
3.199661 -1.8092957 0.92025751
3.2009597 -1.754815 0.91739756
3.2025363 -1.7106962 0.9258464
3.2038329 -1.6562796 0.92298681
3.2051289 -1.6018935 0.92012852
3.2061648 -1.558409 0.91784328
3.2074594 -1.504084 0.91498846
3.2087536 -1.4497896 0.91213512
3.2097874 -1.4063784 0.90985364
3.2108216 -1.362988 0.90757346
3.2121134 -1.3087806 0.90472454
3.2134044 -1.2546035 0.90187752
3.2144365 -1.2112861 0.8996011
3.2157257 -1.1571697 0.89675701
3.2170146 -1.1030836 0.8939147
3.2180448 -1.059839 0.89164197
3.2193322 -1.0058134 0.88880295
3.2206187 -0.95181811 0.88596505
3.2216473 -0.90864599 0.88369626
3.2229323 -0.85471106 0.88086182
3.2242167 -0.8008064 0.87802905
3.2252438 -0.7577067 0.87576389
3.2262702 -0.71462768 0.87350017
3.2275524 -0.66080904 0.87067181
3.228997 -0.60897326 0.87222749
3.2303932 -0.56352019 0.87625629
3.2316732 -0.50979471 0.8734296
3.2329524 -0.45609918 0.87060434
3.2339752 -0.41316673 0.86834568
3.2352533 -0.3595311 0.86552393
3.2365303 -0.3059254 0.8627035
3.2375515 -0.26306474 0.86044842
3.2388272 -0.20951879 0.85763139
3.2401023 -0.15600267 0.85481554
3.2411218 -0.11321364 0.85256439
3.2423949 -0.059757113 0.84975189
3.2436681 -0.0063303411 0.84694099
3.2446859 0.036387295 0.84469354
3.2459571 0.089754581 0.84188569
3.1955998 -2.0902183 0.98893338
3.1963806 -2.0574341 0.98720282
3.1976812 -2.0028195 0.98431963
3.1989813 -1.948236 0.98143798
3.2000206 -1.9045936 0.97913414
3.2010596 -1.8609722 0.97683126
3.202358 -1.8064762 0.97395426
3.2036543 -1.7520109 0.97107917
3.2052305 -1.7079047 0.97951156
3.206526 -1.6535037 0.97663647
3.2078204 -1.5991333 0.97376305
3.2088556 -1.5556611 0.97146565
3.210149 -1.5013517 0.96859521
3.2114418 -1.4470725 0.96572655
3.2124751 -1.4036736 0.96343285
3.2135084 -1.3602957 0.96114022
3.2147987 -1.3061036 0.95827633
3.2160885 -1.2519419 0.95541388
3.2171195 -1.2086368 0.95312518
3.2184083 -1.1545357 0.95026582
3.2196958 -1.1004649 0.94740826
3.2207253 -1.0572325 0.94512326
3.2220113 -1.0032222 0.94226891
3.2232966 -0.94924229 0.93941587
3.2243242 -0.90608251 0.9371348
3.2256081 -0.85216284 0.9342851
3.2268913 -0.79827332 0.93143708
3.2279172 -0.75518584 0.92915994
3.2289431 -0.71211904 0.92688376
3.2302241 -0.65831554 0.92404014
3.2315049 -0.60454214 0.92119831
3.2325289 -0.5615474 0.91892594
3.2338078 -0.50783402 0.91608721
3.2350862 -0.45415056 0.91325003
3.2361085 -0.41122782 0.9109816
3.237385 -0.35760427 0.90814739
3.2386613 -0.30401063 0.90531492
3.2396817 -0.2611596 0.90305018
3.2409565 -0.20762566 0.90022099
3.2422307 -0.15412159 0.89739317
3.2432494 -0.11134213 0.89513236
3.2445221 -0.057897627 0.89230776
3.2457943 -0.0044828057 0.88948482
3.2468114 0.038225174 0.88722759
3.2480814 0.09158051 0.88440776
3.1983006 -2.0873194 1.0426832
3.1990807 -2.0545442 1.0409434
3.2003803 -1.9999452 1.0380448
3.201679 -1.9453772 1.0351479
3.202718 -1.9017475 1.0328315
3.2037556 -1.8581384 1.0305166
3.2050521 -1.803658 1.0276241
3.2063479 -1.749208 1.0247335
3.2073843 -1.7056727 1.0224223
3.208679 -1.6512841 1.0195348
3.2099729 -1.5969259 1.0166491
3.2110076 -1.5534639 1.0143417
3.2122998 -1.4991667 1.0114591
3.2135913 -1.4449 1.0085782
3.2146237 -1.4015111 1.0062748
3.215656 -1.3581429 1.0039724
3.2169459 -1.3039629 1.001096
3.2182348 -1.2498137 0.99822122
3.2192655 -1.2065184 0.99592286
3.2205527 -1.1524296 0.99305135
3.2218394 -1.0983711 0.99018139
3.222868 -1.0551486 0.98788697
3.2241535 -1.0011506 0.98502022
3.2254376 -0.94718277 0.98215514
3.2264647 -0.90403271 0.97986418
3.2277474 -0.85012525 0.97700244
3.2290301 -0.79624796 0.97414213
3.2300556 -0.75317025 0.97185498
3.2310801 -0.71011305 0.96956927
3.2326622 -0.65303588 0.97112054
3.2341738 -0.60206521 0.97452086
3.2351966 -0.55908263 0.97223657
3.2364748 -0.50538439 0.96938258
3.2377517 -0.45171607 0.96653003
3.2387733 -0.40880537 0.96424967
3.2400489 -0.35519689 0.96140033
3.2413239 -0.30161831 0.9585529
3.2423434 -0.25877935 0.956276
3.2436171 -0.20526046 0.95343155
3.2448902 -0.15177135 0.95058876
3.245908 -0.10900396 0.94831568
3.2471793 -0.055574417 0.945476
3.2484503 -0.0021746159 0.94263786
3.2494664 0.040521473 0.94036883
3.250736 0.093861878 0.9375338
3.2004602 -2.085001 1.0856615
3.2012396 -2.0522332 1.0839142
3.2025387 -1.9976472 1.0810033
3.2038364 -1.9430914 1.078094
3.204874 -1.8994715 1.075768
3.2059114 -1.8558726 1.0734429
3.207207 -1.8014046 1.0705384
3.2085021 -1.7469672 1.0676355
3.2095377 -1.7034417 1.0653144
3.2112994 -1.6459318 1.0703062
3.2126617 -1.5941682 1.0702295
3.213695 -1.5507187 1.0679101
3.2147872 -1.4992863 1.0624804
3.2163198 -1.4466796 1.0654231
3.2173088 -1.398809 1.0598003
3.2183399 -1.3554531 1.0574856
3.2196286 -1.3012888 1.0545939
3.2209165 -1.2471547 1.0517039
3.2219458 -1.2038717 1.0493933
3.223232 -1.1497984 1.0465065
3.2245176 -1.0957551 1.0436214
3.2255456 -1.0525448 1.0413145
3.2268298 -0.99856204 1.0384327
3.2281127 -0.94460964 1.0355521
3.2291391 -0.90147179 1.0332493
3.2304206 -0.84757954 1.0303723
3.2317019 -0.7937175 1.0274966
3.2327263 -0.75065184 1.0251975
3.2337503 -0.70760691 1.0228996
3.2350988 -0.65639448 1.022837
3.2368412 -0.59958959 1.027817
3.2378635 -0.55661905 1.0255204
3.2391398 -0.50293595 1.0226514
3.2404163 -0.44928277 1.0197839
3.2414365 -0.40638411 1.017491
3.2427113 -0.35279074 1.0146267
3.2439854 -0.29922724 1.011764
3.2450039 -0.25640029 1.0094752
3.2462764 -0.20289643 1.0066156
3.2475483 -0.14942238 1.0037576
3.2485652 -0.10666692 1.0014726
3.2498355 -0.053252339 0.99861783
3.2511051 0.00013247132 0.99576467
3.2521205 0.042816579 0.99348325
3.2533889 0.096142083 0.99063319
3.2544026 0.13878208 0.98835438
3.2020793 -2.0832624 1.1178836
3.2028584 -2.0505006 1.1161307
3.2041564 -1.9959239 1.1132104
3.2054536 -1.9413776 1.1102921
3.2064908 -1.8977653 1.1079586
3.2075276 -1.8541738 1.1056262
3.2088227 -1.799715 1.1027124
3.2101171 -1.7452869 1.0998002
3.2111521 -1.701769 1.0974718
3.2119279 -1.6691436 1.0957263
4.0683002 -2.9957252 -1.2629038
4.1435142 -2.9858072 -1.2618682
4.2218461 -2.9754784 -1.2607896
4.303494 -2.9647126 -1.2596656
3.9216363 -2.8701177 -1.2133968
3.9908388 -2.8581736 -1.2114418
4.0627861 -2.8457551 -1.2094091
3.0906281 -2.3586655 -1.2152432
3.09147 -2.3174276 -1.2168727
3.0925214 -2.2659013 -1.2189089
3.0935724 -2.2144017 -1.2209442
3.0946224 -2.1629255 -1.2229781
3.0954623 -2.1217637 -1.2246046
3.0965121 -2.0703351 -1.226637
3.0975611 -2.0189304 -1.2286683
3.0986097 -1.9675524 -1.2306987
3.0996578 -1.9161983 -1.2327281
3.1007054 -1.8648709 -1.2347564
3.1017528 -1.8135672 -1.2367839
3.1025898 -1.7725431 -1.2384051
3.103636 -1.7212864 -1.2404307
3.1046813 -1.6700532 -1.2424551
3.1057265 -1.618847 -1.2444788
3.106771 -1.5676641 -1.2465012
3.1078153 -1.5165082 -1.248523
3.1088586 -1.4653757 -1.2505435
3.1099014 -1.41427 -1.2525631
3.1109443 -1.3631876 -1.2545817
4.1376462 -2.832834 -1.2072941
3.7249889 -2.7675831 -1.170437
4.2155986 -2.8193793 -1.205092
4.2968397 -2.8053572 -1.2027968
4.3815813 -2.7907305 -1.2004027
3.7865808 -2.754452 -1.1678079
3.8504722 -2.7408295 -1.1650805
3.9167945 -2.7266893 -1.1622496
3.0919282 -2.357728 -1.1848444
3.0927699 -2.3164802 -1.1864804
3.0938215 -2.264941 -1.1885246
3.0948725 -2.213429 -1.1905679
3.0959227 -2.1619401 -1.1926099
3.0967624 -2.1207681 -1.1942426
3.0978117 -2.0693269 -1.1962829
3.0988607 -2.0179095 -1.1983223
3.0999093 -1.966519 -1.2003605
3.1009572 -1.9151522 -1.2023979
3.1020048 -1.8638123 -1.2044343
3.1030521 -1.8124961 -1.2064698
3.103889 -1.771462 -1.2080973
3.1049354 -1.7201928 -1.2101307
3.1059804 -1.6689471 -1.2121632
3.1070261 -1.6177282 -1.2141948
3.1080701 -1.5665331 -1.2162253
3.1091144 -1.5153646 -1.2182549
3.1101575 -1.4642197 -1.2202834
3.1112006 -1.4131016 -1.2223109
3.1122429 -1.3620068 -1.2243375
3.1126435 -1.3215466 -1.2360371
3.1136856 -1.270503 -1.2380594
3.1147263 -1.2194824 -1.2400806
3.1157672 -1.1684889 -1.2421007
3.1168067 -1.1175184 -1.2441198
3.1178467 -1.0665748 -1.246138
3.1188858 -1.0156544 -1.2481554
3.1199243 -0.96476054 -1.2501712
3.1209624 -0.91389006 -1.2521865
3.1219997 -0.86304617 -1.2542007
3.1230371 -0.81222546 -1.256214
3.1238661 -0.77158749 -1.2578241
3.124902 -0.72081321 -1.2598352
3.1259377 -0.67006212 -1.2618459
3.1269729 -0.61933756 -1.2638553
3.1280069 -0.56863612 -1.2658638
3.129041 -0.51796114 -1.2678713
3.1300747 -0.4673093 -1.2698778
3.131108 -0.41668382 -1.2718834
3.1321402 -0.36608148 -1.273888
3.1331728 -0.31550542 -1.2758915
3.1342041 -0.26495254 -1.2778943
3.1351607 -0.22635493 -1.2754067
3.6046417 -2.6620572 -1.1289364
3.9856887 -2.7120008 -1.159309
4.0573072 -2.6967311 -1.1562518
4.1318159 -2.6808455 -1.1530715
3.6617744 -2.6475701 -1.1256785
3.720958 -2.6325636 -1.1223037
3.7823048 -2.6170084 -1.1188058
4.2093925 -2.6643059 -1.1497602
4.2902303 -2.6470709 -1.1463096
3.8459351 -2.6008739 -1.1151775
4.3745403 -2.6290956 -1.1427109
3.0940964 -2.356164 -1.1341459
3.0949378 -2.3148994 -1.1357926
3.0959892 -2.263339 -1.1378502
3.0970402 -2.2118058 -1.1399066
3.0980909 -2.1602964 -1.1419622
3.0989301 -2.1191072 -1.1436056
3.0999792 -2.0676451 -1.1456591
3.1010284 -2.0162065 -1.1477119
3.1020768 -1.9647954 -1.1497636
3.1031249 -1.9134076 -1.1518143
3.104172 -1.8620467 -1.1538638
3.1052186 -1.8107096 -1.1559123
3.106056 -1.7696587 -1.1575506
3.1071022 -1.7183689 -1.1595973
3.1081474 -1.6671023 -1.1616431
3.1091924 -1.6158627 -1.1636879
3.1102366 -1.5646468 -1.1657318
3.1109736 -1.5166006 -1.1734293
3.1118908 -1.4626777 -1.1799144
3.1129332 -1.4115429 -1.1819524
3.1139758 -1.3604317 -1.1839895
3.1148093 -1.3195612 -1.1856185
3.1158509 -1.2684969 -1.1876538
3.1168919 -1.2174559 -1.1896882
3.1179321 -1.1664416 -1.1917216
3.1189723 -1.1154506 -1.1937538
3.1200116 -1.0644863 -1.1957852
3.1210508 -1.0135453 -1.1978157
3.1220891 -0.96263105 -1.1998451
3.1231275 -0.91174001 -1.2018733
3.1241643 -0.86087561 -1.2039007
3.1252015 -0.81003439 -1.2059271
3.1260304 -0.76938003 -1.2075473
3.1270664 -0.71858531 -1.209572
3.1281018 -0.66781384 -1.2115957
3.1291368 -0.61706889 -1.2136182
3.1301713 -0.56634706 -1.2156399
3.1312053 -0.5156517 -1.2176604
3.1322389 -0.46497953 -1.2196801
3.1332719 -0.4143337 -1.2216989
3.1343045 -0.36371109 -1.2237165
3.1353362 -0.31311479 -1.2257333
3.1363678 -0.26254159 -1.227749
3.1371927 -0.22210139 -1.2293608
3.4415498 -2.5792279 -1.0940862
3.492944 -2.5641227 -1.0904183
3.9119792 -2.5841279 -1.1114116
3.5460837 -2.5485044 -1.0866259
3.6010594 -2.5323462 -1.0827025
3.6579685 -2.5156205 -1.0786412
3.9805701 -2.5667298 -1.1074977
4.0518632 -2.548645 -1.1034291
4.1260228 -2.5298324 -1.0991967
3.3410416 -2.4890423 -1.0586936
3.7169139 -2.4982953 -1.0744345
3.778007 -2.4803393 -1.0700746
4.2032261 -2.5102477 -1.0947906
4.2836657 -2.4898429 -1.0901999
4.3675466 -2.4685645 -1.0854129
3.0962663 -2.3545988 -1.0834078
3.0971074 -2.3133173 -1.0850654
3.0981591 -2.2617359 -1.0871363
3.0992098 -2.2101817 -1.0892061
3.10026 -2.1586511 -1.0912751
3.1013129 -2.1111999 -1.0911496
3.1021457 -2.0619111 -1.0971889
3.1031976 -2.0145025 -1.0970621
3.1042459 -1.9630703 -1.0991271
3.1052938 -1.9116617 -1.1011912
3.1063409 -1.8602799 -1.1032541
3.1073878 -1.8089219 -1.105316
3.1084342 -1.7575908 -1.1073768
3.1094797 -1.7062833 -1.1094369
3.1103158 -1.6652561 -1.111084
3.1113608 -1.6139958 -1.1131421
3.1124053 -1.5627589 -1.1151991
3.1131756 -1.509276 -1.1249373
3.1140583 -1.4607484 -1.129414
3.1151013 -1.4095931 -1.1314651
3.1161437 -1.358461 -1.1335155
3.1169772 -1.3175743 -1.1351551
3.1180186 -1.266489 -1.1372037
3.1190596 -1.2154274 -1.1392514
3.1200995 -1.1643925 -1.1412977
3.1211393 -1.1133808 -1.1433433
3.1221788 -1.0623959 -1.145388
3.1232176 -1.0114344 -1.1474316
3.1242559 -0.96049958 -1.1494741
3.125294 -0.90958798 -1.1515157
3.1263313 -0.85870308 -1.1535562
3.1273682 -0.80784136 -1.1555955
3.128197 -0.76717067 -1.1572267
3.1292334 -0.7163555 -1.1592642
3.1302683 -0.66556358 -1.1613013
3.1313031 -0.61479819 -1.1633369
3.1323376 -0.56405592 -1.1653717
3.1333716 -0.51334023 -1.1674055
3.1344047 -0.46264771 -1.1694382
3.1354377 -0.41198158 -1.1714699
3.1364701 -0.36133856 -1.1735009
3.1375017 -0.31072199 -1.1755308
3.1385334 -0.26012853 -1.1775595
3.139358 -0.21967214 -1.1791819
3.3890262 -2.4730091 -1.0545832
3.4385824 -2.4564509 -1.0503378
3.841368 -2.4617167 -1.0655525
3.2036431 -2.4211302 -1.0299979
3.2471943 -2.4048328 -1.0256466
3.4897902 -2.4393413 -1.0459512
3.5427315 -2.4216521 -1.0414162
3.5974977 -2.4033532 -1.0367246
3.9071259 -2.44239 -1.0608598
3.9754176 -2.422318 -1.0559859
3.0984378 -2.3530321 -1.0326248
3.2921023 -2.3880279 -1.0211596
3.3384314 -2.3706913 -1.0165309
3.6541839 -2.384413 -1.0318687
3.7128925 -2.3647966 -1.0268394
4.0463943 -2.4014571 -1.0509207
4.1202164 -2.3797603 -1.0456523
3.0992796 -2.3117337 -1.0342932
4.1970582 -2.3571751 -1.0401683
3.1003308 -2.2601311 -1.0363773
3.1013813 -2.2085562 -1.0384606
3.1024313 -2.1570044 -1.0405428
3.1034813 -2.10548 -1.0426239
3.1045294 -2.0539787 -1.0447041
3.1053684 -2.0127971 -1.0463674
3.1064167 -1.9613435 -1.0484457
3.1074648 -1.9099141 -1.050523
3.1085117 -1.8585117 -1.0525994
3.1095586 -1.8071326 -1.0546746
3.1101704 -1.7561427 -1.066879
3.1112158 -1.7048186 -1.0689496
3.1120524 -1.6637781 -1.0706053
3.113097 -1.6125009 -1.072674
3.1141415 -1.5612476 -1.0747418
3.1151848 -1.5100209 -1.0768085
3.1162283 -1.458818 -1.0788742
3.1172707 -1.4076416 -1.0809387
3.1183128 -1.3564889 -1.0830024
3.1191461 -1.3155855 -1.0846525
3.1201875 -1.2644798 -1.0867144
3.1212282 -1.2133973 -1.0887752
3.1222684 -1.1623417 -1.090835
3.1233082 -1.1113095 -1.0928941
3.1243474 -1.0603039 -1.0949515
3.1253862 -1.0093219 -1.0970085
3.1264243 -0.95836639 -1.0990642
3.1274621 -0.90743434 -1.101119
3.1284997 -0.85652888 -1.1031728
3.1295362 -0.80564666 -1.1052256
3.1303654 -0.76495957 -1.1068671
3.1314011 -0.71412396 -1.1089181
3.1324363 -0.66331154 -1.1109679
3.133471 -0.6125257 -1.1130167
3.134505 -0.56176311 -1.1150647
3.1355388 -0.51102698 -1.1171117
3.1365724 -0.46031407 -1.1191577
3.1376047 -0.40962762 -1.1212023
3.1386375 -0.35896426 -1.1232466
3.1396697 -0.30832741 -1.1252896
3.1407006 -0.25771362 -1.1273314
3.1415253 -0.21724111 -1.1289642
3.1184769 -2.3429606 -0.9993856
3.3862498 -2.3527973 -1.0117531
3.101228 -2.3001394 -0.99406719
3.1593673 -2.3260255 -0.99471939
3.2014892 -2.3085799 -0.98991239
3.2449009 -2.2906013 -0.98495853
3.435631 -2.3343184 -1.0068191
3.4866529 -2.3152258 -1.0017215
3.7737348 -2.3444679 -1.0216275
3.8368287 -2.3233867 -1.0162227
4.2771101 -2.3336468 -1.0344552
3.102504 -2.2585254 -0.98557889
3.2896612 -2.2720633 -0.97985065
3.3358343 -2.2529407 -0.9745816
3.539398 -2.2954879 -0.9964515
3.5939553 -2.2750721 -0.99100041
3.6504204 -2.2539425 -0.98535895
3.9023011 -2.3015103 -1.0106142
3.9702897 -2.2787936 -1.0047899
4.3605771 -2.3091154 -1.0284985
3.1035547 -2.2069292 -0.98767543
3.7088947 -2.2320609 -0.97951651
4.0409427 -2.2551866 -0.99873757
4.1144185 -2.2306361 -0.99244332
3.1046047 -2.1553564 -0.98977125
3.1056538 -2.1038108 -0.99186575
3.1067033 -2.052289 -0.99395943
3.1075416 -2.0110903 -0.9956333
3.1085894 -1.9596159 -0.99772501
3.109637 -1.9081653 -0.99981576
3.1106839 -1.8567417 -1.0019053
3.1117306 -1.8053418 -1.003994
3.1123424 -1.7543314 -1.0162174
3.1133878 -1.7029861 -1.0183012
3.1142242 -1.661929 -1.0199677
3.1152685 -1.6106311 -1.0220497
3.1163127 -1.5593569 -1.0241308
3.1173558 -1.5081095 -1.0262108
3.1183994 -1.4568856 -1.0282898
3.1194422 -1.4056885 -1.0303677
3.1204841 -1.3545151 -1.0324447
3.1213174 -1.3135951 -1.0341054
3.1223588 -1.2624686 -1.0361805
3.1233993 -1.2113655 -1.0382546
3.1244395 -1.1602893 -1.0403277
3.125479 -1.1092364 -1.0423998
3.1265178 -1.0582101 -1.0444708
3.1275568 -1.0072075 -1.0465409
3.1285946 -0.95623147 -1.0486099
4.3695884 -0.98093003 -1.0494055
3.1296325 -0.9052788 -1.0506779
4.1365795 -0.93261075 -1.0457203
4.2551808 -0.94205564 -1.0495738
4.3817077 -0.95213169 -1.0536847
3.1306701 -0.85435277 -1.0527449
4.035326 -0.89734697 -1.0459814
4.1473427 -0.90541333 -1.0497324
4.266623 -0.91400278 -1.0537267
4.4000273 -0.90860236 -1.060153
3.1317065 -0.80345005 -1.0548109
3.132535 -0.76274651 -1.056463
3.1335707 -0.7118904 -1.058527
3.1346061 -0.66105753 -1.0605901
3.1356411 -0.61025125 -1.0626523
3.1366749 -0.55946827 -1.0647135
3.1377084 -0.50871164 -1.0667734
3.1387417 -0.4579784 -1.0688326
3.1397746 -0.40727156 -1.0708908
3.1408067 -0.35658789 -1.0729479
3.1418383 -0.3059307 -1.0750039
3.1428692 -0.25529665 -1.0770591
3.1436939 -0.21480775 -1.0787023
3.1165905 -2.2341423 -0.96063566
3.1050692 -2.1956325 -0.957605
3.157356 -2.2156363 -0.95540684
3.1993463 -2.1965735 -0.95002055
3.3834879 -2.2332044 -0.96914363
3.4326952 -2.2128253 -0.96352828
3.7694874 -2.2093868 -0.97346246
3.1063442 -2.154037 -0.94912237
3.2426188 -2.1769292 -0.94446999
3.2872322 -2.1566763 -0.93874747
3.483532 -2.1917706 -0.95772696
3.536082 -2.1700068 -0.95173031
3.5904326 -2.1474972 -0.94552797
3.8323159 -2.1858759 -0.96718514
3.897506 -2.1614814 -0.96067178
4.1908913 -2.2050848 -0.98589242
4.2705464 -2.1784697 -0.97906876
3.1084394 -2.1058114 -0.94706178
3.3332503 -2.1357851 -0.9328447
3.3807404 -2.1142259 -0.92675298
3.646678 -2.1242027 -0.93910939
3.9651935 -2.136152 -0.95390886
4.3535895 -2.150723 -0.97195506
3.108443 -2.050936 -0.95333195
4.0355253 -2.1098337 -0.94688183
3.1092813 -2.0097237 -0.95501459
3.1103292 -1.9582324 -0.95711684
3.1113765 -1.906765 -0.95921832
3.1124234 -1.8553247 -0.96131867
3.1134701 -1.8039081 -0.96341801
3.114516 -1.7525185 -0.96551633
3.1155617 -1.7011524 -0.96761352
3.1163974 -1.6600785 -0.96929067
3.1174419 -1.6087598 -0.97138613
3.1184862 -1.5574646 -0.9734804
4.3880234 -1.5836415 -0.97151506
3.1195295 -1.5061964 -0.97557372
4.1409602 -1.524194 -0.96867877
4.2662377 -1.5396885 -0.97202927
4.4064922 -1.542567 -0.97766924
3.1205726 -1.4549518 -0.97766614
4.0389667 -1.4721489 -0.9710983
4.1572533 -1.4854779 -0.97443175
4.2835984 -1.499753 -0.97798723
4.2952585 -1.4729296 -0.98198891
4.4251041 -1.5011736 -0.9838711
3.1216152 -1.403734 -0.97975731
3.7384491 -1.4021542 -0.96734744
3.8328388 -1.4241388 -0.96852541
3.937685 -1.4351848 -0.97157997
4.0543971 -1.4343156 -0.97669899
4.1791749 -1.4333866 -0.98217207
4.3069854 -1.4459548 -0.98601323
4.4376087 -1.4733634 -0.98803782
3.1226571 -1.3525397 -0.98184764
3.4845903 -1.3430269 -0.9641791
3.5647142 -1.3616889 -0.96517915
3.653327 -1.3700514 -0.96788776
3.7514875 -1.3672643 -0.97246146
3.8420022 -1.400299 -0.9720307
3.8512113 -1.3763405 -0.97555345
3.9571691 -1.3859521 -0.97884291
4.0751538 -1.3834254 -0.98423266
4.2013369 -1.3807232 -0.98999733
4.324708 -1.4051863 -0.99209541
3.1234903 -1.3116031 -0.9835192
3.2673056 -1.2924182 -0.96146739
3.3395481 -1.2981788 -0.96381354
3.4120507 -1.3147857 -0.964755
3.4920285 -1.3214796 -0.9673112
3.4994996 -1.2998362 -0.97045708
3.5764611 -1.3285208 -0.97001302
3.6698673 -1.324566 -0.97453535
3.7690122 -1.3203681 -0.97933531
3.8651171 -1.3401632 -0.98087269
3.9768536 -1.3362111 -0.98618066
4.0908599 -1.3449191 -0.98993325
4.1014056 -1.3190656 -0.99376076
4.2181106 -1.3408633 -0.99592018
4.3425651 -1.3641084 -0.99822378
4.3545609 -1.3365148 -1.0023404
3.128897 -1.2585739 -0.97951782
3.2078474 -1.2574495 -0.9634825
3.2769976 -1.2622321 -0.96582377
3.3531206 -1.2568884 -0.96978617
3.4262826 -1.2725205 -0.97088301
3.5107734 -1.2671773 -0.97520417
3.592243 -1.2839581 -0.97650743
3.6041703 -1.2502792 -0.98141569
3.686564 -1.27865 -0.98124552
3.7867081 -1.2730143 -0.98627621
3.8838131 -1.2915231 -0.98802441
3.9917455 -1.2985837 -0.99173164
4.0017414 -1.2733251 -0.99545777
4.1173363 -1.2800078 -0.99954283
4.2350402 -1.3006356 -1.0018979
4.3726916 -1.2948077 -1.0085626
3.125572 -1.2093321 -0.98769492
3.1568325 -1.2045929 -0.96819496
3.2233732 -1.2079799 -0.97060663
3.2932858 -1.2115035 -0.97314495
3.3668084 -1.215246 -0.97580945
3.4406388 -1.2298857 -0.97706461
3.4514842 -1.1976761 -0.98173469
3.5259178 -1.2233059 -0.98158103
3.6161902 -1.2163408 -0.9863618
3.7034194 -1.2322974 -0.98801976
3.8045771 -1.2251961 -0.99328512
3.8979533 -1.2547368 -0.99343324
3.907443 -1.2300473 -0.9970634
4.01684 -1.2351737 -1.0010859
4.1333814 -1.2406697 -1.0053666
4.2578225 -1.2465011 -1.0099422
4.3909616 -1.2527801 -1.0148326
3.1266119 -1.1582351 -0.98978126
3.1718071 -1.1558096 -0.97520578
3.239068 -1.1579728 -0.977808
3.3097324 -1.1602809 -0.9805373
3.3840895 -1.1626723 -0.98341405
3.46241 -1.1652303 -0.98643911
3.5411985 -1.1790382 -0.98801547
3.5527461 -1.145587 -0.99287778
3.6323402 -1.1707387 -0.99300772
3.7204361 -1.1855019 -0.9948585
3.8226228 -1.1769068 -1.0003631
3.9217749 -1.1927626 -1.0025456
4.037147 -1.1838608 -1.0086557
4.1441555 -1.2142558 -1.0092769
4.1549873 -1.1876988 -1.0132085
4.2808599 -1.1917605 -1.0180764
4.4094081 -1.2103472 -1.0211631
3.1276515 -1.1071615 -0.99186671
3.1869414 -1.1065068 -0.98229122
3.2517264 -1.1176404 -0.98361629
3.2580986 -1.0973364 -0.98654026
3.3230188 -1.1189018 -0.98650908
3.3980329 -1.1202515 -0.98954999
3.4050546 -1.0988889 -0.99264002
3.4770842 -1.1216502 -0.99275768
3.5643809 -1.1118821 -0.99777681
3.6486413 -1.1247108 -0.99971575
3.7419455 -1.1263511 -1.0035032
3.8408468 -1.1281395 -1.0075113
3.9410453 -1.1426271 -1.0099171
4.0576682 -1.1320071 -1.0163051
4.1713538 -1.1475744 -1.0191486
4.2982998 -1.150321 -1.0242344
4.3100138 -1.1224868 -1.0283704
4.4342432 -1.1532214 -1.0296859
3.1325214 -1.056761 -0.99533212
3.2022176 -1.0567422 -0.98944318
3.2677095 -1.0667135 -0.99095011
3.3397894 -1.0666689 -0.99404734
3.4156485 -1.0666598 -0.99730188
3.4956176 -1.0666103 -1.000738
3.5800123 -1.0666001 -1.0043586
3.6650953 -1.0782509 -1.0064868
3.7636974 -1.0665333 -1.0122451
3.859252 -1.0788867 -1.0147305
3.9605141 -1.0919778 -1.0173644
4.0784068 -1.0796044 -1.0240357
4.1933737 -1.0935879 -1.0271407
4.321794 -1.0944955 -1.0325298
4.4530506 -1.1099598 -1.0361401
3.1404099 -1.0067202 -0.99989104
3.2176576 -1.006442 -0.99667197
3.2838602 -1.0152532 -0.99836087
3.3533199 -1.024529 -1.0001287
3.3601329 -1.0033102 -1.0031911
3.4298756 -1.0233765 -1.0035626
3.5143442 -1.0109966 -1.0088013
3.5957873 -1.0209026 -1.011001
3.6817045 -1.031353 -1.0133214
3.7812965 -1.0181366 -1.0193181
3.8778415 -1.0291414 -1.0220219
3.9801831 -1.040807 -1.0248882
4.0940981 -1.0399542 -1.0298848
4.2156358 -1.039008 -1.0352207
4.3395977 -1.0521905 -1.0388161
3.130332 -0.95452225 -1.0082196
3.1664207 -0.95834512 -1.0007535
3.2332447 -0.95566607 -1.0039692
3.3001673 -0.96329439 -1.0058434
3.3704109 -0.9713012 -1.0078107
3.4478407 -0.96872044 -1.0114683
3.5294828 -0.9660399 -1.0153197
3.6117072 -0.97478408 -1.0177045
3.6984706 -0.98401088 -1.020221
3.799067 -0.96926737 -1.0264599
3.8966181 -0.9788962 -1.0293866
4.0000558 -0.98910606 -1.0324899
4.1046333 -1.013333 -1.033812
4.1152258 -0.9865694 -1.0377604
4.2324858 -0.99769711 -1.0413365
4.3575377 -1.0095642 -1.0451504
3.1313701 -0.90355319 -1.0102983
3.181453 -0.90830469 -1.0079309
3.245832 -0.91465938 -1.0098624
3.3166566 -0.91075695 -1.0134093
3.3876865 -0.91749603 -1.0155758
3.4659903 -0.9135043 -1.0194552
3.5447569 -0.92067778 -1.0218967
3.6277747 -0.92823827 -1.02447
3.7153969 -0.9362182 -1.0271862
3.8170121 -0.91991854 -1.033672
3.9155843 -0.92814338 -1.0368258
4.0201354 -0.93686712 -1.0401707
4.125874 -0.95966244 -1.0417297
4.2438021 -0.96995336 -1.0454439
3.1332588 -0.8473497 -1.0077318
3.1935911 -0.86789948 -1.0137264
3.2553368 -0.88369513 -1.0143123
3.2617083 -0.86293977 -1.0172952
3.3299577 -0.86837488 -1.0195127
3.4051359 -0.86315089 -1.0234188
3.4806592 -0.8688767 -1.0259104
3.5562994 -0.88639975 -1.0268668
3.5640409 -0.86340964 -1.0302
3.6439915 -0.88125956 -1.0312985
3.7324846 -0.88796854 -1.034218
3.8305809 -0.88260329 -1.0391254
3.9299288 -0.88975734 -1.0424522
3.1338782 -0.80125177 -1.0043572
3.1347072 -0.76053178 -1.0060198
3.1357427 -0.70965517 -1.0080973
3.1367776 -0.65880179 -1.0101736
3.1378121 -0.60797507 -1.0122489
3.1388462 -0.55717158 -1.0143232
3.1398797 -0.50639462 -1.0163965
3.140913 -0.45564088 -1.0184689
3.1419458 -0.40491372 -1.0205401
3.1429777 -0.35420963 -1.0226104
3.1440091 -0.30353209 -1.0246795
3.1450403 -0.25287768 -1.0267479
3.1458647 -0.21237266 -1.0284017
3.1089089 -2.0911589 -0.92115468
3.155354 -2.1057706 -0.91628081
3.1972136 -2.0851068 -0.91032094
3.4297743 -2.0919664 -0.9204635
3.7049193 -2.1000819 -0.93246329
3.1101835 -2.049582 -0.91267747
3.2403476 -2.0638132 -0.90417951
3.2848153 -2.0418615 -0.89784825
3.4804285 -2.0689709 -0.91396606
3.532784 -2.0452027 -0.90725029
3.7652645 -2.0750895 -0.92557698
4.1086583 -2.0824666 -0.9395749
3.1115792 -2.0080798 -0.90424085
3.153362 -1.9964253 -0.87734014
3.3306792 -2.0192208 -0.89131814
3.3780067 -1.9958575 -0.88457984
3.5869288 -2.0206223 -0.90030497
3.6429565 -1.9951878 -0.89311838
3.8278294 -2.0491781 -0.91843724
3.8927393 -2.022295 -0.91102999
4.1847639 -2.053987 -0.93197083
4.2640271 -2.0243263 -0.9240514
3.1125047 -1.956502 -0.90631723
3.5343082 -1.9484484 -0.88727587
3.6257727 -1.9628627 -0.88931727
3.7228131 -1.9781557 -0.89148295
3.7314596 -1.9563062 -0.89470607
3.8351321 -1.9719127 -0.89711535
3.9577446 -1.979808 -0.90324217
4.0738559 -1.9822322 -0.90600729
4.2118506 -1.975453 -0.91281086
4.3485875 -1.9941081 -0.91624045
3.1135523 -1.9050136 -0.90843213
3.2955406 -1.8906848 -0.88457566
3.3732283 -1.9023795 -0.88638103
3.4589381 -1.9046296 -0.88976353
3.5459054 -1.9174136 -0.89182472
3.6421494 -1.9202549 -0.89558178
3.7445133 -1.9233203 -0.89957201
3.8536372 -1.9265417 -0.9038319
3.9701731 -1.9300317 -0.90837473
4.0896459 -1.945909 -0.91142619
4.2231398 -1.9503464 -0.91657257
4.2344913 -1.9251003 -0.92035514
4.3667607 -1.9550837 -0.92211425
3.1145995 -1.853552 -0.91054571
3.1609113 -1.8416468 -0.88520336
3.2281628 -1.860891 -0.88557529
3.2344871 -1.8421111 -0.88829821
3.3054833 -1.8618792 -0.88876247
3.3872039 -1.8629162 -0.8921321
3.4736936 -1.8640507 -0.89569366
3.5654109 -1.8652145 -0.89947551
3.6628137 -1.866492 -0.90348643
3.7620592 -1.8789821 -0.90611261
3.8722975 -1.8807906 -0.91060472
3.881706 -1.8577228 -0.91401964
3.9900944 -1.8826928 -0.91540879
4.110889 -1.8970439 -0.91871625
4.2516456 -1.8869488 -0.92607135
4.3912263 -1.9025493 -0.93002146
3.1156461 -1.8021145 -0.91265863
3.1730063 -1.8048495 -0.89052606
3.2472205 -1.8042938 -0.8937813
3.322196 -1.8134642 -0.89579964
3.404825 -1.8131584 -0.89938337
3.4923301 -1.8127973 -0.9031837
3.5851259 -1.8124541 -0.90720856
3.6753294 -1.8339283 -0.90827405
3.6837265 -1.8120819 -0.91148615
3.775326 -1.8454576 -0.91105807
3.7842278 -1.8229618 -0.91437644
3.8959138 -1.8228873 -0.91917646
4.0102243 -1.834859 -0.92251658
4.1269636 -1.8600655 -0.92423308
4.1377583 -1.8352349 -0.92793745
4.2747326 -1.835604 -0.93376422
4.4159765 -1.8494028 -0.93802094
3.1178479 -1.7512019 -0.91514963
3.1821387 -1.7770666 -0.89454466
3.1913321 -1.7490971 -0.89859027
3.2632701 -1.756631 -0.90069199
3.3390744 -1.7645698 -0.90290654
3.4226515 -1.7628207 -0.90671933
3.5111623 -1.7610066 -0.9107523
3.6010683 -1.7697899 -0.9134618
3.6964016 -1.7791036 -0.91633487
3.8021789 -1.777601 -0.92106789
3.9150186 -1.7760462 -0.92611068
4.025454 -1.7986698 -0.927894
4.0356774 -1.7743742 -0.93150395
4.154067 -1.7977191 -0.93353426
4.2980795 -1.7836788 -0.94154406
3.120198 -1.702647 -0.9217363
3.1376874 -1.6961077 -0.90320724
3.2067792 -1.7021033 -0.9053877
3.2762337 -1.7181313 -0.90627402
3.2860243 -1.6890562 -0.91048962
3.3561447 -1.7151182 -0.9100945
3.4406617 -1.7119676 -0.91413045
3.5263865 -1.7191371 -0.91687101
3.6171594 -1.7267292 -0.91977328
3.7177305 -1.7236121 -0.92449367
3.8248396 -1.7203382 -0.92951506
3.9294693 -1.7406162 -0.9313556
3.9391687 -1.716835 -0.93487608
4.0511222 -1.737674 -0.93695736
4.1760106 -1.7472419 -0.94106495
4.3157554 -1.744367 -0.94743395
3.1181374 -1.658597 -0.92871755
3.1495748 -1.6590849 -0.90855044
3.2223728 -1.6546631 -0.91224974
3.2958827 -1.6597785 -0.9147346
3.3733861 -1.6651717 -0.9173544
3.4552178 -1.6708663 -0.92012048
3.54562 -1.6662455 -0.92460084
3.6293213 -1.6941824 -0.92454362
3.641578 -1.6613812 -0.92935133
3.7349579 -1.6787913 -0.93108362
3.7436407 -1.6562003 -0.93440497
3.8431787 -1.6739957 -0.93635124
3.9538176 -1.6809187 -0.940193
4.071897 -1.6883068 -0.9442929
4.198195 -1.6962095 -0.94867826
4.3276286 -1.7179604 -0.95139039
4.33957 -1.6914033 -0.95536947
3.1191823 -1.6072615 -0.93082368
3.167572 -1.6030333 -0.91663975
3.2318046 -1.6259668 -0.91640049
3.2413018 -1.5970743 -0.92057967
3.3124521 -1.6105722 -0.92186898
3.3838205 -1.6349461 -0.92174786
3.3943293 -1.6045024 -0.92617285
3.4736016 -1.6189575 -0.92768556
3.5650585 -1.6127899 -0.93241304
3.6580496 -1.6173037 -0.93581188
3.7567494 -1.6220946 -0.93941951
3.8617013 -1.6271895 -0.94325596
3.9735174 -1.6326175 -0.94734323
4.0928941 -1.6384124 -0.95170683
4.2206249 -1.6446128 -0.9563759
4.3576188 -1.6512628 -0.96138352
3.1202259 -1.5559497 -0.9329288
3.18273 -1.5558248 -0.92345285
3.2540512 -1.5582871 -0.92619014
3.3291838 -1.5608811 -0.92907369
3.4084425 -1.5636177 -0.93211561
3.4884396 -1.5770606 -0.93379152
3.4959137 -1.5559564 -0.93686712
3.5807755 -1.5695674 -0.93872976
3.6746764 -1.5728092 -0.94233358
3.77437 -1.5762511 -0.94615984
3.8804104 -1.5799125 -0.95023006
3.9934225 -1.5838145 -0.95456785
4.1141167 -1.5879817 -0.9592005
4.2376032 -1.6055573 -0.96220243
4.2490058 -1.5793272 -0.96611571
4.3758059 -1.6108146 -0.96744394
3.1251898 -1.5059955 -0.93636239
3.198051 -1.5081086 -0.93033916
3.2701414 -1.509335 -0.93327081
3.3393085 -1.5308141 -0.93343318
3.3495045 -1.5005339 -0.93782341
3.4262638 -1.5119909 -0.93961966
3.5071919 -1.5241106 -0.94150823
3.5966377 -1.5259461 -0.94510466
3.6872456 -1.5391748 -0.94726366
3.6956782 -1.5166095 -0.95057118
3.7876935 -1.5415884 -0.95125651
3.796634 -1.5183289 -0.95467639
3.8993087 -1.5321577 -0.95727462
4.0135355 -1.534502 -0.96186787
4.1301765 -1.5498192 -0.96487105
3.1283584 -1.4589994 -0.94250023
3.1502249 -1.4410496 -0.93704247
3.213516 -1.4599419 -0.93729049
3.2863882 -1.4599085 -0.94042009
3.3631961 -1.4598732 -0.94371879
3.4406464 -1.4703279 -0.94567561
3.4478898 -1.4493439 -0.9487257
3.5261588 -1.4705558 -0.94931322
3.6166801 -1.4708292 -0.95315969
3.7084072 -1.4825461 -0.9555639
3.8101327 -1.4832106 -0.95984
3.9183991 -1.4839175 -0.96439093
4.0287514 -1.4971945 -0.96739054
3.1229198 -1.4025604 -0.94937098
3.162174 -1.402976 -0.94252539
3.2291496 -1.4112523 -0.94431734
3.3028157 -1.4099311 -0.94764912
3.3770051 -1.4188638 -0.94966477
3.4588192 -1.4176831 -0.95332766
3.5414693 -1.4273241 -0.95561355
3.5491827 -1.405545 -0.95878774
3.6369414 -1.4151125 -0.96130246
3.7255158 -1.4367652 -0.96227437
3.8237207 -1.447861 -0.96503752
3.1239617 -1.3513536 -0.95146936
3.1772499 -1.3549407 -0.94944286
3.2417586 -1.3719823 -0.94998473
3.248106 -1.3522135 -0.95283771
3.3194039 -1.3594642 -0.95494896
3.3909323 -1.3775015 -0.95566183
3.4014537 -1.3462564 -0.96019208
3.4734991 -1.3751571 -0.95950896
3.5569308 -1.3836668 -0.96197617
3.1283517 -1.3010421 -0.95473754
3.192467 -1.3064559 -0.95642525
3.2576795 -1.3223977 -0.9571408
3.3294408 -1.3289289 -0.95936573
3.1349952 -0.83005154 -0.96270943
3.1360519 -0.79905146 -0.95385903
3.1368806 -0.75831509 -0.95553219
3.1379163 -0.70741791 -0.95762289
3.1389511 -0.65654409 -0.95971239
3.139986 -0.60569686 -0.96180105
3.1410201 -0.55487287 -0.96388865
3.1420531 -0.50407553 -0.96597511
3.1430864 -0.45330134 -0.96806073
3.1441183 -0.40255368 -0.97014505
3.1451502 -0.35182935 -0.97222859
3.1461816 -0.30113137 -0.97431099
3.1472127 -0.25045663 -0.97639233
3.1480367 -0.20993537 -0.97805679
3.1486549 -0.17955434 -0.97930467
3.1222565 -1.9592457 -0.86819333
3.1281383 -1.9413514 -0.87078154
3.1983821 -1.9543579 -0.87257761
3.2725925 -1.957166 -0.87491286
3.3559437 -1.9511881 -0.87926817
3.4370487 -1.9648281 -0.88096619
3.526624 -1.9690136 -0.88426179
3.1399796 -1.905326 -0.87599254
3.2124696 -1.9074968 -0.87881798
3.2856667 -1.9192899 -0.88041806
3.3662908 -1.9219701 -0.88352621
3.4479532 -1.9348395 -0.88534862
3.1518996 -1.8690619 -0.88123786
3.2218649 -1.879594 -0.88286352
3.1382275 -0.79684949 -0.90332168
3.1390562 -0.75609666 -0.90500557
3.1400917 -0.70517898 -0.90710938
3.1411264 -0.6542846 -0.90921223
3.1421611 -0.60341686 -0.91131407
3.1431949 -0.55257243 -0.91341507
3.144228 -0.50175452 -0.91551471
3.1452608 -0.45096001 -0.91761351
3.1462932 -0.40019196 -0.91971105
3.1473253 -0.34944719 -0.92180783
3.1483562 -0.29872891 -0.92390335
3.1493874 -0.24803376 -0.92599803
3.1502113 -0.20749626 -0.92767304
3.1508296 -0.17710295 -0.92892879
3.1404047 -0.79464555 -0.85273963
3.1412337 -0.75387627 -0.85443425
3.1422684 -0.70293802 -0.85655129
3.1433041 -0.65202314 -0.85866755
3.1443377 -0.6011349 -0.86078262
3.1453717 -0.55026996 -0.86289674
3.1464047 -0.49943161 -0.86500967
3.1474378 -0.44861662 -0.8671217
3.1484694 -0.3978281 -0.86923265
3.1495013 -0.34706292 -0.87134254
3.1505327 -0.29632422 -0.87345147
3.1515632 -0.24560875 -0.87555933
3.1523874 -0.20505491 -0.87724477
3.1530051 -0.17464945 -0.87850857
3.1425838 -0.79243994 -0.80211848
4.3256154 -0.81814843 -0.80678236
3.1434126 -0.75165421 -0.80382377
4.1638875 -0.78206545 -0.80349654
4.3362355 -0.78923106 -0.81007224
3.1444478 -0.7006954 -0.80595416
4.0243039 -0.72217721 -0.8034851
4.1785827 -0.74032801 -0.80821824
4.352272 -0.74556315 -0.81504029
3.1454825 -0.64975989 -0.80808365
3.8908067 -0.67964089 -0.80202579
4.0379496 -0.68183619 -0.8080253
4.1983352 -0.68422902 -0.8145647
4.3684173 -0.70160067 -0.82004195
4.3792539 -0.67209399 -0.82339883
3.1465166 -0.59885114 -0.81021202
3.6557233 -0.59149879 -0.80075634
3.7670629 -0.64024299 -0.80067021
3.7749286 -0.61518282 -0.80346471
3.9077246 -0.62767363 -0.80784661
4.056284 -0.62763089 -0.81412584
4.2182794 -0.62758428 -0.82097286
4.3901448 -0.64243716 -0.82677287
3.1475503 -0.54796565 -0.81233937
3.5517628 -0.54598576 -0.80083656
3.6667848 -0.55499804 -0.80480981
3.7867942 -0.57737678 -0.80768049
3.9205077 -0.58840758 -0.81224465
3.929081 -0.56207365 -0.81519431
4.0701423 -0.58666062 -0.81873679
4.0794387 -0.55917668 -0.82182997
4.2333593 -0.58475518 -0.82581806
4.4065938 -0.5976488 -0.83186841
3.1485832 -0.49710688 -0.81446564
3.3571265 -0.48563492 -0.79854429
3.4544725 -0.50339293 -0.80091166
3.5621443 -0.51056194 -0.80475545
3.6816356 -0.50599265 -0.81025189
3.8027279 -0.52660578 -0.81334174
3.9420168 -0.52233559 -0.81964511
4.088779 -0.53156376 -0.82493758
4.2485619 -0.54157615 -0.8307029
4.4231539 -0.55255431 -0.83699876
4.4342709 -0.52228528 -0.84044248
3.1496158 -0.44627136 -0.81659091
3.2717249 -0.44749877 -0.79868358
3.3662944 -0.45231271 -0.8022055
3.4675081 -0.45745662 -0.8059755
3.5725808 -0.47494841 -0.80869532
3.5795755 -0.45107859 -0.81133598
3.6966107 -0.45657766 -0.81573951
3.8187995 -0.47539419 -0.81905216
3.9593942 -0.46895218 -0.82562405
4.1028767 -0.4898842 -0.82962841
4.2689991 -0.48353148 -0.83726943
4.4454441 -0.49186027 -0.84390396
3.1506479 -0.39546242 -0.81871516
3.1940403 -0.40108114 -0.79996264
3.2774899 -0.42591125 -0.80104816
3.2861795 -0.39337271 -0.80461222
3.3755078 -0.41882348 -0.80588496
3.3816814 -0.39638516 -0.80835032
3.480628 -0.41122216 -0.81107217
3.4872308 -0.38795456 -0.8136372
3.5901251 -0.41508093 -0.81531841
3.7117116 -0.40674785 -0.82127315
3.8350117 -0.42373627 -0.82481241
3.9725254 -0.42861205 -0.83014214
3.9813328 -0.40155566 -0.83317244
4.1218204 -0.43387321 -0.8359316
4.2844524 -0.43963957 -0.84223485
4.4623199 -0.44590771 -0.84913188
3.1516795 -0.34467679 -0.82083833
3.207741 -0.34828532 -0.80572861
3.2978363 -0.34972349 -0.80939305
3.3909881 -0.3625581 -0.81206691
3.4971864 -0.35287085 -0.8175047
3.6042855 -0.36675957 -0.82066411
3.7269392 -0.35649812 -0.82685339
3.8513653 -0.3716262 -0.83062297
3.99018 -0.37437594 -0.83621645
4.140944 -0.37732974 -0.84229481
4.3000331 -0.3953847 -0.8472411
4.4793124 -0.39963698 -0.8543961
3.1527104 -0.29391772 -0.82296038
3.2215555 -0.2950516 -0.81154233
3.3095789 -0.30575383 -0.8142091
3.4066172 -0.30575138 -0.81830835
3.5105481 -0.30578598 -0.8226952
3.6185615 -0.3180446 -0.82605338
3.7384408 -0.31854534 -0.83106804
3.8678634 -0.31905797 -0.83648473
4.0035324 -0.33335766 -0.84081066
4.1554008 -0.33458519 -0.84710515
4.3209796 -0.33588779 -0.85397142
3.1537414 -0.24318177 -0.82508153
3.2326989 -0.25211012 -0.81623209
3.3214076 -0.26146033 -0.8190605
3.4223852 -0.24843907 -0.82460529
3.5240142 -0.25832945 -0.82792658
3.6293414 -0.28125978 -0.83012283
3.6365674 -0.25660282 -0.83285058
3.7500238 -0.28032419 -0.83531255
3.8803272 -0.27934209 -0.84091324
3.8886859 -0.25270882 -0.84388304
4.0214715 -0.27824777 -0.84698284
4.1699724 -0.29149944 -0.8519538
4.3368196 -0.2908932 -0.85906112
3.1570549 -0.2022354 -0.82751054
3.243922 -0.20886114 -0.82095528
3.3333237 -0.21683916 -0.82394785
3.3423166 -0.18316659 -0.82763612
3.4319186 -0.21378878 -0.82841241
3.4383063 -0.19057065 -0.83096343
3.5341811 -0.22250241 -0.83187598
3.5409949 -0.19849139 -0.8345229
3.6474655 -0.21941477 -0.83696461
3.7655768 -0.22900084 -0.841012
3.9012976 -0.21252263 -0.848364
4.0350294 -0.23659807 -0.85164762
4.0441236 -0.20866048 -0.85477662
4.1846375 -0.24813783 -0.85683346
4.1944776 -0.21904451 -0.8601076
4.3527927 -0.24552178 -0.86419368
3.1613588 -0.171202 -0.82986921
3.2523901 -0.17623019 -0.82451904
3.5478356 -0.17438489 -0.83718038
3.6584232 -0.18202257 -0.84110129
3.7773247 -0.19023439 -0.84531713
4.2043648 -0.18981069 -0.86339754
4.3688731 -0.19984537 -0.86936069
3.1438923 -0.79111564 -0.77172565
3.1795344 -0.79270732 -0.76087278
3.2740016 -0.78776401 -0.76534873
3.372191 -0.7933436 -0.76894796
3.4775162 -0.79932868 -0.77280867
3.5907853 -0.80576515 -0.77696061
3.7129321 -0.81270611 -0.78143793
3.9973054 -0.80199599 -0.7945019
4.1541529 -0.80971265 -0.80036885
3.1447206 -0.75032002 -0.77343726
3.1904233 -0.75193483 -0.76533866
3.2827079 -0.75612271 -0.76882547
3.3814821 -0.7606051 -0.7725572
3.4874561 -0.76541424 -0.77656084
3.6014469 -0.77058709 -0.78086734
3.7244008 -0.77616662 -0.78551269
3.8574171 -0.78220278 -0.79053795
4.0062633 -0.77551198 -0.79748255
3.145756 -0.69934887 -0.77557576
3.2041469 -0.70054686 -0.77096725
3.2973235 -0.70299971 -0.77466208
3.3970845 -0.70562589 -0.77861822
3.5041535 -0.70844436 -0.78286386
3.6157596 -0.72336352 -0.78611195
3.7398002 -0.7271024 -0.79098403
3.8698642 -0.74396855 -0.79482055
3.8782117 -0.71832865 -0.79769254
4.0152631 -0.74890602 -0.80047703
3.1467907 -0.64840108 -0.77771318
3.2179842 -0.64873147 -0.77664262
3.3120646 -0.64941978 -0.78054905
3.4128251 -0.65015692 -0.78473294
3.5176156 -0.66250819 -0.78794587
3.5243907 -0.63938838 -0.7905035
3.6338217 -0.66376805 -0.79273063
3.7553315 -0.67761958 -0.79650211
3.1478651 -0.59747964 -0.77986079
3.2319543 -0.59642106 -0.78237218
3.3209748 -0.61703414 -0.78410721
3.3269446 -0.59533715 -0.78649122
3.4223418 -0.61662078 -0.7884298
3.4287186 -0.59414899 -0.79090697
3.5346079 -0.60452485 -0.79436052
3.6483896 -0.61569887 -0.79806888
3.1563237 -0.54642206 -0.7840898
3.2460413 -0.54367173 -0.78814983
3.3389573 -0.55167383 -0.79128855
3.4383333 -0.56026828 -0.79464185
3.5448792 -0.56947607 -0.79823792
3.1696918 -0.49490783 -0.78971571
3.2574058 -0.50111675 -0.79281092
3.3510449 -0.50773919 -0.79611564
3.4479971 -0.52621323 -0.79839605
3.1831694 -0.44297171 -0.7953878
3.2659807 -0.46900806 -0.79632777
4.4036169 -0.54667842 -0.023553258
4.4513321 -0.57617873 -0.022078214
4.3116202 -0.48980033 -0.026397211
4.3570604 -0.51789427 -0.024992494
3.6535108 -0.41164958 -0.0076281484
4.2239323 -0.43558648 -0.029107956
4.2672563 -0.46237224 -0.027768647
3.5934973 -0.36815482 -0.010243943
3.623209 -0.38968867 -0.0089488905
4.1402578 -0.38385397 -0.031694628
4.1816106 -0.40942085 -0.030416263
3.5217516 -0.31615713 -0.013371093
3.5643573 -0.34703574 -0.011514051
4.0603275 -0.33443627 -0.034165569
4.0998406 -0.35886556 -0.032944076
3.4266901 -0.24726135 -0.017514518
3.4667068 -0.2762633 -0.015770329
3.9469199 -0.26432106 -0.037671387
3.9838951 -0.28718138 -0.036528349
4.0216885 -0.31054738 -0.035360023
3.387881 -0.21913418 -0.019206097
3.8753195 -0.22005358 -0.039884798
3.9107366 -0.2419503 -0.038789943
3.301116 -0.15625125 -0.022987885
3.3376694 -0.18274346 -0.021394638
3.823668 -0.18811941 -0.04148154
4.4862132 -0.1830022 -0.070343547
3.23106 -0.10547829 -0.026041402
3.2773135 -0.13900018 -0.024025371
3.7248881 -0.12704808 -0.044535168
3.7734332 -0.15706113 -0.043034479
4.3905687 -0.13399214 -0.072095893
4.4378004 -0.15819433 -0.071230546
3.1912711 -0.061735153 -0.028459927
3.6319261 -0.069573045 -0.047408968
3.6776354 -0.097833514 -0.045995913
4.2994823 -0.087317407 -0.073764734
4.3444767 -0.11037332 -0.072940364
3.1918874 -0.03115344 -0.029857425
3.5873971 -0.042042851 -0.0487855
4.2340913 -0.053809762 -0.074962795
3.6516225 -1.0737654 0.071243472
4.0412183 -1.0650501 0.053587072
4.0805616 -1.0977824 0.055803858
3.5765016 -1.0031601 0.066046014
3.6060767 -1.0309575 0.068092249
4.0027456 -1.0330428 0.05141937
3.2193646 -0.9555974 0.075620793
