# .PCD v0.7 - Point Cloud Data file format
VERSION 0.7
FIELDS x y z
SIZE 4 4 4
TYPE F F F
COUNT 1 1 1
WIDTH 1479
HEIGHT 1
VIEWPOINT 0 0 0 1 0 0 0
POINTS 1479
DATA ascii
3.0190022 -1.6196685 -0.70657623
3.0203891 -1.5821208 -0.71183479
3.0217764 -1.5445725 -0.71709347
3.0236256 -1.4945071 -0.724105
3.0254753 -1.4444406 -0.73111677
3.0273249 -1.3943729 -0.73812866
3.0291743 -1.3443043 -0.74514067
3.031024 -1.2942345 -0.75215292
3.0328734 -1.2441638 -0.75916517
3.034723 -1.1940918 -0.76617777
3.0365729 -1.1440188 -0.77319038
3.0384223 -1.0939447 -0.78020334
3.0402725 -1.0438695 -0.78721631
3.0421221 -0.99379319 -0.79422939
3.0439718 -0.94371581 -0.80124271
3.0458217 -0.8936373 -0.80825603
3.0476718 -0.84355783 -0.81526971
3.0495217 -0.79347712 -0.82228339
3.0513713 -0.74339533 -0.82929718
3.0532215 -0.69331259 -0.83631122
3.0550716 -0.64322871 -0.84332538
3.056922 -0.5931437 -0.85033977
3.0587721 -0.54305762 -0.85735428
3.0606222 -0.49297053 -0.86436892
3.0624721 -0.44288224 -0.87138355
3.0643227 -0.39279288 -0.87839854
3.0661726 -0.34270245 -0.88541365
3.0680227 -0.29261094 -0.89242899
3.0698733 -0.24251831 -0.89944434
3.0717235 -0.19242465 -0.90645993
3.0735743 -0.14232969 -0.91347563
3.0754247 -0.092233896 -0.92049158
3.077275 -0.042137027 -0.92750752
3.0791256 0.0079610348 -0.93452358
3.0809765 0.05806005 -0.94153988
3.0828271 0.10816038 -0.9485563
3.0846779 0.15826178 -0.95557308
3.086066 0.19583833 -0.9608357
3.0525696 -1.707875 -0.66514122
3.1910312 -1.7264149 -0.67078745
3.4267952 -1.7278123 -0.67087388
3.5988071 -1.7494457 -0.6774466
3.6966951 -1.7294121 -0.67097259
3.0177908 -1.6645091 -0.66201174
3.0610456 -1.6546342 -0.64831483
3.1247785 -1.6898286 -0.65933335
3.2001317 -1.6709962 -0.65327251
3.2693799 -1.7080146 -0.6648587
3.3512886 -1.6887784 -0.65866053
3.4370053 -1.6686475 -0.65217412
3.5161581 -1.7081736 -0.66453731
3.6098683 -1.6875793 -0.65789247
3.0198529 -1.6127038 -0.65650427
3.133575 -1.6354163 -0.64213657
3.2788401 -1.6513255 -0.64694202
3.526803 -1.6475586 -0.64537907
3.0212402 -1.5751548 -0.66176271
3.0226274 -1.537605 -0.66702092
3.0244768 -1.4875379 -0.67403233
3.0263264 -1.4374695 -0.68104374
3.0281758 -1.3874 -0.6880554
3.0300252 -1.3373295 -0.69506717
3.0318747 -1.287258 -0.70207906
3.0337245 -1.2371854 -0.70909107
3.0355744 -1.1871115 -0.71610332
3.0374243 -1.1370367 -0.72311568
3.0392737 -1.0869608 -0.73012817
3.0411239 -1.0368838 -0.73714077
3.0429738 -0.98680568 -0.74415362
3.0448236 -0.93672645 -0.75116658
3.0466733 -0.88664615 -0.75817978
3.0485232 -0.83656478 -0.7651931
3.0503733 -0.78648233 -0.77220643
3.0522234 -0.7363987 -0.7792201
3.0540736 -0.68631411 -0.78623378
3.0559239 -0.63622838 -0.7932477
3.0577738 -0.58614147 -0.80026174
3.0596244 -0.5360536 -0.80727589
3.0614746 -0.4859646 -0.81429029
3.1533074 -0.4745639 -0.79919255
3.2745461 -0.48590469 -0.79925132
3.4047544 -0.49809891 -0.79931188
3.547523 -0.49651521 -0.80186844
3.6991317 -0.51009947 -0.80204129
3.0633245 -0.43587458 -0.82130468
3.1575143 -0.44814289 -0.80365956
3.2812634 -0.44486088 -0.80619335
3.4074123 -0.45643276 -0.80539429
3.5526381 -0.46705312 -0.80685627
3.7073662 -0.4641428 -0.80982578
3.0651746 -0.38578343 -0.82831931
3.0670254 -0.33569115 -0.83533418
3.0688753 -0.28559774 -0.84234905
3.0707259 -0.23550344 -0.84936416
3.0725763 -0.18540788 -0.85637939
3.0744271 -0.13531125 -0.86339486
3.076278 -0.085213423 -0.87041044
3.0781283 -0.035114646 -0.87742615
3.0799789 0.014985204 -0.88444197
3.0818295 0.065086126 -0.89145792
3.0836804 0.11518824 -0.89847422
3.0855315 0.16529119 -0.90549052
3.0869191 0.2028693 -0.91075289
3.0695543 -1.6011924 -0.63142502
3.2092681 -1.6153597 -0.63568878
3.3611319 -1.630759 -0.64032316
3.6209786 -1.6254411 -0.6382525
3.0218782 -1.5699298 -0.6242063
3.1003845 -1.5500411 -0.61926448
3.1424048 -1.580794 -0.62487352
3.2258213 -1.5603215 -0.61956656
3.2883382 -1.5944085 -0.62895322
3.3710163 -1.5725013 -0.62191057
3.4472585 -1.6092345 -0.63339603
3.5374932 -1.586683 -0.62613833
3.0232654 -1.5323792 -0.62946451
3.1065977 -1.5120858 -0.6256845
3.232451 -1.5209725 -0.62622535
3.368006 -1.5305443 -0.62680769
3.5144286 -1.5408833 -0.62743688
3.6730809 -1.552086 -0.62811863
3.025115 -1.4823105 -0.63647556
3.1128256 -1.4740338 -0.63212073
3.2413199 -1.4683342 -0.63513291
3.3774958 -1.4758927 -0.6360606
3.5246124 -1.4840584 -0.63706279
3.6840444 -1.4929075 -0.6381489
3.0269644 -1.4322408 -0.64348686
3.1190732 -1.4358609 -0.63857722
3.2479932 -1.4287251 -0.64183569
3.3846376 -1.4347634 -0.64302409
3.5322781 -1.4412876 -0.64430809
3.6922975 -1.4483588 -0.6456995
3.0288138 -1.3821701 -0.65049827
3.1274297 -1.3848013 -0.64721334
3.2546873 -1.388985 -0.6485604
3.3918037 -1.3934929 -0.65001142
3.5399704 -1.3983639 -0.65157914
3.7005816 -1.4036441 -0.65327835
3.0306635 -1.3320982 -0.6575098
3.1358185 -1.3335459 -0.6558826
3.2613993 -1.3491397 -0.65530288
3.2658861 -1.3225056 -0.65980983
3.401391 -1.338276 -0.65935993
3.5502639 -1.3409275 -0.66130865
3.7116683 -1.343802 -0.66342127
3.0325134 -1.2820252 -0.66452146
3.1442392 -1.2820939 -0.66458511
3.2726331 -1.2824484 -0.66658795
3.4110165 -1.2828306 -0.66874671
3.5606024 -1.2832435 -0.67108011
3.034363 -1.2319512 -0.67153323
3.1526926 -1.230444 -0.67332113
3.2816596 -1.2288612 -0.67565572
3.4182608 -1.2411029 -0.67581117
3.5683825 -1.2398251 -0.67843485
3.0406933 -1.1818827 -0.67960835
3.1611781 -1.1785949 -0.68209076
3.2907224 -1.1750598 -0.68475974
3.4255297 -1.1992309 -0.68290007
3.57619 -1.1962503 -0.68581581
3.0486889 -1.131663 -0.68809891
3.1696966 -1.1265457 -0.69089425
3.2975421 -1.1345741 -0.69161069
3.4352558 -1.1432079 -0.6923846
3.5866377 -1.1379411 -0.69569266
3.0567143 -1.0812557 -0.69662106
3.1782484 -1.074295 -0.69973195
3.3043845 -1.0939529 -0.6984843
3.4450219 -1.0869514 -0.70190871
3.5945015 -1.0940511 -0.70312703
3.0647697 -1.0306599 -0.70517528
3.1868329 -1.0218418 -0.70860374
3.3135383 -1.03961 -0.70767999
3.4523721 -1.0446124 -0.70907664
3.6023941 -1.0500023 -0.71058846
3.0728555 -0.97987443 -0.71376133
3.1932919 -0.98237461 -0.7152791
3.3227293 -0.98504829 -0.71691275
3.459748 -1.0021257 -0.71626961
3.6129558 -0.99105757 -0.72057295
3.0789387 -0.94166625 -0.72022104
3.0830045 -0.91613042 -0.72453833
3.1997728 -0.94277954 -0.72197616
3.3319571 -0.93026626 -0.72618258
3.4696167 -0.945279 -0.72589362
3.6209054 -0.94668841 -0.7280885
3.089118 -0.87773055 -0.73103046
3.2084405 -0.88981479 -0.73093462
3.338901 -0.88904154 -0.73315835
3.4770439 -0.90249497 -0.73313677
3.4820094 -0.87389225 -0.73797917
3.6288846 -0.90215766 -0.73563147
3.0972955 -0.82636976 -0.73971391
3.2171433 -0.83664322 -0.73992789
3.3458691 -0.84767765 -0.74015784
3.4869854 -0.84522951 -0.74283171
3.6395619 -0.84256697 -0.74572551
3.1055036 -0.77481532 -0.74843001
3.2258792 -0.7832638 -0.74895644
3.35519 -0.79233932 -0.74952185
3.4944701 -0.80211461 -0.75013101
3.6475985 -0.79771066 -0.75332355
3.1137426 -0.72306573 -0.75717914
3.2346497 -0.72967517 -0.7580204
3.3645499 -0.73677623 -0.75892401
3.5044851 -0.74442583 -0.75989771
3.6556656 -0.7526902 -0.76094937
3.1199417 -0.68413103 -0.76376176
3.2412491 -0.68935221 -0.7648406
3.3715932 -0.6949625 -0.76599956
3.5120227 -0.70100695 -0.76724839
3.6637554 -0.70753783 -0.7685976
3.1261601 -0.64507324 -0.77036512
3.2478702 -0.64889741 -0.77168286
3.3786604 -0.65300685 -0.77309906
3.519587 -0.6574347 -0.77462506
3.6718755 -0.66221958 -0.77627409
3.1344779 -0.59283113 -0.77919757
3.256727 -0.5947805 -0.78083622
3.3881159 -0.59687531 -0.78259742
3.5297084 -0.59913301 -0.78449547
3.6827421 -0.60157299 -0.78654683
3.1407361 -0.55352551 -0.7858429
3.1449182 -0.52725512 -0.79028428
3.2656188 -0.54045004 -0.79002559
3.3976095 -0.54051411 -0.79213464
3.5373261 -0.5552519 -0.79192436
3.6909215 -0.55592054 -0.79427969
3.1491086 -0.50093472 -0.79473412
3.5424192 -0.52591485 -0.79689109
3.0646398 -0.41634327 -0.7729758
3.1186621 -0.42935061 -0.78388286
3.2105031 -0.43160814 -0.77830911
3.3074875 -0.43399233 -0.77242327
3.4084692 -0.43871826 -0.77970541
3.5153587 -0.44371933 -0.78740299
3.6304622 -0.44668972 -0.78126013
3.0660274 -0.37877345 -0.77823651
3.0678775 -0.32867932 -0.78525102
3.0697279 -0.27858418 -0.79226577
3.0715787 -0.22848791 -0.79928052
3.0734291 -0.17839062 -0.80629551
3.07528 -0.1282922 -0.81331062
3.0771306 -0.078192353 -0.82032585
3.0789812 -0.028092027 -0.8273412
3.0808318 0.02200973 -0.8343569
3.0826831 0.072112441 -0.84137249
3.0845337 0.12221646 -0.84838843
3.0863845 0.17232156 -0.85540438
3.0877731 0.20990074 -0.86066651
3.0654924 -0.40933418 -0.72288978
3.1241159 -0.42121273 -0.7341069
3.2162368 -0.42325157 -0.72716773
3.3120127 -0.42755467 -0.73300457
3.4132392 -0.43210107 -0.73916364
3.5220735 -0.43464327 -0.73176181
3.6357884 -0.43968165 -0.73826861
3.06688 -0.37176293 -0.72815037
3.0687306 -0.32166702 -0.73516452
3.0705807 -0.27157015 -0.74217892
3.0724318 -0.22147208 -0.74919331
3.0742824 -0.17137265 -0.75620794
3.076133 -0.12127256 -0.76322281
3.0779839 -0.071171045 -0.7702378
3.0798345 -0.021068573 -0.77725291
3.0816853 0.029034853 -0.78426814
3.0835359 0.079139471 -0.79128361
3.0853868 0.1292454 -0.79829919
3.0872376 0.17935205 -0.8053149
3.0886259 0.21693301 -0.8105768
3.0663447 -0.40232462 -0.67280018
3.1295848 -0.41305214 -0.68419278
3.2219861 -0.4148711 -0.67588019
3.3165486 -0.42110163 -0.69348943
3.4196134 -0.42325646 -0.68497169
3.5288067 -0.42553955 -0.67594731
3.6411259 -0.43265527 -0.6951617
3.0677326 -0.36475205 -0.67806053
3.0695832 -0.31465411 -0.68507445
3.071434 -0.26455534 -0.6920886
3.0732849 -0.21445549 -0.69910264
3.0751355 -0.16435444 -0.70611703
3.0769863 -0.11425233 -0.71313155
3.0788369 -0.064149141 -0.7201463
3.0806878 -0.014044762 -0.72716105
3.0825386 0.036060691 -0.73417604
3.0843894 0.086166978 -0.74119115
3.0862408 0.13627458 -0.7482065
3.0880914 0.18638325 -0.75522184
3.0894799 0.22396553 -0.76048362
3.0671973 -0.39531451 -0.62270713
3.1350687 -0.40486896 -0.63413978
3.2277522 -0.4064666 -0.62444627
3.3226109 -0.41247606 -0.64067376
3.426007 -0.4143852 -0.63061595
3.533869 -0.41869402 -0.63397801
3.6482608 -0.423262 -0.63753235
3.0685854 -0.35774046 -0.62796724
3.0704362 -0.30764103 -0.6349808
3.0722868 -0.25754017 -0.6419946
3.0741377 -0.20743847 -0.64900851
3.0759883 -0.15733564 -0.65602255
3.0778389 -0.10723174 -0.66303682
3.07969 -0.057126522 -0.6700511
3.0815411 -0.0070207119 -0.67706573
3.0833919 0.043086648 -0.68408036
3.085243 0.093194962 -0.69109523
3.0870941 0.14330435 -0.6981101
3.0889452 0.19341469 -0.70512533
3.0903335 0.2309984 -0.71038675
3.0680501 -0.38830394 -0.57261062
3.1405675 -0.39666295 -0.5839473
3.2335343 -0.39803815 -0.57286513
3.3286917 -0.40382564 -0.58770275
3.4324195 -0.40548682 -0.57609582
3.5389447 -0.4118309 -0.59189975
3.6554191 -0.41383857 -0.57971811
3.069438 -0.35072857 -0.57787049
3.0712888 -0.30062717 -0.58488381
3.0731394 -0.25052476 -0.59189725
3.0749903 -0.20042121 -0.59891081
3.0768416 -0.15031636 -0.60592461
3.078692 -0.10021055 -0.61293852
3.0805433 -0.050103784 -0.61995256
3.0823944 4.1723251e-06 -0.62696683
3.0842452 0.05011332 -0.63398123
3.0860963 0.1002233 -0.64099574
3.0879476 0.15033448 -0.64801049
3.0897987 0.20044684 -0.65502524
3.091187 0.23803174 -0.66028643
3.172333 -0.38417256 -0.55148995
3.3640943 -0.39069504 -0.55346882
3.5786495 -0.39799261 -0.55568302
3.1722977 -0.34577435 -0.55663192
3.3639693 -0.35014164 -0.55889761
3.5784943 -0.36934292 -0.55951726
3.1722612 -0.29462183 -0.56348336
3.3638446 -0.3096202 -0.56432199
3.5782616 -0.32640409 -0.56526375
3.1722245 -0.24352586 -0.57032716
3.363729 -0.26913619 -0.5697428
3.5779521 -0.26921189 -0.57291782
3.1721966 -0.20523906 -0.57545519
3.3635786 -0.21520936 -0.57696414
3.5776503 -0.21208894 -0.58056378
3.1721692 -0.16698766 -0.58057868
3.3634279 -0.16134548 -0.58417702
3.5774317 -0.16928911 -0.58629358
3.1721325 -0.11603272 -0.58740354
3.3632779 -0.10754418 -0.59138155
3.5772133 -0.12653339 -0.59201753
3.172096 -0.065134048 -0.59422088
3.3631275 -0.053805709 -0.5985775
3.5769227 -0.06958437 -0.59964156
3.1720591 -0.014291525 -0.60103083
3.3630149 -0.013540983 -0.60396934
3.5766313 -0.012705564 -0.60725617
3.1720223 0.03649509 -0.60783315
3.3629029 0.026684642 -0.60935593
3.5764139 0.029909611 -0.61296129
3.1719859 0.087225795 -0.61462796
3.3627534 0.080266833 -0.61653113
3.576196 0.072480679 -0.61866057
3.1719494 0.13790059 -0.62141538
3.3626034 0.13378692 -0.623698
3.5759063 0.1291846 -0.6262517
3.1719129 0.18851972 -0.62819529
3.3624544 0.18724477 -0.63085651
3.5756166 0.1858182 -0.63383353
3.1718855 0.22644925 -0.63327563
3.3623426 0.22729945 -0.63622022
3.5753999 0.22825003 -0.63951409
3.5905585 -3.7021284 0.0094926655
3.5082073 -3.6781793 0.015622407
3.5556765 -3.6142907 0.031767398
2.9735129 -3.1882768 -0.028422922
3.2272277 -3.1919069 -0.045951054
3.5132015 -3.2036481 -0.049355894
2.9792347 -3.1513729 -0.021279857
3.0740459 -3.1563172 -0.032141373
3.1489453 -3.1737189 -0.038893715
3.2520146 -3.1466947 -0.027335003
3.335027 -3.1647959 -0.034333855
3.421993 -3.1837595 -0.041666031
3.541965 -3.1548729 -0.02926296
3.6391375 -3.1746759 -0.036888704
3.474834 -3.5923991 0.037374824
3.3228505 -3.5512424 0.0479168
3.3972912 -3.5714006 0.042753398
3.3659222 -3.4891295 0.063615739
3.4420881 -3.5082326 0.058718324
3.2927754 -3.4707837 0.068318933
2.9669447 -3.1895852 0.023740917
2.9683316 -3.1520507 0.018488407
2.97018 -3.1020036 0.011484906
3.0241714 -3.097012 -0.0081253946
3.0968165 -3.1128526 -0.014250174
3.1847134 -3.1069574 -0.01140897
3.2771208 -3.1008997 -0.0084790289
3.3612688 -3.1180482 -0.015082628
3.4494512 -3.1360192 -0.022002831
3.5711286 -3.1054177 -0.0088900477
2.9737887 -3.0511155 0.016961902
3.0462911 -3.0538578 0.009635523
3.1198678 -3.0688524 0.0038614869
3.3025525 -3.0545101 0.010621548
3.3878582 -3.0706797 0.0044242293
3.477282 -3.0876296 -0.00207223
3.1548495 -3.4361906 0.077187389
3.222472 -3.4531507 0.07283935
3.1941209 -3.3758097 0.092450738
3.0018749 -3.33143 0.10383996
3.0635793 -3.345674 0.10018441
3.1276164 -3.3604569 0.096390694
2.9675813 -3.1844032 0.061313406
2.9689679 -3.1468673 0.056061044
2.9708169 -3.0968189 0.049057737
2.9726658 -3.0467691 0.042054325
3.2210853 -3.0390682 0.016539961
3.5054941 -3.0385776 0.018131226
3.6007018 -3.0552688 0.011768743
2.9856741 -3.0029404 0.034799725
3.0686793 -3.0101802 0.027612001
3.1432052 -3.0243063 0.022197828
3.1668336 -2.9792047 0.040762916
3.2457461 -2.9930391 0.035489395
3.3283155 -3.007515 0.029971525
3.4148033 -3.0226779 0.024191812
3.5341065 -2.9888544 0.038612977
3.6307058 -3.0044169 0.03271924
3.0190504 -2.9532957 0.050638884
3.091341 -2.9659693 0.045807868
3.3544269 -2.9599066 0.049575672
3.442121 -2.9740348 0.044225231
2.9685502 -3.2800393 0.12543678
3.0378406 -3.272727 0.11868078
2.967756 -3.1917326 0.10063876
2.9696045 -3.1416841 0.093635872
2.9714537 -3.0916338 0.086632818
2.9733028 -3.0415828 0.079629585
2.975152 -2.9915309 0.072626248
2.9769177 -2.9450722 0.070381537
3.1142862 -2.9212182 0.064227208
3.1907656 -2.9335396 0.059561044
3.2707307 -2.9464226 0.05468215
3.5631301 -2.9384472 0.059379056
3.6611505 -2.9528477 0.053967863
2.9900386 -2.9082892 0.072777867
3.0436885 -2.9089165 0.08143869
3.0990934 -2.909564 0.090383768
3.1562693 -2.9121337 0.086427897
3.2153835 -2.9147906 0.082337946
3.2765362 -2.9175389 0.07810694
3.3398347 -2.9203837 0.073727459
3.4053941 -2.9233303 0.06919159
3.4733372 -2.926384 0.06449075
3.5439258 -2.9253259 0.088945672
3.6170409 -2.9285319 0.084440529
2.9649074 -3.2849212 0.16474591
2.9667563 -3.2348723 0.15774357
2.9686053 -3.184823 0.15074117
2.970454 -3.1347721 0.14373855
2.9723029 -3.0847204 0.13673578
2.9741516 -3.0346675 0.12973289
2.976001 -2.9846134 0.12272985
2.9778497 -2.9345584 0.11572662
2.9902611 -2.9028597 0.11048749
3.0439818 -2.9015603 0.13252497
3.0993109 -2.9039564 0.12932517
3.1564848 -2.9064326 0.12601867
3.2155964 -2.9089923 0.12260012
3.2767458 -2.9116404 0.11906368
3.3400407 -2.9143815 0.11540318
3.4055963 -2.9172206 0.11161193
3.4735351 -2.9201627 0.10768287
3.5440547 -2.9211018 0.1182709
3.6171668 -2.9242282 0.11431935
2.9657559 -3.2780142 0.21485116
2.9676046 -3.2279639 0.20784922
2.9694541 -3.1779122 0.20084704
2.971303 -3.1278598 0.19384475
2.9731519 -3.0778062 0.18684231
2.9750011 -3.0277514 0.17983969
2.9768503 -2.9776957 0.17283694
2.9786994 -2.9276385 0.16583399
2.9905567 -2.8956218 0.16075562
3.0442019 -2.8960445 0.17083094
3.0996017 -2.8964815 0.18123493
3.1567719 -2.8988326 0.17879391
3.2158797 -2.9012635 0.1762701
3.2770255 -2.9037778 0.17365932
3.3403161 -2.9063807 0.17095697
3.4058659 -2.9090762 0.16815813
3.4737992 -2.91187 0.16525751
3.5442481 -2.9147673 0.16224949
3.6173546 -2.9177735 0.159128
2.9666049 -3.2711072 0.26495999
2.9684541 -3.2210548 0.25795832
2.9703033 -3.1710014 0.25095648
2.972152 -3.1209469 0.24395445
2.9740012 -3.0708916 0.23695228
2.9758506 -3.0208349 0.22994995
2.9776995 -2.970777 0.22294751
2.9795485 -2.9207187 0.21594492
2.9908528 -2.8883853 0.21101016
3.0444219 -2.8905301 0.20912811
3.0998197 -2.8908765 0.22015816
3.1569872 -2.8931341 0.21836591
3.2161629 -2.8935366 0.22992459
3.2773042 -2.8959174 0.22823891
3.3405905 -2.8983822 0.22649413
3.4061356 -2.9009347 0.22468704
3.4740634 -2.9035797 0.22281426
3.5445058 -2.906323 0.22087216
3.6176054 -2.9091697 0.2188568
2.9674544 -3.2641993 0.31507233
2.9693034 -3.2141452 0.3080709
2.9711525 -3.1640902 0.30106938
2.9730012 -3.1140339 0.29406768
2.9748507 -3.0639768 0.2870658
2.9766996 -3.0139179 0.28006381
2.978549 -2.9638586 0.27306163
2.9803984 -2.9137983 0.26605934
2.9911487 -2.8811517 0.26125109
3.0447149 -2.8831789 0.26017928
3.1000373 -2.8852732 0.25907236
3.1572022 -2.8874371 0.25792855
3.2163758 -2.8877428 0.27015576
3.2775142 -2.8900239 0.26916358
3.3407962 -2.8923845 0.26813662
3.4063375 -2.89483 0.26707298
3.4742615 -2.8973639 0.26597068
3.5446994 -2.899992 0.26482761
3.617794 -2.9027188 0.26364139
2.968303 -3.2572908 0.36518818
2.9701519 -3.2072353 0.35818705
2.9720013 -3.1571779 0.35118577
2.9738507 -3.10712 0.3441844
2.9756997 -3.0570612 0.33718282
2.9775493 -3.0070009 0.33018112
2.9793983 -2.9569395 0.32317927
2.9812479 -2.906877 0.31617725
2.9914443 -2.8739195 0.31147844
3.0450082 -2.8758302 0.31121644
3.1003275 -2.8778036 0.31094587
3.1574893 -2.8798423 0.31066626
3.216588 -2.8819509 0.31037724
3.2777233 -2.8841317 0.3100782
3.3410022 -2.8863888 0.30976871
3.4065402 -2.8887267 0.30944815
3.4744589 -2.8911495 0.30911595
3.5448923 -2.893662 0.30877143
3.6179817 -2.8962693 0.30841398
2.9691525 -3.2503824 0.41530752
2.9710014 -3.2003245 0.40830666
2.9728508 -3.1502657 0.40130571
2.9747 -3.1002059 0.3943046
2.9765494 -3.0501451 0.38730335
2.9783986 -3.000083 0.38030192
2.980248 -2.9500198 0.3733004
2.9820976 -2.8999555 0.36629865
2.99174 -2.866689 0.36169216
3.0453012 -2.8684831 0.36223954
3.1006176 -2.8703358 0.36280486
3.1577764 -2.8722503 0.36338899
3.2168715 -2.8742297 0.36399296
3.2780023 -2.876277 0.36461768
3.3412769 -2.8783963 0.36526433
3.4068093 -2.8805912 0.36593407
3.4747231 -2.8828659 0.36662814
3.54515 -2.8852248 0.36734787
3.618232 -2.8876724 0.36809477
2.9700015 -3.2434731 0.46543035
2.9718511 -3.1934137 0.45842984
2.9736998 -3.143353 0.45142916
2.9755492 -3.0932913 0.44442835
2.9773986 -3.0432281 0.43742737
2.9792478 -2.9931645 0.43042627
2.9810977 -2.9430995 0.42342502
2.9829471 -2.8930335 0.41642359
2.9920354 -2.8594608 0.41189232
3.0455945 -2.8611381 0.41324863
3.1009078 -2.8628702 0.41464937
3.1580629 -2.8646603 0.41609675
3.2171543 -2.8665106 0.41759315
3.2782812 -2.8684249 0.41914114
3.3415515 -2.8704062 0.42074341
3.4070787 -2.872458 0.42240277
3.474987 -2.8745847 0.42412248
3.5453432 -2.8788981 0.41126865
3.6184206 -2.8812265 0.41284338
2.9708507 -3.2365632 0.51555669
2.9726999 -3.186502 0.50855649
2.9745493 -3.1364393 0.50155604
2.9763987 -3.0863762 0.49455556
2.9782484 -3.0363116 0.487555
2.9800978 -2.9862456 0.48055413
2.9819474 -2.9361792 0.47355321
2.9837968 -2.8861113 0.46655211
2.9923313 -2.8522344 0.4620789
3.045887 -2.8537951 0.46424368
3.1011977 -2.855407 0.46647945
3.15835 -2.8570724 0.46878955
3.2174377 -2.8587937 0.47117797
3.2785604 -2.8605747 0.47364858
3.3418255 -2.8624184 0.47620586
3.4072809 -2.8663602 0.46474358
3.4751842 -2.8683755 0.46723214
3.5455353 -2.8725734 0.45517778
3.6186073 -2.8747821 0.45757988
2.9717002 -3.2296534 0.56568658
2.9735496 -3.1795902 0.55868667
2.975399 -3.1295259 0.55168664
2.9772484 -3.0794606 0.54468638
2.9790981 -3.0293941 0.53768605
2.9809473 -2.9793262 0.53068554
2.9827967 -2.9292579 0.52368486
2.9846468 -2.8791883 0.51668406
2.9926269 -2.8450103 0.51225197
3.04618 -2.8464541 0.5152247
3.1014874 -2.8479455 0.51829493
3.1586363 -2.8494864 0.52146733
3.2177203 -2.8510795 0.52474725
3.2787695 -2.8546886 0.51451921
3.3420315 -2.8564291 0.51779234
3.4074821 -2.8602629 0.50707364
3.4753804 -2.8621671 0.51033044
3.5457909 -2.8641419 0.51370776
3.6188548 -2.8661909 0.51721239
2.9725494 -3.2227426 0.61581993
2.9743986 -3.1726775 0.60882032
2.9762483 -3.1226115 0.60182059
2.9780982 -3.0725443 0.59482074
2.9799476 -3.0224757 0.58782065
2.9817975 -2.9724069 0.58082044
2.9836469 -2.9223363 0.57381999
2.9854965 -2.8722649 0.56681949
2.9929221 -2.8377881 0.56241131
3.0464728 -2.8391151 0.56619179
3.1017776 -2.8404865 0.57009602
3.1589224 -2.8419025 0.57413018
3.2179322 -2.845295 0.56491446
3.2789776 -2.848804 0.55537963
3.3422351 -2.8504403 0.55936825
3.4077489 -2.8521352 0.56349909
3.4756417 -2.8538914 0.5677799
3.5460455 -2.8557124 0.57221913
3.6190407 -2.8597493 0.5619247
2.9733984 -3.2158313 0.66595674
2.9752483 -3.1657648 0.65895748
2.977098 -3.1156967 0.65195799
2.9789476 -3.0656276 0.64495838
2.9807973 -3.0155578 0.63795865
2.9826469 -2.9654865 0.6309588
2.9844968 -2.9154143 0.62395871
2.9863467 -2.8653407 0.6169585
3.121875 -2.8408599 0.63791656
3.3569751 -2.8471026 0.63072145
3.4336858 -2.8535862 0.63767612
2.9940784 -2.8310041 0.61269403
3.0519733 -2.8343773 0.61796582
3.101994 -2.8348927 0.60893774
3.1591361 -2.8362155 0.61361778
3.2181425 -2.8395109 0.60507178
3.2812598 -2.8418992 0.61013854
3.3424392 -2.8444529 0.60093582
3.407949 -2.8460407 0.60580742
3.4758379 -2.8476863 0.61085594
3.5462368 -2.8493924 0.61609113
3.6191645 -2.8554556 0.59172654
3.6264699 -2.854259 0.62247372
3.0693803 -0.62169206 0.31608155
3.1346841 -0.63633311 0.32380971
3.267797 -0.6322428 0.30763918
3.4456489 -0.64672321 0.32368469
3.5805089 -0.63162678 0.30265135
3.606441 -0.65696067 0.3080985
3.0707693 -0.58409941 0.31082624
3.2611337 -0.58056217 0.29974037
3.5764647 -0.60346019 0.29835281
3.0726211 -0.53397495 0.303819
3.2528493 -0.51630491 0.28991929
3.2561569 -0.54195809 0.29384011
3.5704186 -0.56135887 0.29192773
3.0744724 -0.48384947 0.29681164
3.2495496 -0.49071366 0.28600791
3.5623932 -0.5054695 0.28339851
3.0763242 -0.43372279 0.28980407
3.244616 -0.45244998 0.28015974
3.55441 -0.44987351 0.27491391
3.078176 -0.38359505 0.28279641
3.238065 -0.401636 0.27239338
3.5464683 -0.39456815 0.26647383
3.0800278 -0.33346623 0.27578861
3.231545 -0.35106564 0.2646642
3.5405378 -0.35326976 0.26017126
3.0818799 -0.2833364 0.26878059
3.2250559 -0.30073708 0.25697201
3.5346334 -0.31215054 0.25389606
3.0837317 -0.23320538 0.26177248
3.2185984 -0.25064874 0.24931654
3.5267947 -0.25756234 0.24556535
3.0855837 -0.18307304 0.2547642
3.2121711 -0.20079875 0.24169753
3.518997 -0.20325708 0.23727785
3.0874357 -0.13294005 0.24775572
3.2057743 -0.15118563 0.23411468
3.5112388 -0.14923275 0.2290332
3.0892878 -0.082805753 0.24074715
3.1994081 -0.10180736 0.22656773
3.503521 -0.095486999 0.22083105
3.0911398 -0.032670498 0.23373839
3.1930718 -0.052662611 0.21905644
3.4977579 -0.055350304 0.21470582
3.0929921 0.017465949 0.22672948
3.1867657 -0.0037493706 0.2115806
3.4920189 -0.015385985 0.20860681
3.0948441 0.067603469 0.21972047
3.1804888 0.044933677 0.2041399
3.4844 0.037672877 0.20050955
3.0966964 0.11774206 0.21271124
3.1726856 0.10545444 0.19488993
3.4749296 0.10362339 0.19044481
3.4787102 0.077297211 0.19446245
3.0985487 0.16788185 0.2057019
3.1649256 0.16564512 0.18569042
3.4692781 0.14297879 0.18443877
3.1004009 0.2180227 0.19869238
3.1587508 0.21353555 0.17837086
3.4617748 0.19523013 0.17646471
3.1022534 0.26816463 0.19168273
3.1526051 0.26120305 0.17108539
3.4543152 0.24721837 0.16853115
3.1041055 0.31830764 0.18467289
3.1464877 0.30864918 0.16383377
3.4468939 0.29894423 0.16063771
3.1059585 0.36845183 0.17766294
3.1403987 0.35587537 0.15661573
3.4395101 0.35040939 0.15278408
3.1253417 0.40394282 0.15708917
3.4339955 0.38884628 0.14691857
2.9742479 -3.2089195 0.71609712
2.9760978 -3.1588509 0.70909822
2.9779477 -3.1087813 0.70209908
2.9797974 -3.0587106 0.69509971
2.981647 -3.0086384 0.68810022
2.9834969 -2.9585657 0.68110073
2.9853466 -2.9084916 0.67410088
2.993829 -2.861815 0.66826308
3.0356934 -2.8465233 0.65719032
3.088439 -2.8581262 0.6769197
3.1657541 -2.8585446 0.67113423
3.189014 -2.8467999 0.64455891
3.2467289 -2.8589437 0.66499233
3.3062923 -2.8715346 0.68620157
3.33146 -2.8594027 0.65865195
3.3939998 -2.8722625 0.68016779
3.4998055 -2.8667083 0.65943158
3.5681951 -2.8803473 0.68207347
3.5971181 -2.8673992 0.652493
3.6540723 -2.8879452 0.69056976
3.0700202 -0.61643726 0.35369894
3.1749046 -0.62468147 0.36519098
3.2978024 -0.63730091 0.33802283
3.3270919 -0.629206 0.36691487
3.4774196 -0.63836652 0.35367346
3.6409748 -0.64833313 0.3392669
3.676172 -0.63954562 0.37099144
3.071409 -0.57884359 0.34844375
3.073261 -0.52871776 0.34143677
3.0751126 -0.47859085 0.33442962
3.0769646 -0.42846274 0.32742229
3.0788167 -0.37833369 0.3204149
3.0806687 -0.32820344 0.31340727
3.0825202 -0.27807224 0.30639952
3.0843723 -0.22793972 0.29939163
3.0862248 -0.17780638 0.29238352
3.0880764 -0.12767172 0.2853753
3.0899282 -0.077536345 0.27836692
3.0917804 -0.027399421 0.27135843
3.0936327 0.022738457 0.26434976
3.095485 0.072877288 0.25734091
3.097337 0.12301731 0.25033194
3.0991895 0.17315841 0.24332285
3.101042 0.22330046 0.23631354
3.1028943 0.27344394 0.22930408
3.1047468 0.32358837 0.22229445
3.1065996 0.37373376 0.21528476
3.1079893 0.41134369 0.21002737
2.9750972 -3.2020073 0.76624095
2.9769471 -3.1519368 0.7592423
2.978797 -3.1018653 0.75224352
2.9806468 -3.0517931 0.7452445
2.982497 -3.0017192 0.73824537
2.9843471 -2.9516444 0.73124611
2.9861968 -2.9015684 0.72424662
3.0447965 -2.8806627 0.72782803
3.1089535 -2.8872263 0.73603237
3.1872227 -2.8883104 0.73155665
3.2569735 -2.8953092 0.74018943
3.281466 -2.8835025 0.71337831
3.3550456 -2.8905945 0.72187591
3.4316919 -2.8979821 0.73072767
3.5115998 -2.9056842 0.73995614
3.5396922 -2.8931077 0.71122479
3.6243086 -2.9009285 0.7202965
2.9933765 -2.8688593 0.70756483
3.1427975 -2.8701367 0.69736362
3.210772 -2.8766885 0.7052139
3.458627 -2.8856149 0.7025336
3.4368212 0.13648498 0.32382384
3.2157726 0.17719471 0.32023135
3.4268203 0.17371058 0.31737661
3.2041121 0.22363257 0.31217521
3.4135737 0.22300315 0.30883908
3.1925409 0.26971161 0.30418137
3.4004323 0.2718904 0.30037138
3.1068215 0.34517062 0.28327736
3.1724119 0.3242346 0.29396933
3.2765136 0.34008265 0.2770153
3.3299193 0.33649397 0.28337061
3.3841538 0.33245099 0.28988183
3.3906441 0.30830598 0.2940639
3.1110728 0.37466717 0.26417011
3.1743948 0.34694541 0.26486307
3.2246954 0.34356499 0.27084893
3.108844 0.41838813 0.26019299
2.9759469 -3.1950948 0.81638837
2.9777966 -3.1450224 0.80938995
2.9796464 -3.0949492 0.80239141
2.9814966 -3.0448747 0.79539275
2.9833469 -2.9947996 0.78839397
2.9851968 -2.9447227 0.78139496
3.0538838 -2.9150343 0.79895282
3.2795992 -2.9261 0.80265641
3.4566119 -2.9303014 0.79619491
2.9969542 -2.9047225 0.77284527
3.0756865 -2.9040248 0.77404201
3.1525128 -2.9054401 0.77038383
3.2089634 -2.9184532 0.7927444
3.2328081 -2.9069586 0.76664245
3.3044055 -2.9144263 0.77609658
3.3295517 -2.9025922 0.74917221
3.3920395 -2.9161885 0.77223313
3.4839094 -2.9180808 0.76827657
3.5660853 -2.9263268 0.77844727
3.5949826 -2.9137213 0.74958587
3.6518898 -2.9349375 0.78906715
3.1565714 -1.112631 0.55182242
3.3432462 -1.1131572 0.54884887
3.5514514 -1.113744 0.54553199
3.1456041 -1.0613712 0.54295564
3.3309448 -1.0591111 0.53951198
3.5410297 -1.07082 0.5381273
3.1374285 -1.0231655 0.53634685
3.3217793 -1.0188425 0.53255522
3.5341203 -1.0423629 0.53321826
3.0774961 -0.45028055 0.44554341
3.1409683 -0.46194428 0.45563278
3.1780682 -0.45774448 0.4336262
3.2557547 -0.46787024 0.44477543
3.3793151 -0.47408092 0.43321553
3.5164762 -0.47603887 0.44954786
3.5983992 -0.46494764 0.42798749
3.658747 -0.48318183 0.43720806
3.0788853 -0.41268128 0.44028839
3.1694634 -0.42120492 0.42727783
3.3695874 -0.43534327 0.42649522
3.5873742 -0.42390931 0.42087993
3.0807374 -0.36254805 0.43328163
3.1580646 -0.37279791 0.41886768
3.3567059 -0.38404357 0.41759571
3.5764124 -0.38310766 0.41381338
3.0825894 -0.31241375 0.42627472
3.1467538 -0.32476223 0.41052201
3.3439283 -0.33316046 0.40876845
3.5619125 -0.329135 0.40446576
3.5691466 -0.35606319 0.40912947
3.0844412 -0.26227844 0.41926762
3.1355288 -0.27709371 0.40224016
3.3312545 -0.28268862 0.40001255
3.5511229 -0.28897393 0.39751014
3.096225 -0.20627224 0.40413901
3.1243892 -0.22978771 0.3940213
3.315552 -0.22015738 0.38916454
3.3218126 -0.24508899 0.39348969
3.5368392 -0.23580712 0.388302
3.0979922 -0.1607523 0.39353135
3.3062115 -0.1829592 0.38271135
3.5226774 -0.18309259 0.37917227
3.0934532 -0.11247468 0.38599542
3.2938397 -0.13369215 0.3741644
3.5086353 -0.1308248 0.37011987
3.0916367 -0.063482642 0.37869579
3.2815664 -0.084816933 0.36568549
3.4947119 -0.078998089 0.36114395
3.0934889 -0.013342261 0.37168786
3.2693908 -0.036328912 0.35727376
3.4809053 -0.027606964 0.3522433
3.0953417 0.036799312 0.36467981
3.2573111 0.011776209 0.34892839
3.4672143 0.023354173 0.34341723
3.0971937 0.086941838 0.35767156
3.2423499 0.071356773 0.33859223
3.4536374 0.073890686 0.33466464
3.0990462 0.13708556 0.35066319
3.2245755 0.14214003 0.32631266
3.2304745 0.11864841 0.33038807
3.4435253 0.11153066 0.32814577
3.1008985 0.18723011 0.34365463
3.102751 0.23737609 0.33664593
3.1046035 0.28752315 0.32963711
3.106456 0.33767104 0.32262811
3.1083093 0.38782048 0.31561902
3.1096988 0.4254328 0.31036204
2.9767969 -3.1881816 0.86653936
2.9786465 -3.1381073 0.85954118
2.9804966 -3.0880322 0.852543
2.9823463 -3.037956 0.84554458
2.9841964 -2.9878788 0.83854604
2.9921408 -2.9410725 0.83292294
3.032356 -2.9259045 0.82354951
3.0961461 -2.9332578 0.83343637
3.1622112 -2.9409909 0.84392285
3.1854327 -2.9297962 0.81850219
3.2430558 -2.9432998 0.84178615
3.3403828 -2.9399078 0.82630491
3.4031713 -2.9542332 0.85086048
3.4297028 -2.9423513 0.82372022
3.5095465 -2.9509969 0.8349247
3.5376103 -2.9387507 0.80689061
3.5928619 -2.9600182 0.84661639
3.6221569 -2.9475706 0.81805491
3.0652556 -2.3164451 0.76578069
3.2325318 -2.3234601 0.76427174
3.4172792 -2.331208 0.76260519
3.0600076 -2.2889037 0.76100612
3.2266996 -2.2945409 0.75926363
3.4107666 -2.3007655 0.7573396
3.6150739 -2.3076751 0.75520396
3.0521748 -2.2477946 0.75387955
3.2179968 -2.2513857 0.75179029
3.4010501 -2.2553501 0.74948382
3.6041675 -2.2597489 0.74692464
3.0417941 -2.1933174 0.74443543
3.2064669 -2.1942143 0.7418896
3.3881822 -2.1952043 0.73908019
3.5933239 -2.2120962 0.73869252
3.0314903 -2.1392391 0.73506045
3.1921761 -2.1233532 0.72961807
3.1978753 -2.1516109 0.73451161
3.3785961 -2.150399 0.73132992
3.582557 -2.1647818 0.73051894
3.0212607 -2.0855546 0.72575378
3.1864994 -2.0952041 0.72474325
3.3690746 -2.1058941 0.72363174
3.5683031 -2.1021423 0.71969795
3.0195668 -2.0344625 0.71808434
3.1780279 -2.053195 0.71746838
3.3564641 -2.0469508 0.71343601
3.557688 -2.0554943 0.7116394
3.0214174 -1.984363 0.71108294
3.1668034 -1.9975374 0.70782971
3.3470695 -2.0030379 0.70584035
3.5471475 -2.0091739 0.70363748
3.0232687 -1.9342623 0.7040813
3.1528895 -1.9285446 0.69588184
3.1584382 -1.956058 0.70064652
3.3377368 -1.9594171 0.69829488
3.5366662 -1.9631133 0.69568038
3.0251193 -1.8841604 0.69707942
3.1446083 -1.8874819 0.68877077
3.3253756 -1.9016404 0.68830097
3.526258 -1.9173744 0.68777907
3.0269701 -1.8340575 0.69007754
3.1363688 -1.8466252 0.68169534
3.3131127 -1.8443208 0.67838621
3.5124764 -1.8568133 0.67731702
3.0288212 -1.7839535 0.68307531
3.128181 -1.8060238 0.67466414
3.3039761 -1.8016138 0.67099905
3.5022125 -1.8117077 0.66952503
3.0306721 -1.7338483 0.67607307
3.1173315 -1.7522258 0.66534758
3.2948983 -1.7591865 0.66366005
3.4920197 -1.7669139 0.66178668
3.7082844 -1.7597747 0.65697539
3.0325232 -1.6837423 0.6690706
3.1065629 -1.6988281 0.65610039
3.2828746 -1.7029859 0.65393877
3.4785218 -1.7075996 0.65154028
3.6968696 -1.7127489 0.6488632
3.0343745 -1.6336349 0.66206801
3.0958738 -1.6458266 0.64692175
3.2709446 -1.6472237 0.64429343
3.4684684 -1.6634196 0.64390814
3.6855209 -1.6659963 0.64079845
3.0362258 -1.5835266 0.6550653
3.0852642 -1.5932168 0.63781106
3.2620552 -1.6056734 0.63710618
3.4584835 -1.6195416 0.6363281
3.6742542 -1.6195819 0.63279176
3.0380769 -1.5334172 0.64806247
3.0747321 -1.5409943 0.62876737
3.2532232 -1.5643915 0.62996542
3.4452615 -1.5614363 0.62629032
3.6630528 -1.5734355 0.62483156
3.0521033 -1.4862309 0.63042462
3.241523 -1.5097033 0.62050581
3.4321468 -1.5038042 0.61633432
3.6519315 -1.5276209 0.61692846
3.0478396 -1.4354447 0.62246716
3.229913 -1.4554361 0.61111891
3.4223776 -1.4608728 0.60891783
3.6372099 -1.4669719 0.60646629
3.0446656 -1.3974721 0.61651933
3.2183914 -1.4015849 0.60180408
3.412674 -1.4182308 0.60155135
3.6262472 -1.4218097 0.59867585
3.044343 -1.3597705 0.61101007
3.2069581 -1.3481449 0.59256023
3.3998232 -1.3617567 0.59179544
3.6153598 -1.3769686 0.59094036
3.0461943 -1.3096566 0.60400635
3.1956124 -1.2951117 0.5833869
3.3870749 -1.3057361 0.5821178
3.6009467 -1.3176041 0.5806995
3.0480454 -1.2595417 0.59700263
3.1871564 -1.2555883 0.57655036
3.377578 -1.264001 0.57490802
3.5902133 -1.2733953 0.57307315
3.0498972 -1.2094256 0.58999872
3.1759603 -1.2032555 0.56749815
3.1815479 -1.2293724 0.57201576
3.3681431 -1.2225435 0.56774604
3.5760124 -1.2149061 0.56298327
3.5830977 -1.2440889 0.56801748
3.0517485 -1.1593084 0.58299446
3.1676209 -1.1642771 0.56075591
3.3556452 -1.1676328 0.55825996
3.5654442 -1.1713774 0.55547422
3.0535998 -1.1091902 0.57599032
3.0554519 -1.0590708 0.56898594
3.0573032 -1.0089505 0.56198132
3.0781364 -0.4450205 0.48316944
3.1483703 -0.45516765 0.49475619
3.2636464 -0.46087492 0.48520976
3.3870566 -0.46698481 0.47498986
3.5225096 -0.47104418 0.47849727
3.6684752 -0.47541445 0.48229912
3.0795252 -0.40742028 0.47791451
3.0813773 -0.35728562 0.47090799
3.0832295 -0.30714989 0.46390131
3.0850818 -0.25701314 0.4568944
3.0869339 -0.20687521 0.44988739
3.0887866 -0.15673625 0.44288027
3.0906389 -0.10659623 0.43587294
3.0924914 -0.056455016 0.42886546
3.0943437 -0.0063129663 0.42185792
3.0961959 0.043830514 0.41485012
3.0980484 0.093974948 0.40784216
3.0999007 0.14412057 0.40083411
3.1017532 0.19426703 0.39382583
3.1036062 0.24441469 0.38681746
3.1054587 0.29456353 0.37980896
3.1073115 0.34471369 0.37280029
3.1091647 0.39486456 0.36579147
3.110554 0.43247855 0.3605347
2.9776461 -3.1812682 0.91669381
2.9794962 -3.1311922 0.90969598
2.9813461 -3.0811152 0.90269804
2.983196 -3.0310369 0.89569998
2.9850464 -2.980958 0.88870168
2.9868965 -2.9308777 0.88170338
3.1082835 -2.9226484 0.86016393
3.2785165 -2.9314427 0.85882795
3.4665077 -2.9411545 0.85735285
2.9899259 -2.8814092 0.87497938
3.0418885 -2.8697224 0.88154995
3.1019664 -2.8778944 0.8658973
3.1493864 -2.8751018 0.87270272
3.2046425 -2.875422 0.88112414
3.2628303 -2.8782926 0.87655425
3.3005848 -2.8844733 0.86915088
3.3241665 -2.8838472 0.85832334
3.3839262 -2.8817005 0.88065517
3.4578176 -2.8913331 0.86352348
3.5148089 -2.8880687 0.87084615
3.5837791 -2.8914232 0.86568296
3.6538315 -2.892076 0.87505078
3.0109515 -2.2797346 0.79071021
3.0128021 -2.2296388 0.78370953
3.0146527 -2.1795423 0.77670896
3.0165036 -2.1294444 0.76970816
3.0183544 -2.0793457 0.76270711
3.0202053 -2.0292459 0.75570583
3.0220559 -1.9791446 0.74870455
3.0239072 -1.9290426 0.74170315
3.025758 -1.8789394 0.73470151
3.0276091 -1.8288351 0.72769976
3.02946 -1.7787297 0.72069788
3.031311 -1.7286234 0.71369576
3.0331624 -1.6785158 0.70669353
3.0350134 -1.6284072 0.69969118
3.0368643 -1.5782974 0.6926887
3.0387158 -1.5281867 0.68568599
3.0405674 -1.4780748 0.67868316
3.0424185 -1.4279617 0.67168021
3.0438068 -1.3903763 0.66642797
3.0451953 -1.3527901 0.66117549
3.0470469 -1.3026744 0.65417218
3.0488982 -1.2525576 0.64716864
3.0507498 -1.2024398 0.64016497
3.0526013 -1.1523207 0.63316107
3.0544529 -1.1022007 0.62615716
3.0563042 -1.0520796 0.61915302
3.057693 -1.014488 0.61389983
3.1291723 -0.98377419 0.63384211
3.2810616 -0.9790495 0.63069344
3.1263232 -0.94567794 0.62782431
3.2778871 -0.93925726 0.62441087
3.444813 -0.94610119 0.62286603
3.6269696 -0.93906748 0.61887228
3.1225336 -0.89502341 0.61982274
3.27472 -0.89955693 0.61814272
3.4412699 -0.90453041 0.61630607
3.6243172 -0.90998328 0.61428547
3.1187572 -0.84453648 0.61184752
3.2715621 -0.85997117 0.61189276
3.4365604 -0.84927005 0.60758603
3.6203477 -0.86646777 0.60742283
3.1149931 -0.79421651 0.60389876
3.2673631 -0.80734205 0.60358322
3.4330389 -0.80794972 0.60106564
3.6150725 -0.80863047 0.59830153
3.1112416 -0.74406242 0.59597611
3.2631791 -0.75489432 0.59530252
3.4295282 -0.76675367 0.59456491
3.6111288 -0.7653895 0.59148228
3.1075022 -0.69407368 0.58807969
3.2590089 -0.7026273 0.58705032
3.424861 -0.71199083 0.58592331
3.607197 -0.72228509 0.58468431
3.102845 -0.6318137 0.57824481
3.1047056 -0.65668482 0.58217359
3.2548537 -0.65053982 0.57882643
3.4202108 -0.65742505 0.57731283
3.600668 -0.65069735 0.57339466
3.6032755 -0.6792891 0.57790375
3.1000607 -0.59458852 0.57236469
3.2507124 -0.59863108 0.57063079
3.4155769 -0.60305524 0.56873322
3.596765 -0.60791761 0.56664789
3.0963581 -0.54509038 0.56454569
3.2465851 -0.54690015 0.56246316
3.4109585 -0.54888064 0.56018442
3.5928664 -0.56524622 0.55991733
3.0926673 -0.4957543 0.55675232
3.2424712 -0.49534631 0.55432332
3.407501 -0.50837189 0.5537914
3.5889797 -0.52270865 0.55320799
3.0826294 -0.44495547 0.53920126
3.1557987 -0.44836694 0.53401899
3.2393906 -0.45679188 0.54823542
3.2715678 -0.45385379 0.52579319
3.4006374 -0.46534407 0.5372051
3.5315988 -0.46352184 0.52209365
3.5851026 -0.48027778 0.54651546
3.6782503 -0.46761382 0.52757633
3.080379 -0.40040505 0.52808571
3.0822313 -0.3502686 0.52107942
3.0840836 -0.30013108 0.51407301
3.0859358 -0.24999237 0.50706637
3.0877883 -0.19985271 0.50005972
3.0896404 -0.14971209 0.4930529
3.0914929 -0.099570155 0.48604587
3.0933452 -0.049427032 0.47903869
3.0951977 0.00071704388 0.47203133
3.0970502 0.050862074 0.46502391
3.0989029 0.10100853 0.45801628
3.1007555 0.15115571 0.45100847
3.1026082 0.20130408 0.44400054
3.1044607 0.25145376 0.43699244
3.1063135 0.30160439 0.42998418
3.108166 0.3517561 0.42297584
3.1100194 0.40190899 0.41596735
3.111789 0.44847071 0.41372415
2.9784958 -3.1743541 0.96685171
2.9803457 -3.1242762 0.95985425
2.9821961 -3.0741973 0.95285666
2.9840462 -3.0241175 0.94585884
2.9858966 -2.9740365 0.93886077
2.9877465 -2.9239545 0.93186271
2.9895968 -2.8738713 0.92486453
3.0378866 -2.8602071 0.93129325
3.0916851 -2.8651156 0.91510797
3.1450982 -2.8652749 0.92404664
3.2002032 -2.8654389 0.93326855
3.2593784 -2.8706765 0.91632223
3.3182006 -2.8709347 0.92572665
3.380214 -2.873822 0.92176831
3.4443781 -2.8768115 0.91766191
3.5094738 -2.8771889 0.92758298
3.5796187 -2.8831105 0.90901792
3.649508 -2.8836141 0.91914725
3.0118027 -2.2727876 0.84087348
3.0136535 -2.2226901 0.83387327
3.0155044 -2.1725917 0.82687294
3.0173552 -2.1224921 0.81987238
3.0192063 -2.0723913 0.81287169
3.0210567 -2.0222895 0.80587089
3.0229075 -1.9721868 0.79886973
3.0247586 -1.9220828 0.79186869
3.0266097 -1.8719778 0.78486729
3.028461 -1.8218718 0.77786589
3.0303121 -1.7717645 0.77086425
3.0321634 -1.7216562 0.76386249
3.034014 -1.6715468 0.75686061
3.0358653 -1.6214364 0.74985862
3.0377166 -1.5713248 0.74285626
3.0395682 -1.5212121 0.73585403
3.0414195 -1.4710984 0.72885144
3.0432708 -1.4209837 0.72184873
3.0446594 -1.3833969 0.71659672
3.0460479 -1.3458093 0.71134448
3.0478997 -1.2956917 0.70434141
3.049751 -1.2455732 0.69733822
3.0516026 -1.1954534 0.6903348
3.0534544 -1.1453326 0.68333137
3.0553057 -1.0952107 0.67632759
3.0571578 -1.0450877 0.6693238
3.0590093 -0.99496353 0.6623199
3.0608606 -0.9448384 0.65531576
3.0627129 -0.89471209 0.6483115
3.0645647 -0.8445847 0.64130712
3.066417 -0.79445624 0.6343025
3.068269 -0.74432671 0.62729776
3.0701208 -0.69419599 0.6202929
3.0719728 -0.64406431 0.61328781
3.0738249 -0.5939315 0.60628259
3.0756772 -0.54379749 0.59927726
3.0775292 -0.49366254 0.5922718
3.0793815 -0.44352639 0.58526611
3.0812333 -0.39338934 0.5782603
3.0830855 -0.34325111 0.57125425
3.0849373 -0.29311174 0.5642482
3.0867898 -0.2429713 0.55724192
3.0886424 -0.19282961 0.55023551
3.0904949 -0.14268696 0.54322898
3.0923469 -0.092543364 0.53622228
3.0941997 -0.042398572 0.52921534
3.0960522 0.0077472925 0.52220833
3.0979049 0.057894349 0.51520121
3.0997574 0.10804224 0.50819385
3.1016102 0.15819156 0.50118637
3.1034629 0.20834196 0.49417874
3.1053154 0.2584933 0.4871709
3.1071682 0.30864584 0.48016301
3.1090212 0.35879934 0.47315493
3.1108744 0.40895402 0.4661468
3.1127272 0.45910978 0.45913836
2.9793458 -3.1674397 1.0170132
2.9811962 -3.1173601 1.0100161
2.9830461 -3.0672793 1.0030187
2.9848959 -3.0171974 0.99602115
2.9867465 -2.9671144 0.98902357
2.9885967 -2.9170308 0.98202574
2.990447 -2.8669457 0.9750278
3.0348923 -2.8530874 0.96851182
3.0875523 -2.8554683 0.96552885
3.14189 -2.8579226 0.96245992
3.196882 -2.8579702 0.97227907
3.2510595 -2.8587666 0.96828568
3.3146307 -2.8632097 0.96605158
3.3765116 -2.8659644 0.96277368
3.4405334 -2.8688118 0.95939302
3.5054829 -2.8690515 0.97001994
3.5545063 -2.8612714 0.97688079
3.5754678 -2.8748162 0.9522568
3.6451945 -2.8751712 0.96314442
2.9925098 -2.8151274 0.98057091
3.1110053 -2.8256721 0.97865736
3.2482486 -2.8142681 0.9750495
3.395417 -2.8298235 0.97497046
3.5560381 -2.8321686 0.97288835
2.9943602 -2.7650397 0.97357273
3.113622 -2.774121 0.97158682
3.2510004 -2.7606621 0.96769691
3.3983171 -2.7740059 0.96731389
3.558337 -2.7884998 0.96689785
2.9962108 -2.714951 0.96657443
3.11624 -2.7225475 0.96451342
3.2530651 -2.7204428 0.96218038
3.4012189 -2.7181618 0.95965374
3.561403 -2.7302518 0.95890725
2.9980607 -2.664861 0.95957589
3.1188591 -2.6709514 0.95743692
3.2551301 -2.6802077 0.95666146
3.4033961 -2.6762624 0.9539063
3.5637035 -2.6865473 0.95291185
2.9999113 -2.6147699 0.95257735
3.121479 -2.6193328 0.9503572
3.2578855 -2.6265416 0.94930053
3.4055741 -2.6343465 0.94815671
3.5660052 -2.6428249 0.94691396
3.0017622 -2.5646782 0.94557846
3.1241002 -2.5676913 0.9432745
3.2606416 -2.5728507 0.94193625
3.4084792 -2.5784369 0.94048738
3.5690751 -2.5845046 0.93891346
3.0036128 -2.5145848 0.93857944
3.1267228 -2.5160279 0.9361887
3.2633991 -2.5191357 0.93456864
3.4113858 -2.5225005 0.93281448
3.5721464 -2.5261559 0.93090928
3.0054631 -2.4644904 0.93158042
3.1293464 -2.4643419 0.92909968
3.2661579 -2.4653964 0.92719769
3.4135664 -2.4805319 0.92705762
3.0073142 -2.4143953 0.92458117
3.1319711 -2.4126334 0.9220078
3.2682278 -2.4250765 0.92166734
3.4150205 -2.452544 0.92321861
3.0091648 -2.3642988 0.9175818
3.1345971 -2.3609023 0.9149127
3.2696083 -2.3981886 0.91797936
3.0110161 -2.3142018 0.91058218
3.0126541 -2.2658401 0.89104044
3.0145049 -2.2157407 0.88404047
3.0163555 -2.1656406 0.87704039
3.0182064 -2.1155391 0.87004018
3.0200577 -2.0654366 0.86303973
3.0219085 -2.0153329 0.85603917
3.0237596 -1.9652283 0.84903848
3.0256107 -1.9151226 0.84203768
3.027462 -1.8650157 0.83503664
3.0293128 -1.8149078 0.82803547
3.0311639 -1.7647988 0.82103419
3.033015 -1.7146887 0.81403279
3.0348663 -1.6645775 0.80703115
3.0367177 -1.6144651 0.80002928
3.038569 -1.5643518 0.7930274
3.0404205 -1.5142372 0.78602529
3.0422719 -1.4641217 0.77902317
3.0441236 -1.414005 0.77202082
3.045512 -1.3764168 0.76676881
3.0469007 -1.338828 0.76151693
3.0487521 -1.2887086 0.7545141
3.0506039 -1.2385881 0.74751127
3.0524554 -1.1884665 0.74050808
3.0543072 -1.1383439 0.73350501
3.0561588 -1.0882201 0.72650158
3.0580106 -1.0380952 0.71949804
3.0598624 -0.9879694 0.71249437
3.0617144 -0.93784237 0.70549047
3.0635662 -0.88771427 0.69848657
3.065418 -0.83758497 0.69148242
3.06727 -0.78745472 0.68447816
3.0691221 -0.73732328 0.67747378
3.0709743 -0.68719083 0.67046928
3.0728264 -0.6370573 0.66346443
3.0746787 -0.58692265 0.65645945
3.0765307 -0.53678685 0.64945447
3.078383 -0.48665005 0.64244938
3.080235 -0.43651211 0.63544393
3.0820873 -0.38637316 0.62843847
3.0839393 -0.33623302 0.62143278
3.0857918 -0.28609186 0.61442697
3.0876443 -0.23594958 0.60742092
3.0894969 -0.18580616 0.60041487
3.0913494 -0.1356616 0.59340852
3.0932016 -0.085516214 0.5864023
3.0950544 -0.035369396 0.57939565
3.0969067 0.014778256 0.57238889
3.0987597 0.064927101 0.565382
3.1006122 0.11507714 0.558375
3.1024652 0.16522801 0.55136788
3.1043177 0.21538007 0.54436052
3.1061709 0.26553333 0.53735304
3.1080234 0.31568754 0.53034538
3.1098764 0.36584294 0.52333766
3.1117299 0.41599965 0.51632965
3.1135824 0.46615708 0.50932169
2.9801955 -3.1605244 1.0671782
2.9820461 -3.1104431 1.0601813
2.9838963 -3.0603607 1.0531843
2.9857464 -3.010277 1.046187
2.9875968 -2.9601922 1.0391897
2.9894469 -2.9101067 1.0321922
2.9912975 -2.8600197 1.0251945
2.9931476 -2.8099313 1.0181966
2.9949982 -2.7598424 1.0111988
2.9968486 -2.7097521 1.0042006
2.9986992 -2.6596608 0.9972024
3.0005496 -2.6095686 0.99020386
3.0024004 -2.5594754 0.98320544
3.0042512 -2.5093808 0.97620678
3.0061021 -2.4592853 0.96920776
3.0079527 -2.4091887 0.96220875
3.0098033 -2.3590908 0.95520961
3.0116541 -2.3089919 0.94821036
3.0135052 -2.2588921 0.94121075
3.0153561 -2.208791 0.93421113
3.0172071 -2.158689 0.9272114
3.0190582 -2.1085856 0.92021155
3.0209095 -2.0584815 0.91321135
3.0227604 -2.0083759 0.90621114
3.0246115 -1.9582694 0.89921069
3.0264623 -1.9081618 0.89221013
3.0283134 -1.8580531 0.88520944
3.0301647 -1.8079433 0.87820864
3.032016 -1.7578325 0.87120759
3.0338674 -1.7077205 0.86420643
3.0357189 -1.6576076 0.85720515
3.0375702 -1.6074934 0.85020375
3.0394216 -1.5573782 0.84320199
3.0412731 -1.5072619 0.83620024
3.0431242 -1.4571445 0.82919836
3.0449758 -1.4070259 0.82219625
3.0463643 -1.3694364 0.8169446
3.0477533 -1.3318461 0.81169283
3.0496049 -1.2817249 0.80469036
3.0514565 -1.2316025 0.79768777
3.0533082 -1.1814792 0.79068494
3.05516 -1.1313547 0.78368211
3.0570118 -1.0812291 0.77667904
3.0588634 -1.0311024 0.76967573
3.0607154 -0.98097467 0.76267242
3.0625672 -0.93084586 0.75566888
3.0644193 -0.88071591 0.74866521
3.0662713 -0.83058488 0.74166143
3.0681236 -0.78045273 0.73465741
3.0699756 -0.7303195 0.72765326
3.0718277 -0.68018526 0.720649
3.0736799 -0.63004982 0.7136445
3.075532 -0.57991338 0.70664001
3.0773842 -0.52977574 0.69963515
3.0792365 -0.47963697 0.69263029
3.081089 -0.4294973 0.68562531
3.0829413 -0.3793565 0.6786201
3.0847933 -0.32921457 0.67161465
3.0866461 -0.27907145 0.66460919
3.0884984 -0.22892749 0.6576035
3.0903511 -0.17878211 0.65059769
3.0922031 -0.12863588 0.64359176
3.0940561 -0.078488588 0.63658559
3.0959089 -0.028339982 0.62957931
3.0977616 0.021809578 0.6225729
3.0996144 0.071960211 0.61556637
3.1014671 0.12211215 0.60855973
3.1033196 0.17226505 0.60155272
3.1051726 0.22241879 0.59454584
3.1070256 0.27257383 0.5875386
3.1088781 0.32272995 0.58053124
3.1107314 0.37288713 0.57352376
3.1125841 0.42304552 0.56651616
3.1144378 0.47320485 0.55950832
2.9810457 -3.153609 1.1173466
2.9828959 -3.1035256 1.11035
2.984746 -3.0534415 1.1033534
2.9865966 -3.003356 1.0963565
2.9884467 -2.9532695 1.0893594
2.9902971 -2.9031818 1.0823622
2.9921477 -2.8530931 1.0753648
2.9939983 -2.8030033 1.0683674
2.9958484 -2.7529123 1.0613697
2.9976995 -2.7028205 1.0543717
2.9995501 -2.6527274 1.0473739
3.0014005 -2.602633 1.0403758
3.0032516 -2.5525379 1.0333774
3.0051019 -2.5024414 1.026379
3.0069528 -2.4523442 1.0193805
3.0088036 -2.4022458 1.0123818
3.0106544 -2.3521459 1.0053829
3.0125055 -2.3020453 0.998384
3.0143566 -2.2519436 0.99138474
3.0162075 -2.2018409 0.98438537
3.0180588 -2.1517367 0.977386
