# .PCD v0.7 - Point Cloud Data file format
VERSION 0.7
FIELDS x y z
SIZE 4 4 4
TYPE F F F
COUNT 1 1 1
WIDTH 1469
HEIGHT 1
VIEWPOINT 0 0 0 1 0 0 0
POINTS 1469
DATA ascii
3.7140787 0.0048960671 -1.0683318
3.7645826 -0.023660894 -1.0833182
3.8220749 0.0042745546 -1.0700072
3.8756969 -0.025142472 -1.0854646
3.9936352 -0.026715005 -1.0877427
2.8414476 0.12618873 -1.084942
3.9366014 0.0036154538 -1.0717831
2.8402493 0.17868192 -1.0826756
2.839056 0.2309521 -1.0804188
2.8378689 0.28296912 -1.0781732
2.8366261 0.33682761 -1.0821767
2.8357232 0.37602067 -1.0846895
2.8344977 0.42994854 -1.0797064
2.8349755 0.40686086 -1.1043824
2.8333833 0.47853002 -1.0802164
2.8321998 0.52942771 -1.0884575
2.8310425 0.5801177 -1.0862221
2.8298914 0.63056594 -1.0839974
2.8287446 0.68080401 -1.081782
2.8276031 0.73080337 -1.079577
2.8264089 0.78258455 -1.0834993
2.8250885 0.84005064 -1.0850794
2.8257658 0.81036848 -1.0864021
2.824188 0.87951005 -1.083321
2.8230667 0.92863113 -1.0811319
2.8217788 0.98451763 -1.0844969
2.8205957 1.0359709 -1.0865777
2.8194902 1.0844061 -1.084397
2.8183894 1.1326435 -1.0822251
2.8172936 1.1806566 -1.0800635
2.8157461 1.2475559 -1.0871838
2.8163989 1.2189476 -1.0884852
2.814878 1.2855897 -1.0854537
2.8137972 1.3329397 -1.0833
2.8129356 1.3706887 -1.0815828
3.2941861 -2.3709843 -1.0493196
3.2102523 -2.3090882 -1.0101366
3.3607535 -2.3334265 -1.0273468
3.5254221 -2.3600559 -1.0461771
3.5755081 -2.3333151 -1.0305738
3.7613626 -2.3616271 -1.0507592
3.406565 -2.307579 -1.0122252
3.626883 -2.305886 -1.0145693
3.8178558 -2.3331892 -1.0342157
2.8433752 0.045283444 -1.0492593
2.8683805 0.031203749 -1.0444359
2.9148281 0.020456614 -1.0504223
2.980557 0.020329935 -1.0513159
3.0306458 0.0088292137 -1.0577271
3.1018593 0.0084194094 -1.058832
3.1765409 0.007989632 -1.0599909
2.8427653 0.08620923 -1.0377157
2.8725657 0.074055918 -1.0229563
2.9147725 0.074769102 -1.0231309
2.9849 0.064896658 -1.0289769
3.0350606 0.054172441 -1.0349988
3.0702977 0.054501541 -1.0352783
3.123703 0.043269135 -1.0415967
3.1811578 0.055540994 -1.0361557
3.2175977 0.031836599 -1.0485266
3.2788537 0.044129379 -1.0431231
3.3826375 0.032135613 -1.0504601
3.4717464 0.03229709 -1.0515039
2.8415558 0.12626445 -1.0317042
2.9713044 0.097841777 -1.012251
3.0394747 0.099508025 -1.0122744
3.1282413 0.089963347 -1.0181911
3.1857736 0.10308398 -1.0123247
3.2222674 0.079969727 -1.0243998
3.2836061 0.093168758 -1.0185419
3.342212 0.057049632 -1.0374309
3.3875334 0.082764506 -1.025082
3.4290853 0.057863422 -1.038119
3.4767649 0.08427348 -1.0254505
3.5206449 0.058721095 -1.0388439
3.5657296 0.032467403 -1.052605
3.6172814 0.059626341 -1.0396091
3.6649971 0.032647282 -1.0537679
3.719429 0.060583167 -1.0404178
3.7700078 0.032837577 -1.0549979
3.881273 0.033039205 -1.0563008
3.9993694 0.033253193 -1.0576832
2.8404119 0.17612906 -1.0323195
3.3470495 0.10702602 -1.01238
3.5708756 0.085865013 -1.0258387
3.6702778 0.087545976 -1.0262491
3.77543 0.089324206 -1.0266831
3.8275733 0.061596207 -1.0412741
3.886847 0.091208376 -1.027143
3.9422553 0.062670477 -1.0421816
2.8391426 0.23100086 -1.0380214
4.0051022 0.093208216 -1.0276303
2.837955 0.28301197 -1.0358722
2.8367727 0.33480316 -1.0337319
2.8358307 0.37606123 -1.0320271
2.8346584 0.42741668 -1.0299048
2.8334911 0.47855616 -1.0277916
2.8323071 0.52944684 -1.036149
2.8311503 0.58012998 -1.0340312
2.8299987 0.63057131 -1.0319233
2.8288522 0.68080264 -1.0298245
2.8276889 0.73079675 -1.0381021
2.8265526 0.78058356 -1.0359989
2.8251956 0.84002757 -1.0334874
2.8258734 0.81034958 -1.0347412
2.824295 0.87948185 -1.0318205
2.823174 0.92859638 -1.0297455
2.821763 0.98970205 -1.0348477
2.8207023 1.0359219 -1.0354383
2.819597 1.0843508 -1.0333699
2.8184962 1.1325819 -1.0313098
2.8174505 1.177858 -1.0351791
2.8158522 1.2474793 -1.0365314
2.8165054 1.2188748 -1.0377665
2.8149843 1.2855084 -1.0348895
2.8139036 1.3328522 -1.0328455
2.8130417 1.3705963 -1.0312159
3.1109498 -2.2625475 -0.98011911
3.2523251 -2.2840836 -0.99547356
3.2953854 -2.2584927 -0.98046654
3.4535005 -2.2810977 -0.99673265
3.1506054 -2.2377934 -0.96557224
3.3394675 -2.2322936 -0.96510309
3.5016029 -2.2539585 -0.98085511
3.6795969 -2.2777424 -0.99814761
3.7337027 -2.2488554 -0.98129225
3.5509148 -2.2261362 -0.96457791
3.7892582 -2.2191963 -0.96398622
2.8479824 0.13710335 -0.99096596
2.8767505 0.11690132 -1.0014803
2.9254446 0.12925278 -0.99588871
3.0071812 0.12107027 -1.0010321
3.0769916 0.12330159 -1.0007924
2.842231 0.18589662 -0.98391294
2.8977742 0.17130825 -0.97440737
2.9447751 0.16273835 -0.97930694
2.9890368 0.16481662 -0.97882158
3.0438881 0.14483596 -0.98955387
3.0814533 0.16915786 -0.97780693
3.1400938 0.14863271 -0.98886061
3.1903887 0.1506186 -0.98849773
3.2269366 0.12809427 -1.0002772
3.2883573 0.14219929 -0.99396527
3.3924291 0.13338387 -0.99970871
3.434041 0.10915235 -1.0124098
3.4817815 0.13623986 -0.99940175
3.5257261 0.11139337 -1.0124414
3.6224935 0.11375865 -1.0124745
3.7247791 0.11625878 -1.0125096
2.8392503 0.23106177 -0.98503834
2.8851175 0.20257157 -0.95853853
3.0483005 0.19015631 -0.96683723
3.1199083 0.19405565 -0.96578181
3.195003 0.19814479 -0.96467525
3.2316043 0.17621018 -0.97615898
3.2931077 0.19122078 -0.96939296
3.3518856 0.15699311 -0.98733371
3.3973234 0.1839937 -0.97434008
3.4389961 0.16043149 -0.98670572
3.4867978 0.18819614 -0.97335809
3.5308053 0.16405526 -0.98604393
3.5760202 0.13925199 -0.99907792
3.6277039 0.16788007 -0.98534548
3.6755571 0.14243349 -0.99873602
3.7808514 0.14579897 -0.99837428
3.8330686 0.11890569 -1.0125468
3.8924174 0.14936501 -0.99799097
3.9479063 0.12171265 -1.0125862
2.838063 0.28306559 -0.9830097
3.5811641 0.1926284 -0.9723224
3.6808352 0.19730979 -0.97122848
3.730128 0.1719228 -0.98460722
3.7862713 0.20226189 -0.97007132
3.8385627 0.17620292 -0.98382556
3.9535544 0.18074183 -0.98299664
4.0108333 0.15314996 -0.9975841
2.8368809 0.33484942 -0.98098946
3.8979869 0.20750901 -0.96884519
2.8359385 0.37610176 -0.97938025
2.8347449 0.4274433 -0.98788106
2.8335769 0.4785772 -0.98586267
2.8324149 0.52946609 -0.98385382
2.8312573 0.58014226 -0.98185349
2.8301063 0.63057661 -0.97986263
2.8289592 0.68080097 -0.97788012
2.8277965 0.73078865 -0.98627198
2.8266599 0.78056854 -0.98428398
2.8253028 0.84000462 -0.98191035
2.8259802 0.81033051 -0.98309529
2.8244021 0.8794536 -0.980335
2.8233325 0.92576444 -0.98435324
2.8219199 0.98722309 -0.98627698
2.8208094 1.0358728 -0.9843117
2.8197036 1.0842953 -0.98235542
2.8186026 1.1325202 -0.98040724
2.8174355 1.182927 -0.98598611
2.8159585 1.2474027 -0.98589331
2.8166118 1.2188019 -0.98706204
2.8150907 1.2854267 -0.98433959
2.8140097 1.3327647 -0.98240554
2.8131483 1.370504 -0.98086333
3.0549893 -2.1942811 -0.93746537
3.1911623 -2.2124767 -0.95069486
2.9649448 -2.1533041 -0.91099602
3.1128249 -2.15646 -0.91519737
3.2326508 -2.186578 -0.93547535
3.2751052 -2.1600771 -0.91990197
3.407728 -2.191725 -0.94131303
3.6014841 -2.1976051 -0.94788611
3.4782262 -2.1498284 -0.91674405
3.6533594 -2.1683385 -0.93076378
3.7065911 -2.1383066 -0.91319382
2.8476808 0.2316864 -0.94538373
2.9040706 0.23578812 -0.94208717
2.9490471 0.20653057 -0.95735633
3.0000844 0.22069509 -0.95088327
3.0859144 0.21500631 -0.9548254
3.1592851 0.21955001 -0.95346868
2.841794 0.28342322 -0.93131363
2.9082742 0.27884525 -0.92050499
2.9533184 0.25031552 -0.93540925
3.0044243 0.26522863 -0.92856097
3.0549173 0.25812143 -0.93276966
3.0903742 0.26084697 -0.93184775
3.1441326 0.25346863 -0.93623406
3.1996167 0.24566253 -0.94085681
3.2362716 0.22431754 -0.95204502
3.2978573 0.24023347 -0.94482517
3.3567212 0.20695089 -0.96229208
3.4022169 0.23459409 -0.94897634
3.4439504 0.21170084 -0.96100664
3.5358841 0.21670698 -0.95965189
3.6329136 0.22199054 -0.95822185
2.8369884 0.3348957 -0.92826062
2.9575889 0.29409346 -0.91346574
3.024637 0.3002423 -0.91122258
3.1289282 0.28682566 -0.91928083
3.2042294 0.29317197 -0.91704273
3.2409379 0.27241626 -0.92793536
3.3026061 0.28923699 -0.92026186
3.3615553 0.25689942 -0.93725502
3.4071095 0.28518474 -0.9236173
3.4489028 0.26296037 -0.93531227
3.4918132 0.24014254 -0.94731963
3.540962 0.26934826 -0.93326491
3.586307 0.24599423 -0.94557226
3.6861126 0.25217485 -0.94372666
3.7354755 0.22757545 -0.95671046
3.7916899 0.25871295 -0.94177431
3.8440559 0.23348795 -0.95511049
3.9592009 0.23975797 -0.95341361
4.0165601 0.21307817 -0.96754378
2.8360465 0.3761422 -0.9267469
3.4968271 0.2920787 -0.92128605
3.5914493 0.29934943 -0.9188273
3.6381226 0.27609015 -0.93110383
3.6913891 0.30702877 -0.91623032
3.7408221 0.28321642 -0.92881972
3.8495476 0.29076073 -0.92640144
3.9035549 0.26564041 -0.93970567
4.0222864 0.27299315 -0.93751025
2.834852 0.42747667 -0.93536478
3.9648461 0.29876125 -0.92383713
2.8336849 0.47860342 -0.93346483
2.8325226 0.52948529 -0.93157399
2.8313651 0.58015448 -0.92969102
2.8301921 0.63058102 -0.93822479
2.8290451 0.68079978 -0.93633521
2.827904 0.73078024 -0.9344548
2.8267665 0.78055364 -0.93258214
2.8254099 0.83998173 -0.93034625
2.8260872 0.81031156 -0.93146253
2.8245089 0.87942541 -0.92886221
2.8233156 0.93098295 -0.93462241
2.8220272 0.98718053 -0.93505222
2.8209162 1.0358241 -0.93319952
2.8198099 1.0842401 -0.93135566
2.8187444 1.1305393 -0.93366104
2.8175917 1.1804667 -0.93784517
2.8160653 1.2473261 -0.93526775
2.8167179 1.218729 -0.93637013
2.815197 1.2853452 -0.93380231
2.8141158 1.3326774 -0.93197763
2.8132539 1.3704118 -0.93052304
3.0011277 -2.1285744 -0.896411
2.9035797 -2.0947623 -0.86877203
3.0380929 -2.1033103 -0.88151062
3.1723955 -2.1175048 -0.89226168
3.3185585 -2.1329527 -0.90396219
2.9492478 -2.0652862 -0.85686761
3.075866 -2.0774941 -0.86628449
3.2133155 -2.0907464 -0.87650716
3.2551789 -2.0633719 -0.86038947
3.3630474 -2.1051834 -0.88764328
3.4086084 -2.0767443 -0.87093097
3.5267856 -2.1209702 -0.89982104
3.5765707 -2.0913839 -0.88247097
3.7612333 -2.1074791 -0.89515829
3.6276283 -2.0610414 -0.86467737
3.8173428 -2.0758238 -0.87663859
2.8518314 0.33132014 -0.89602613
2.9124777 0.32189542 -0.89892626
2.9618583 0.33786431 -0.89152569
2.9928906 0.31926742 -0.9012621
3.0615332 0.32607141 -0.89870983
3.0948336 0.30667979 -0.90887409
3.1684062 0.31342685 -0.90641278
2.8442557 0.37928009 -0.88067597
2.9166803 0.36493874 -0.87735105
2.9661276 0.38162801 -0.86958939
3.0131023 0.35427365 -0.8839274
3.0659425 0.37136114 -0.87600839
3.0992923 0.35250479 -0.88590443
3.1532013 0.34677589 -0.8894636
3.2088408 0.34067288 -0.89323258
3.2456038 0.3205063 -0.90383005
3.307354 0.33823171 -0.89570308
3.3663893 0.30683857 -0.9122228
3.4120014 0.33576611 -0.89826322
3.4538555 0.31421012 -0.90962297
3.5460384 0.32197919 -0.906883
2.8349602 0.42750996 -0.88286209
2.9357412 0.39932254 -0.86031461
3.0333602 0.38978356 -0.86634016
3.1037498 0.39832187 -0.86293846
3.1379454 0.37956372 -0.87279588
3.2134521 0.38816559 -0.86942685
3.250268 0.36858779 -0.87972903
3.3121009 0.38721752 -0.87114871
3.371222 0.35676861 -0.88719499
3.4168925 0.38633785 -0.87291378
3.4588068 0.36545023 -0.88393849
3.5018404 0.34400487 -0.89525765
3.5511141 0.37459993 -0.88050628
3.5965898 0.352694 -0.8920877
3.6433303 0.33017895 -0.90399122
3.6966641 0.36187142 -0.88873982
3.7461677 0.33884594 -0.90093464
3.7971075 0.3151522 -0.91348326
3.8550382 0.34802142 -0.89769852
3.9091215 0.32375926 -0.91057253
4.0280108 0.33289474 -0.90748322
2.833792 0.47862968 -0.88108045
3.5068526 0.39592105 -0.8692342
3.6017296 0.40602806 -0.86535341
3.6485364 0.38425669 -0.87688398
3.7515121 0.3944639 -0.87305522
3.8025241 0.37157953 -0.88519812
3.9146874 0.38186553 -0.88144565
3.9704895 0.35775146 -0.89426696
2.8326297 0.52950466 -0.87930745
3.860528 0.4052698 -0.86900175
4.0337338 0.39278296 -0.87746298
2.8314729 0.58016682 -0.87754196
2.8302994 0.63058639 -0.88619047
2.8291526 0.68079835 -0.88441741
2.828011 0.73077196 -0.88265264
2.826874 0.7805385 -0.88089532
2.8257935 0.82760054 -0.88180941
2.8245943 0.87940258 -0.88769442
2.823473 0.92849892 -0.88593817
2.8221333 0.98713797 -0.88384026
2.8210227 1.0357749 -0.88210028
2.819917 1.0841848 -0.88036835
2.818759 1.1343285 -0.88467675
2.817698 1.1803987 -0.887079
2.8161712 1.2472496 -0.88465655
2.8168244 1.2186561 -0.88569278
2.8153031 1.2852639 -0.88327897
2.8142221 1.3325896 -0.88156408
2.8133602 1.3703192 -0.88019681
2.8923852 -2.0737784 -0.83021861
2.8929625 -2.0990474 -0.83095908
2.8917873 -2.0486429 -0.84111762
2.9224954 -2.0540197 -0.8180424
2.9712508 -2.0469692 -0.83046472
3.0251567 -2.0505397 -0.8200534
3.0689692 -2.0462799 -0.82680637
3.1211245 -2.0465906 -0.83559859
3.172482 -2.0495327 -0.81446999
3.1741443 -2.0374587 -0.84003305
3.2236457 -2.0426354 -0.82643956
3.2771173 -2.0404136 -0.83032215
3.3291826 -2.0408101 -0.82478565
3.3852549 -2.0334482 -0.83748561
3.4218681 -2.0413742 -0.81872815
3.4681199 -2.0407181 -0.84274101
3.5307953 -2.0340333 -0.82861334
3.5819628 -2.0342197 -0.8255344
3.6247892 -2.0288978 -0.83459526
3.6843643 -2.0322759 -0.8327356
3.7340224 -2.0291679 -0.82829463
3.7803919 -2.0235693 -0.83775884
3.8497372 -2.0294545 -0.82162029
2.8347907 0.43777758 -0.85102433
2.8566248 0.43064106 -0.84357882
2.9229941 0.42960936 -0.84493518
2.9703958 0.42538449 -0.84765649
3.0196204 0.42116478 -0.8503983
3.0703509 0.41664332 -0.85331076
3.1775239 0.40727091 -0.85937327
2.833878 0.47865069 -0.83918375
2.8668456 0.48393339 -0.81692964
2.9271946 0.47263542 -0.82336855
2.9746635 0.46913391 -0.82572728
3.0239577 0.46566501 -0.82809263
3.074759 0.46191779 -0.83061695
3.108207 0.44413131 -0.83997649
3.1571643 0.45079041 -0.83724856
3.2180624 0.43564978 -0.84562528
3.2549324 0.41666076 -0.85563242
3.3168471 0.43619436 -0.8465988
3.3760536 0.40668923 -0.86217195
3.421782 0.43690002 -0.84756899
3.4637575 0.41668046 -0.85825896
3.5561888 0.42721039 -0.85413486
3.7019379 0.41670302 -0.86125469
2.8327157 0.52951992 -0.83750492
3.0101466 0.49627662 -0.81253672
3.1126635 0.48993289 -0.81701857
3.1866386 0.50108224 -0.81235021
3.2226717 0.48312557 -0.82182795
3.2595956 0.46472511 -0.83153999
3.3215926 0.48516238 -0.82205343
3.3808846 0.45660064 -0.83715355
3.4266713 0.48745281 -0.82222915
3.4687061 0.46790087 -0.83258414
3.5118642 0.44782722 -0.8432157
3.5612628 0.47981048 -0.82776856
3.6068683 0.45935148 -0.83862448
3.6537423 0.43832365 -0.84978223
3.7568548 0.45007029 -0.84518164
3.8079393 0.42799503 -0.85691893
3.9202518 0.43995938 -0.85232508
3.9761326 0.41672879 -0.86470336
2.8315587 0.58017653 -0.83583325
3.5168738 0.49972332 -0.81720227
3.658947 0.49237978 -0.82268596
3.7072108 0.47152326 -0.83377522
3.762197 0.50566536 -0.81731385
3.8133535 0.48439866 -0.82864565
3.8660161 0.46250603 -0.84031111
3.9258149 0.4980405 -0.82321078
3.9817741 0.47569326 -0.83514637
4.0394559 0.45265785 -0.84744936
2.8304064 0.63059157 -0.83416951
2.8292596 0.68079692 -0.83251262
2.8281178 0.73076379 -0.8308636
2.8348632 0.78467679 -0.82514054
2.8257759 0.83287382 -0.83190894
2.8697953 0.83259451 -0.80899066
2.8244767 0.88920397 -0.83591872
2.8743355 0.87434655 -0.80922294
2.8233562 0.93826473 -0.83427703
2.8800132 0.92655593 -0.80951327
2.8222406 0.98709542 -0.83264291
2.8856926 0.97878474 -0.80980384
2.8211293 1.0357261 -0.83101565
2.8913748 1.0310355 -0.81009442
2.8216739 1.0847615 -0.82985812
2.8970592 1.0833058 -0.81038523
2.9719193 1.069714 -0.81031293
2.8227804 1.1338729 -0.82886237
2.9016082 1.1251376 -0.8106178
2.9766064 1.1127002 -0.81055206
2.8238916 1.1828418 -0.8278715
2.9072969 1.1774468 -0.81090873
2.9824677 1.1664531 -0.81085098
2.8162775 1.2471731 -0.83405787
2.8292618 1.2287031 -0.82313734
2.9129872 1.2297752 -0.81119978
2.9883308 1.2202268 -0.81115013
2.8154092 1.2851825 -0.83276832
2.8460169 1.2796049 -0.81147373
2.9175413 1.2716537 -0.81143272
2.9930234 1.2632623 -0.81138951
2.814328 1.3325021 -0.83116305
2.8515484 1.3306007 -0.81175733
2.9232364 1.3240209 -0.81172395
2.9988911 1.3170769 -0.81168872
3.0800629 1.3208086 -0.81171322
2.8134663 1.3702271 -0.82988322
2.8570819 1.381615 -0.8120411
2.9289334 1.3764079 -0.81201535
3.004761 1.3709121 -0.81198817
3.0849063 1.3651038 -0.81195956
2.9334924 1.4183329 -0.81224859
3.0094593 1.4139968 -0.81222785
3.089751 1.4094141 -0.81220597
3.0141587 1.4570957 -0.81246758
3.0945981 1.4537394 -0.81245255
3.0994463 1.4980794 -0.8126992
2.8927619 -2.0860755 -0.78396624
2.9127893 -2.0819743 -0.77704102
2.9603577 -2.0725877 -0.77661014
3.0191045 -2.0759025 -0.76648885
2.9117794 -2.0628214 -0.79990536
2.9834695 -2.0638301 -0.79400462
3.0205965 -2.0643625 -0.79092634
3.0738602 -2.0666602 -0.78325367
3.1215751 -2.0641747 -0.7860322
3.1695461 -2.0696652 -0.77185315
3.2213261 -2.0589786 -0.7918418
3.2722785 -2.0645585 -0.77731651
3.3254521 -2.0660951 -0.77126414
3.3986068 -2.06967 -0.75983489
3.3272209 -2.053468 -0.79799718
3.3729386 -2.053925 -0.79462922
3.4286005 -2.0596781 -0.77948934
3.478384 -2.0514045 -0.79445624
3.5174725 -2.0553169 -0.78409588
3.5792851 -2.0522871 -0.78729188
3.6325164 -2.0481515 -0.7932868
3.66432 -2.0511918 -0.7851612
3.7193515 -2.0516622 -0.78127652
3.775929 -2.0521145 -0.77734977
3.7782979 -2.0378296 -0.80757296
3.8233225 -2.0467248 -0.78631473
2.8369203 0.53028983 -0.80730933
2.9137664 0.52311486 -0.80767059
2.9931567 0.5260343 -0.8072921
3.0789657 0.51828384 -0.80762058
3.1682634 0.52126473 -0.80727261
3.2642577 0.51278073 -0.80745184
2.8425829 0.58236104 -0.80759889
2.9181278 0.57638198 -0.80756903
2.997972 0.57006246 -0.80753726
3.0824935 0.56337261 -0.80750346
3.172116 0.55627894 -0.80746758
3.2673171 0.54874378 -0.80742955
3.3743267 0.52931732 -0.8089726
3.4752452 0.51933962 -0.80727434
3.6120064 0.51266444 -0.81190073
2.8471148 0.62403351 -0.80783063
2.9227974 0.61920691 -0.80780721
3.0027885 0.61410564 -0.80778253
3.0874662 0.60870492 -0.80775595
3.1772549 0.60297841 -0.80772763
3.2726331 0.59689534 -0.80769771
3.3741393 0.59042144 -0.80766577
3.4795277 0.55784303 -0.8074888
3.5950937 0.54958487 -0.80744743
3.7188749 0.5407396 -0.80740327
3.8533864 0.54549623 -0.8074351
3.8715031 0.51973009 -0.81162649
3.9965329 0.53581697 -0.80738693
4.0451765 0.51251942 -0.81744248
2.8527818 0.67614347 -0.80812055
2.9286361 0.67275852 -0.80810505
3.007606 0.65816337 -0.80802757
3.0924404 0.65405309 -0.80800843
3.1823959 0.6496945 -0.80798781
3.2779512 0.64506459 -0.80796587
3.3796477 0.64013708 -0.80794263
3.485239 0.60919756 -0.80777472
3.6010242 0.60270089 -0.80774319
3.7250426 0.59574217 -0.80770952
3.8582046 0.58827043 -0.80767322
3.9998844 0.56542128 -0.80755192
2.8584507 0.72827262 -0.80841053
2.9344778 0.72633046 -0.80840302
3.0136304 0.71325696 -0.80833399
3.0974159 0.69941682 -0.80826086
3.1875381 0.69642729 -0.80824804
3.2832718 0.69325155 -0.80823421
3.3851581 0.68987167 -0.80821961
3.4909523 0.66057229 -0.80806071
3.6069577 0.65583855 -0.80803913
3.7312129 0.65076792 -0.80801594
3.8630245 0.63105708 -0.80791152
4.0049124 0.60984123 -0.80779928
2.8629875 0.76999152 -0.80864251
2.9391525 0.76920444 -0.80864149
3.0196569 0.76837248 -0.8086406
3.103637 0.75614411 -0.80857635
3.192682 0.74317688 -0.80850828
3.288594 0.74145627 -0.80850267
3.3906703 0.73962516 -0.80849653
3.4966683 0.71196717 -0.80834699
3.6128933 0.70899779 -0.80833513
3.7358425 0.69205177 -0.80824578
3.8678458 0.67385942 -0.80814993
4.0116186 0.66908991 -0.80812913
2.9449983 0.82281715 -0.8089397
3.0244801 0.812482 -0.80888593
3.1098604 0.81289434 -0.80889189
3.1978271 0.78994262 -0.80876839
3.2939174 0.78967875 -0.80877113
3.3961854 0.7893976 -0.80877382
3.5023863 0.76338238 -0.80863327
3.6188312 0.76217854 -0.8086313
3.7404737 0.73335004 -0.80847579
3.872669 0.71667397 -0.80838835
3.875885 0.74522543 -0.80854732
4.0166507 0.7135433 -0.80837673
2.9508464 0.87645024 -0.80923802
3.0293047 0.8566063 -0.80913126
3.1148417 0.85831296 -0.8091445
3.2029738 0.83672512 -0.80902857
3.2992425 0.83791858 -0.80903947
3.4017019 0.83918881 -0.80905104
3.5081067 0.81481773 -0.80891973
3.6247718 0.81538105 -0.80892754
3.7466502 0.78843355 -0.80878258
3.8807106 0.7880649 -0.80878592
4.0216851 0.75801343 -0.80862439
2.9555266 0.91937327 -0.80947673
3.0353382 0.91178316 -0.80943811
3.1198244 0.90374702 -0.80939722
3.2094097 0.89522761 -0.80935401
3.304569 0.88617629 -0.80930793
3.4072201 0.88899899 -0.8093282
3.513829 0.86627311 -0.80920619
3.6292286 0.85529631 -0.80914986
3.7528296 0.84354031 -0.80908942
3.8855381 0.83091694 -0.80902457
4.0283995 0.81732929 -0.80895472
2.9613788 0.97304732 -0.80977535
3.0413737 0.96698195 -0.80974519
3.124809 0.94919705 -0.80965006
3.2158484 0.95375443 -0.80967957
3.3098977 0.93445158 -0.80957639
3.4127395 0.93882763 -0.80960542
3.5195541 0.91774887 -0.80949295
3.633687 0.89522487 -0.80937219
3.7590113 0.89867038 -0.80939645
3.890367 0.87378448 -0.80926329
4.0334373 0.86183304 -0.80920255
2.9672339 1.0267421 -0.81007391
3.0462041 1.0111583 -0.80999088
3.131042 1.0060323 -0.80996621
3.2210019 1.0005956 -0.80993998
3.3152287 0.98274475 -0.80984503
3.4182613 0.9886753 -0.80988264
3.5252798 0.9692446 -0.80977941
3.6396337 0.94848132 -0.80966884
3.7636497 0.94003242 -0.80962676
3.8968077 0.93096191 -0.80958164
4.0384765 0.90635353 -0.80945045
3.0510361 1.0553495 -0.81023675
3.1372776 1.0628906 -0.81028247
3.2261569 1.047453 -0.81020063
3.3205607 1.0310556 -0.81011373
3.4224036 1.0260729 -0.81009066
3.5310075 1.0207604 -0.81006593
3.6455827 1.0017596 -0.80996543
3.7682891 0.98140866 -0.80985713
3.9032514 0.9881646 -0.80990016
4.0451989 0.96573663 -0.80978107
3.0570786 1.1106101 -0.81054401
3.1422679 1.1083957 -0.81053561
3.2313137 1.0943276 -0.81046134
3.3258955 1.0793843 -0.81038254
3.4265473 1.0634824 -0.81029874
3.5367377 1.0722964 -0.81035256
3.6515322 1.055059 -0.81026191
3.774478 1.0365969 -0.81016445
3.9080861 1.0310822 -0.81013918
4.0502424 1.0102906 -0.81002927
3.0631235 1.1658924 -0.81085151
3.1472604 1.1539165 -0.81078869
3.2364719 1.1412185 -0.81072223
3.3312318 1.1277306 -0.81065142
3.4320745 1.1133772 -0.81057626
3.54247 1.1238525 -0.81063932
3.6574845 1.10838 -0.81055844
3.7806687 1.0918081 -0.81047189
3.9129221 1.074015 -0.81037825
4.0552874 1.0548617 -0.81027746
3.0679612 1.2101355 -0.81109768
3.1522541 1.199453 -0.81104195
3.2416327 1.1881262 -0.81098312
3.3365703 1.1760948 -0.81092042
3.437603 1.163291 -0.81085384
3.5482044 1.1754287 -0.8109262
3.663439 1.1617223 -0.81085521
3.7868612 1.1470422 -0.81077915
3.9193726 1.1312801 -0.81069708
4.0620174 1.1143121 -0.81060851
3.0728006 1.2543935 -0.81134385
3.1572502 1.2450054 -0.81129533
3.2467949 1.2350508 -0.81124413
3.3419108 1.2244769 -0.81118953
3.4431341 1.2132239 -0.81113154
3.5525069 1.2141236 -0.81114143
3.667907 1.2017429 -0.81107783
3.7915065 1.188482 -0.81100971
3.9242129 1.1742444 -0.81093645
4.0670667 1.1589167 -0.81085688
3.076431 1.2875965 -0.81152856
3.1634972 1.3019688 -0.81161219
3.2532501 1.2937307 -0.81157047
3.3485892 1.2849802 -0.81152606
3.4486675 1.2631758 -0.81140941
3.5568101 1.2528311 -0.81135672
3.6723757 1.2417768 -0.81130052
3.796154 1.2299366 -0.81124026
3.9290528 1.217224 -0.81117553
4.0721173 1.2035381 -0.81110537
3.1697466 1.3589551 -0.81192911
3.2597091 1.3524355 -0.81189704
3.3552704 1.3455098 -0.81186271
3.4542024 1.3131467 -0.81168735
3.5625505 1.3044581 -0.81164396
3.6783364 1.2951734 -0.81159759
3.8023524 1.2852285 -0.81154788
3.9355087 1.2745508 -0.81149441
4.0788546 1.2630558 -0.81143677
3.1747484 1.4045627 -0.81218278
3.2648778 1.3994187 -0.81215835
3.3606176 1.3939539 -0.81213218
3.4597397 1.3631364 -0.81196541
3.5682931 1.3561054 -0.81193119
3.6842995 1.3485919 -0.81189466
3.8085535 1.340544 -0.81185549
3.9419675 1.3319027 -0.81181347
4.0839086 1.3077109 -0.81168538
3.1797521 1.4501861 -0.81243652
3.2700484 1.4464184 -0.81241971
3.3659666 1.4424162 -0.81240177
3.4652793 1.4131452 -0.81224358
3.5740376 1.4077729 -0.81221861
3.6902652 1.4020319 -0.8121919
3.8147571 1.3958824 -0.81216323
3.9468131 1.3749322 -0.81205267
4.088964 1.3523824 -0.81193376
3.184757 1.4958253 -0.81269038
3.2752209 1.4934351 -0.8126812
3.3713179 1.4908962 -0.81267142
3.4708211 1.4631732 -0.81252193
3.5797844 1.4594607 -0.81250608
3.6962328 1.4554937 -0.81248927
3.8194118 1.4374008 -0.8123942
3.9516606 1.4179775 -0.81229204
4.0957065 1.4119669 -0.81226516
3.189764 1.5414804 -0.81294441
3.2803955 1.5404688 -0.81294286
3.3766713 1.5393939 -0.81294107
3.4763646 1.5132198 -0.81280023
3.5855334 1.5111688 -0.81279367
3.7022033 1.5089771 -0.8127867
3.8240676 1.4789339 -0.81262517
3.9581265 1.4753917 -0.8126114
4.1024528 1.4715786 -0.81259686
3.2855713 1.587519 -0.81320453
3.3820262 1.5879097 -0.81321096
3.4819102 1.5632857 -0.8130787
3.591285 1.5628973 -0.81308132
3.7066822 1.5491034 -0.81300992
3.8302779 1.5343307 -0.81293333
3.9645948 1.5328312 -0.81293094
4.1075139 1.516304 -0.81284553
3.3873837 1.6364434 -0.81348097
3.487458 1.6133705 -0.81335729
3.5970387 1.6146461 -0.81336915
3.711163 1.5892429 -0.81323314
3.8364906 1.5897506 -0.8132416
3.9694488 1.5759267 -0.81317073
4.1125774 1.5610466 -0.81309444
3.4083078 1.6579657 -0.78148198
3.459214 1.6591607 -0.79331481
3.5053582 1.6573457 -0.79146498
3.5781217 1.6590377 -0.79960692
3.6228349 1.6632192 -0.79225254
3.6810753 1.6646636 -0.79187381
3.7252014 1.6505734 -0.80618167
3.842706 1.6451938 -0.81354994
3.9743035 1.6190375 -0.81341052
4.1176424 1.6058025 -0.81334335
3.8036926 1.6677052 -0.79107738
3.868288 1.6693075 -0.79065835
3.9352345 1.6709678 -0.79022288
3.9919116 1.6674258 -0.80171144
4.0767131 1.6744775 -0.78930402
4.132318 1.6591612 -0.80533445
2.8931386 -2.0983701 -0.73769015
2.9175324 -2.0976095 -0.72569883
2.9720783 -2.0932825 -0.7320317
3.0242214 -2.0922191 -0.73155701
3.0705173 -2.0901029 -0.73362559
3.1176193 -2.0919216 -0.72729272
3.1655037 -2.0978153 -0.71225762
3.1192455 -2.0800428 -0.75244361
3.167165 -2.0857646 -0.73777515
3.217761 -2.0834856 -0.73996413
3.2692719 -2.0852871 -0.73343718
3.3223116 -2.0871487 -0.72669798
3.3691375 -2.0795269 -0.74043769
3.4247072 -2.08568 -0.72444665
3.4744143 -2.0777669 -0.73865515
3.5134356 -2.0819597 -0.72769707
3.5642202 -2.0828345 -0.72317278
3.6163743 -2.083703 -0.71858811
3.5360172 -2.0662329 -0.75993264
3.5970013 -2.072459 -0.74350435
3.6402092 -2.0675471 -0.75167739
3.672224 -2.0707071 -0.74327964
3.7047122 -2.073971 -0.73463714
3.7730381 -2.07111 -0.73713136
3.8319607 -2.0670357 -0.74269968
3.4091983 1.6582576 -0.73281455
3.4601254 1.6594577 -0.74387729
3.5131598 1.6608471 -0.73017532
3.5674603 1.6621289 -0.7415579
3.623569 1.6634532 -0.7533195
3.6820796 1.6649816 -0.73908126
3.7420983 1.6664008 -0.75120616
3.8047493 1.6680344 -0.73643047
3.8691022 1.6695586 -0.74894154
3.9360709 1.6712241 -0.74774808
4.0055223 1.6729512 -0.74650908
4.0775981 1.6747437 -0.7452246
4.1524477 1.6766049 -0.74388939
2.8929825 -2.0852344 -0.66748017
2.9456403 -2.0864983 -0.69041359
3.007236 -2.1056376 -0.70393878
3.1158299 -2.1038122 -0.70211893
3.2320907 -2.1018577 -0.70017058
2.8918521 -2.0347383 -0.65470636
2.9179842 -2.0162544 -0.6597693
3.0256834 -2.067035 -0.6828779
3.1098418 -2.0465715 -0.67495495
3.2673535 -2.0977247 -0.70710444
3.3276265 -2.0809858 -0.69219267
3.3947549 -2.0954521 -0.7052477
3.5319412 -2.0930052 -0.70324838
3.6800847 -2.0903625 -0.70108938
3.1984394 -2.0250282 -0.666614
3.4285235 -2.058917 -0.68375856
3.5352778 -2.0355663 -0.67483467
3.7252383 -2.085547 -0.70895487
3.8162074 -2.0739353 -0.69446832
3.6484168 -2.0108202 -0.6653772
3.4100904 1.6585501 -0.68413484
3.4610376 1.659755 -0.69442707
3.5140944 1.6611494 -0.67992318
3.5684166 1.662436 -0.69048429
3.6245487 1.6637653 -0.70139712
3.6830838 1.6652993 -0.68627405
3.7431288 1.6667242 -0.69749105
3.805542 1.6682814 -0.69543558
3.8701878 1.6698941 -0.69330573
3.9369073 1.6714808 -0.70526248
4.0066686 1.6732998 -0.68880993
4.0784822 1.6750098 -0.70113373
4.153358 1.6768767 -0.69895077
2.8930712 -2.084898 -0.62090325
2.8919182 -2.0344911 -0.61984509
2.89077 -1.9842854 -0.61879098
2.9964252 -1.9952742 -0.65156096
3.2918379 -2.0023181 -0.65782106
2.8900788 -1.9386549 -0.61404634
2.9678297 -1.9251397 -0.6209538
3.078851 -1.9732286 -0.64293575
3.1655724 -1.9500338 -0.63386083
3.3904378 -1.9783424 -0.64853841
2.8887932 -1.8968213 -0.60540038
3.0485804 -1.9015898 -0.61166048
3.2569349 -1.925598 -0.62430048
3.4946864 -1.9529936 -0.63872385
3.7685282 -1.9845479 -0.65533674
3.3533213 -1.8998185 -0.61421436
3.6050844 -1.9261501 -0.62833065
3.7221906 -1.8976748 -0.6173057
3.4109826 1.6588429 -0.63544261
3.461951 1.6600524 -0.64496398
3.515029 1.6614522 -0.62965786
3.5693746 1.6627439 -0.63939714
3.6255298 1.6640788 -0.64946061
3.6840897 1.6656179 -0.6334523
3.7441599 1.6670482 -0.64376098
3.8063359 1.6685289 -0.65443087
3.8712747 1.6702305 -0.63765359
3.9380233 1.6718225 -0.648601
4.0075293 1.6735611 -0.64552456
4.0796623 1.6753653 -0.64233071
4.1542692 1.6771485 -0.65400016
2.8931596 -2.0845616 -0.57433796
2.8920066 -2.0341616 -0.57337278
2.8908584 -1.9839625 -0.57241154
2.8897145 -1.9339634 -0.57145405
2.8885751 -1.8841625 -0.57050043
2.8875425 -1.8386596 -0.56578994
2.9398751 -1.856577 -0.59103256
3.0190048 -1.831596 -0.58110344
3.1334889 -1.8768265 -0.60188842
3.2228863 -1.8507547 -0.59159988
3.455157 -1.8725814 -0.60355794
2.8995771 -1.7934694 -0.55955374
3.1021609 -1.8053434 -0.57066882
3.3171377 -1.8232676 -0.58075273
3.5629182 -1.8437597 -0.59228152
3.8466368 -1.867415 -0.60558987
3.1896601 -1.7777202 -0.55968952
3.4166484 -1.7942458 -0.56930017
3.6771376 -1.8132104 -0.5803293
3.7984133 -1.780774 -0.5676387
3.411875 1.6591362 -0.58673775
3.4628644 1.66035 -0.59548783
3.5159643 1.6617547 -0.57937902
3.5703325 1.6630515 -0.588296
3.6265113 1.6643915 -0.59750986
3.684845 1.6658568 -0.59382677
3.7451925 1.6673727 -0.59001565
3.8073955 1.6688591 -0.59974492
3.8720908 1.6704828 -0.59590441
3.9391415 1.6721655 -0.59192294
4.0083914 1.6738234 -0.60222834
4.0805488 1.6756324 -0.59821725
4.1554852 1.6775116 -0.59405035
2.8932481 -2.0842257 -0.52778393
2.8920951 -2.0338323 -0.52691191
2.8909469 -1.98364 -0.52604336
2.8898029 -1.9336474 -0.52517825
2.8886638 -1.8838533 -0.52431661
2.8875291 -1.8342568 -0.52345836
2.8863988 -1.7848562 -0.52260351
2.8854816 -1.7357793 -0.5217889
2.9901006 -1.7631917 -0.55124015
3.0715625 -1.7355242 -0.54017597
3.2818513 -1.7486156 -0.54812139
2.8841732 -1.6865683 -0.50945044
2.9618456 -1.6963228 -0.52204728
3.1572275 -1.7064294 -0.52854097
3.3791218 -1.7179075 -0.53591585
3.521873 -1.7635583 -0.55719012
3.0416679 -1.6673114 -0.51038468
3.2474301 -1.6757936 -0.51628977
3.4819036 -1.6854595 -0.52301878
3.6333168 -1.7310565 -0.54436421
3.751549 -1.6965752 -0.53075719
3.4506788 1.6660833 -0.55623406
3.5992031 1.6763378 -0.55410409
3.6272476 1.6646266 -0.55853784
3.6853483 1.6660165 -0.56740481
3.595988 1.7115252 -0.55317533
3.7868867 1.6856548 -0.5554319
3.8726349 1.6706511 -0.56806606
3.9923539 1.6807424 -0.5565238
4.08114 1.6758107 -0.56880212
3.5927842 1.7465894 -0.55224991
3.7712414 1.7431884 -0.55248702
3.9710636 1.7264378 -0.55309319
4.1948376 1.7076796 -0.55377203
3.7662745 1.7921773 -0.55119359
3.9652374 1.7782375 -0.55172509
4.1879745 1.7626319 -0.55232012
3.762567 1.8287512 -0.55022794
3.9594448 1.8297374 -0.55036485
4.1811533 1.8172472 -0.55087703
3.9536853 1.88094 -0.54901254
4.176064 1.8579993 -0.54980034
3.9493868 1.9191574 -0.54800314
4.171 1.8985445 -0.54872906
4.1642833 1.9523301 -0.54730791
4.1576066 2.0057895 -0.5458954
2.8933365 -2.0838897 -0.48124123
2.8921838 -2.0335035 -0.48046225
2.8910351 -1.9833176 -0.47968644
2.8898914 -1.9333317 -0.47891366
2.888752 -1.8835441 -0.47814393
2.8876173 -1.8339541 -0.4773773
2.8864868 -1.7845603 -0.4766137
2.8853612 -1.7353613 -0.47585312
2.8842397 -1.6863559 -0.47509545
2.8831227 -1.6375439 -0.47434089
2.9342179 -1.6309384 -0.49350259
3.12556 -1.6368207 -0.4981274
2.8820319 -1.5888553 -0.46218348
2.9071968 -1.5669898 -0.46558461
3.0124531 -1.60065 -0.481271
3.2138422 -1.6047348 -0.48522884
3.3425395 -1.6434909 -0.50337195
3.5906787 -1.6511191 -0.50936961
3.0946312 -1.5688353 -0.4684231
3.3068671 -1.5709246 -0.47163716
3.4429688 -1.6093819 -0.48973173
3.5491755 -1.5733103 -0.47530669
3.7059872 -1.6147165 -0.49490067
2.8735564 -1.218423 -0.45662782
2.8727281 -1.1832236 -0.46731755
2.9084446 -1.1866913 -0.4953151
2.8719451 -1.1480055 -0.45557165
2.9832442 -1.1461667 -0.47172168
3.1210597 -1.1760839 -0.49209511
3.1778088 -1.1470957 -0.4752678
3.3343923 -1.1790565 -0.49717614
3.5782578 -1.1824546 -0.50298434
3.3988261 -1.1481509 -0.47929603
3.6520848 -1.1493602 -0.48391181
3.7288098 -1.1149666 -0.46409068
2.893425 -2.0835536 -0.43470991
2.892272 -2.033174 -0.43402398
2.8911235 -1.9829952 -0.43334076
2.8899798 -1.9330161 -0.43266034
2.8888404 -1.8832352 -0.43198255
2.8877053 -1.8336517 -0.43130746
2.886575 -1.7842643 -0.43063501
2.8854492 -1.7350719 -0.42996523
2.8843277 -1.6860731 -0.42929813
2.8832107 -1.6372672 -0.42863357
2.882098 -1.5886527 -0.42797169
2.8809898 -1.5402284 -0.42731243
2.9838953 -1.5354879 -0.45281214
2.8801928 -1.4960964 -0.42295587
2.9559729 -1.4717751 -0.42498615
3.064415 -1.5024167 -0.43940344
3.1810577 -1.5353757 -0.45491096
3.2720704 -1.5001404 -0.44068173
3.4050283 -1.5352482 -0.45729512
2.8790822 -1.4558719 -0.41482297
3.0348876 -1.4375119 -0.41104513
3.1490483 -1.4676563 -0.42530981
3.2381184 -1.4310731 -0.41047722
2.8736219 -1.218256 -0.42292884
2.8728154 -1.1830055 -0.42244899
2.8716769 -1.133849 -0.42849308
2.8705528 -1.0836484 -0.41551557
2.9048905 -1.0913893 -0.43708253
2.954215 -1.0631504 -0.42059898
3.0352423 -1.117996 -0.45532063
3.0889356 -1.0889063 -0.43838462
3.2364964 -1.1171168 -0.45786545
3.4656138 -1.1161162 -0.46076259
3.1444092 -1.0588521 -0.42088708
3.2972245 -1.0860959 -0.43985817
3.360101 -1.0539774 -0.42121381
3.5348868 -1.0828893 -0.4415395
3.6067874 -1.0484024 -0.42158753
3.8086073 -1.0791963 -0.44347599
3.8916757 -1.0419675 -0.42202017
2.8935132 -2.0832176 -0.38818991
2.89236 -2.0328445 -0.38759694
2.8912117 -1.9826726 -0.38700637
2.8900678 -1.9327003 -0.38641816
2.8889284 -1.8829263 -0.38583228
2.8877938 -1.8333496 -0.38524866
2.8866632 -1.7839684 -0.38466743
2.8855376 -1.7347826 -0.3840884
2.8844159 -1.6857903 -0.38351172
2.8832991 -1.6369909 -0.38293728
2.8821859 -1.5883826 -0.38236511
2.881078 -1.5399648 -0.3817952
2.8799739 -1.4917361 -0.38122746
2.8786004 -1.4317245 -0.38052103
2.8772542 -1.3719248 -0.36851737
2.9286647 -1.4094636 -0.39777231
3.0060253 -1.3740695 -0.38332579
3.1177869 -1.4015189 -0.39640021
2.9019501 -1.3485078 -0.37115049
2.8738959 -1.2258674 -0.37435141
2.8729031 -1.1827874 -0.37759092
2.8718309 -1.1359433 -0.37703955
2.8704963 -1.0776503 -0.37635332
2.8713446 -1.0204165 -0.37594429
3.0051022 -1.0340164 -0.40359303
2.8683953 -0.9848839 -0.36413994
2.9258914 -0.98215359 -0.37071991
3.0576279 -1.0039445 -0.38603938
3.2017529 -1.0277845 -0.40279964
3.2610633 -0.99565196 -0.38409191
3.4252424 -1.0207025 -0.40189803
3.1118722 -0.97288817 -0.36791134
3.3224609 -0.96240336 -0.36473331
3.4927888 -0.98621154 -0.3818754
3.6814804 -1.0125867 -0.40086576
3.7591331 -0.97536284 -0.3793284
2.8936238 -2.0827982 -0.33005649
2.8924706 -2.0324335 -0.32957968
2.8913224 -1.9822699 -0.32910481
2.8901784 -1.9323059 -0.32863182
2.889039 -1.8825401 -0.32816073
2.8879044 -1.8329715 -0.32769147
2.8867517 -1.7836729 -0.33871087
2.8856256 -1.7344935 -0.33822265
2.8845041 -1.6855077 -0.33773634
2.8833869 -1.6367143 -0.33725193
2.8822742 -1.5881124 -0.3367694
2.881166 -1.5397012 -0.33628881
2.8800616 -1.4914786 -0.33581007
2.8786876 -1.4314748 -0.33521438
2.8773203 -1.3717432 -0.33462137
2.876231 -1.3241742 -0.33414912
2.8753827 -1.2807761 -0.32998371
2.9778061 -1.3120404 -0.356224
2.8740664 -1.2295884 -0.33321017
2.8729906 -1.1825694 -0.33274344
2.8719187 -1.1357312 -0.33227846
2.8705835 -1.0774456 -0.33169979
2.8692553 -1.0194209 -0.33112377
2.868197 -0.97320807 -0.33066493
2.87815 -0.94233662 -0.33145866
2.9422781 -0.94082928 -0.32669777
2.9980798 -0.94354093 -0.33219457
3.078558 -0.93742603 -0.32834798
3.1518342 -0.93569911 -0.32318255
3.1679413 -0.94080478 -0.34918216
3.2277932 -0.93369889 -0.33016023
3.30829 -0.93179703 -0.3247821
3.3919261 -0.92960012 -0.33214775
3.480763 -0.92749512 -0.32655144
3.568085 -0.93775237 -0.34772786
3.6718483 -0.92272913 -0.32850504
3.7758856 -0.92025757 -0.32234129
3.8399086 -0.93664169 -0.35692474
3.8847294 -0.91741955 -0.33068889
2.893734 -2.0823781 -0.27193964
2.8925815 -2.0320225 -0.27157894
2.8914325 -1.9818671 -0.27121967
2.8902888 -1.9319116 -0.27086183
2.8891494 -1.8821542 -0.27050543
2.8880146 -1.832594 -0.27015045
2.8868618 -1.7833031 -0.28128135
2.885736 -1.7341321 -0.2809065
2.884614 -1.6851544 -0.28053311
2.8834972 -1.6363691 -0.28016117
2.8823838 -1.5877749 -0.2797907
2.8812757 -1.5393714 -0.27942169
2.8801715 -1.4911569 -0.27905411
2.8787978 -1.4311628 -0.27859673
2.87743 -1.3714405 -0.27814144
2.8763864 -1.3262763 -0.28230363
2.8752341 -1.2765598 -0.28866807
2.8741536 -1.2293643 -0.28828654
2.8730776 -1.1823514 -0.28790653
2.8720059 -1.1355191 -0.28752798
2.8706715 -1.0772409 -0.2870568
2.8693426 -1.0192233 -0.28658774
2.8682845 -0.9730165 -0.2862142
2.8808014 -0.94302583 -0.28713417
2.9450395 -0.94153267 -0.28139609
3.0114233 -0.93979311 -0.28699687
3.0128636 -0.94015217 -0.26382267
3.0815587 -0.93815827 -0.28099653
3.1541848 -0.93625993 -0.28684175
3.2302496 -0.93427175 -0.29296371
3.3117182 -0.93257767 -0.27396002
3.3955169 -0.93039811 -0.28006893
3.4835887 -0.9281075 -0.28648934
3.5762689 -0.92569691 -0.2932457
3.6749694 -0.9233709 -0.28628808
3.7791741 -0.92091537 -0.27893528
3.8881979 -0.91809386 -0.2860564
2.8938227 -2.0820427 -0.22545935
2.8926692 -2.0316937 -0.22519149
2.891521 -1.9815451 -0.22492468
2.8903768 -1.9315963 -0.22465895
2.8892376 -1.8818455 -0.22439425
2.8881025 -1.8322916 -0.22413062
2.8869722 -1.7829341 -0.22386801
2.8858464 -1.7337708 -0.22360647
2.8847246 -1.6848011 -0.22334592
2.8836071 -1.6360238 -0.22308639
2.8824944 -1.5874377 -0.22282788
2.8813858 -1.5390419 -0.2225704
2.8802812 -1.4908354 -0.22231391
2.8789072 -1.4308507 -0.22199477
2.8775396 -1.3711383 -0.22167708
2.8763835 -1.3212469 -0.22817023
2.8753436 -1.2762724 -0.23242028
2.8742633 -1.2290846 -0.2321475
2.8731863 -1.1820787 -0.23187578
2.8721149 -1.1352541 -0.23160513
2.8707805 -1.0769854 -0.23126827
2.8694518 -1.0189768 -0.23093292
2.8683934 -0.97277695 -0.23066582
2.8841221 -0.9438892 -0.23162661
2.9484968 -0.94241321 -0.22467774
3.0150259 -0.94069147 -0.22902322
3.0845647 -0.93889171 -0.23356535
3.1573231 -0.9370088 -0.23831773
3.2335296 -0.9350366 -0.24329533
3.3151524 -0.93335986 -0.22304599
3.3991146 -0.9311977 -0.22789359
3.4873619 -0.9289254 -0.23298858
3.5802312 -0.92653394 -0.23835045
3.6780956 -0.92401391 -0.2440007
3.7824674 -0.92157423 -0.23546976
3.8916712 -0.91876918 -0.24136096
2.8939106 -2.0817072 -0.17899041
2.8927577 -2.0313649 -0.17881532
2.8916087 -1.981223 -0.17864092
2.8904648 -1.9312809 -0.17846721
2.8893256 -1.8815366 -0.1782942
2.8881907 -1.8319896 -0.17812188
2.8870599 -1.7826383 -0.17795023
2.8859341 -1.7334818 -0.17777926
2.8848124 -1.6845186 -0.17760897
2.8836954 -1.6357478 -0.17743933
2.8825824 -1.5871681 -0.17727035
2.8814735 -1.5387784 -0.17710203
2.8803692 -1.4905779 -0.17693438
2.8789954 -1.4306011 -0.17672576
2.8776274 -1.3708963 -0.1765181
2.8765383 -1.3233488 -0.17635272
2.8754535 -1.2759854 -0.17618798
2.874373 -1.2288049 -0.17602389
2.8732958 -1.1818064 -0.1758604
2.8722239 -1.1349893 -0.17569761
2.8708897 -1.0767295 -0.17549498
2.8695612 -1.0187302 -0.17529325
2.8685026 -0.97253752 -0.17513257
2.8874485 -0.94475406 -0.17601676
2.951268 -0.94311881 -0.17921762
3.0179126 -0.9414112 -0.18256019
3.0875757 -0.93962634 -0.18605414
3.1604667 -0.93775886 -0.18970998
3.236815 -0.9358027 -0.19353919
3.3177326 -0.93394738 -0.1848029
3.402719 -0.93199891 -0.17562144
3.4911423 -0.92974484 -0.17938605
3.5842013 -0.92737246 -0.18334801
3.6822705 -0.9248724 -0.18752326
3.7857661 -0.92223406 -0.19192955
3.8951507 -0.91944563 -0.19658653
2.8939991 -2.0813715 -0.13253281
2.8928456 -2.0310359 -0.13245042
2.8916969 -1.9809011 -0.1323684
2.890553 -1.9309657 -0.1322867
2.8894136 -1.881228 -0.13220531
2.8882787 -1.8316875 -0.13212423
2.8871484 -1.7823428 -0.1320435
2.8857412 -1.7209291 -0.131943
2.8863032 -1.745456 -0.13198313
2.8849006 -1.6842362 -0.13188297
2.8837838 -1.6354716 -0.13180317
2.8826704 -1.5868983 -0.13172369
2.8815615 -1.5385152 -0.13164452
2.8804572 -1.4903209 -0.13156565
2.8790829 -1.4303517 -0.13146749
2.8777156 -1.3706547 -0.13136981
2.876626 -1.3231132 -0.13129202
2.875541 -1.2757558 -0.13121453
2.8744605 -1.2285814 -0.13113733
2.8733835 -1.1815889 -0.13106042
2.8723109 -1.1347772 -0.13098383
2.8709772 -1.0765251 -0.13088854
2.8696482 -1.018533 -0.13079363
2.8685899 -0.97234613 -0.13071805
2.8901148 -0.94544721 -0.13144684
2.9540429 -0.94382572 -0.13368408
3.0208046 -0.94213247 -0.13602045
3.0905921 -0.94036239 -0.13846274
3.162828 -0.93832219 -0.15320168
3.1644039 -0.93869823 -0.12883481
3.2401063 -0.93657023 -0.14369509
3.3203161 -0.9345358 -0.14650209
3.4054265 -0.93260062 -0.13635668
3.49493 -0.93056577 -0.1256814
3.5881791 -0.92821258 -0.12823805
3.6864541 -0.92573267 -0.13093247
3.7901723 -0.92311561 -0.13377614
3.8997984 -0.92034924 -0.13678178
2.8940873 -2.0810363 -0.086086527
2.8929341 -2.0307074 -0.086096838
2.8917856 -1.9805794 -0.08610712
2.8906415 -1.9306504 -0.086117357
2.8895018 -1.8809196 -0.086127557
2.8883667 -1.8313856 -0.086137712
2.8872366 -1.7820475 -0.08614783
2.8858294 -1.7206421 -0.086160421
2.8863912 -1.7451653 -0.0861554
2.8849888 -1.6839535 -0.086167946
2.8838713 -1.6351955 -0.086177945
2.8827581 -1.5866289 -0.086187899
2.88165 -1.5382518 -0.086197823
2.8805454 -1.4900639 -0.086207703
2.8791707 -1.4301023 -0.086219981
2.8778031 -1.3704131 -0.086232215
2.8764639 -1.3109584 -0.074988678
2.8767972 -1.3268508 -0.08999306
2.8756285 -1.2755263 -0.086251676
2.874548 -1.2283578 -0.086261347
2.8734713 -1.1813712 -0.086270973
2.8723981 -1.1345656 -0.086280569
2.8711662 -1.0809782 -0.088518977
2.869899 -1.0252749 -0.084075592
2.8686769 -0.97215474 -0.086313874
2.8927848 -0.9461413 -0.086806439
2.9568231 -0.94453359 -0.088076979
3.0237019 -0.94285476 -0.089403868
3.0936139 -0.94109964 -0.090790927
3.1667702 -0.93926293 -0.092242375
3.2434034 -0.93733901 -0.093762785
3.3237665 -0.93532151 -0.09535718
3.408138 -0.93320334 -0.097031116
3.4977746 -0.93118238 -0.085338935
3.5911674 -0.92884374 -0.086838216
3.6895969 -0.92637908 -0.088418342
3.7934823 -0.9237777 -0.090086058
3.9032905 -0.92102814 -0.09184885
2.8941975 -2.080617 -0.028045181
2.8930445 -2.030297 -0.028171297
2.891896 -1.980177 -0.028296905
2.8907518 -1.9302567 -0.028422017
2.8896122 -1.8805341 -0.028546629
2.8884768 -1.8310083 -0.028670743
2.8873465 -1.7816783 -0.028794372
2.8859391 -1.7202832 -0.028948242
2.8865013 -1.7448025 -0.028886789
2.8850985 -1.6836009 -0.029040175
2.8839812 -1.6348506 -0.029162347
2.8828683 -1.5862917 -0.029284043
2.8817601 -1.5379229 -0.029405266
2.8806555 -1.4897425 -0.02952601
2.8792808 -1.4297909 -0.02967626
2.8779132 -1.3701109 -0.029825829
2.8765516 -1.3107241 -0.029974662
2.8770952 -1.3344421 -0.029915221
2.8757379 -1.2752392 -0.030063586
2.8746569 -1.2280784 -0.030181779
2.8735802 -1.1810992 -0.030299516
2.8725078 -1.1343009 -0.030416803
2.8714395 -1.0876822 -0.03053364
2.87011 -1.0296696 -0.030679028
2.8687861 -0.97191554 -0.030823769
2.8961291 -0.94701082 -0.030902851
2.9603047 -0.94542032 -0.030960489
3.0273294 -0.94375932 -0.031020679
3.0966401 -0.94183791 -0.043038525
3.1699305 -0.94001693 -0.043382112
3.2467065 -0.93810922 -0.043742035
3.3272228 -0.93610871 -0.044119492
3.4117589 -0.93400812 -0.044515789
3.5006244 -0.93180001 -0.04493238
3.5941608 -0.92947608 -0.045370858
3.692745 -0.92702651 -0.045832999
3.7967985 -0.92444104 -0.046320766
3.9067881 -0.92170817 -0.046836369
2.8943079 -2.080198 0.029979642
2.8931541 -2.0298862 0.029737804
2.8920059 -1.979775 0.029496931
2.8908613 -1.9298629 0.029257029
2.8897223 -1.8801488 0.029018059
2.8885868 -1.8306311 0.028780047
2.8874567 -1.7813092 0.028542969
2.886049 -1.7199241 0.028247904
2.886611 -1.7444395 0.028365746
2.8852084 -1.6832478 0.028071616
2.8840909 -1.6345057 0.027837317
2.882978 -1.5859548 0.027603954
2.8818696 -1.5375937 0.027371492
2.8807652 -1.4894215 0.027139943
2.8793905 -1.4294794 0.026851807
2.8780224 -1.3698092 0.026564997
2.8766615 -1.310432 0.026279572
2.8772051 -1.3341458 0.02639357
2.8758481 -1.2749525 0.026109021
2.8747668 -1.2277991 0.025882374
2.8736897 -1.1808274 0.025656585
2.872617 -1.1340363 0.025431667
2.8715484 -1.087425 0.025207624
2.8702192 -1.0294214 0.024928819
2.8688953 -0.97167635 0.024651255
2.8994794 -0.94788194 0.025104102
2.963094 -0.94613087 0.014806662
2.9644907 -0.94648659 0.037721116
3.0309639 -0.94466567 0.027475245
3.100431 -0.94276285 0.016769852
3.1730962 -0.94077229 0.0055627525
3.2500153 -0.9388808 0.0063673817
3.3306851 -0.93689722 0.0072112493
3.4153869 -0.93481451 0.0080972947
3.5044303 -0.93262494 0.0090287514
3.5981584 -0.93032044 0.010009233
3.69695 -0.92789114 0.011042688
3.8012269 -0.92532694 0.012133524
3.9114597 -0.92261624 0.013286676
2.8943958 -2.0798628 0.076386318
2.8932426 -2.0295582 0.07605195
2.8920939 -1.9794533 0.075718924
2.8909495 -1.9295479 0.07538721
2.8898098 -1.8798404 0.075056821
2.888675 -1.8303293 0.074727729
2.8875439 -1.7810141 0.074399963
2.8861372 -1.719637 0.073991999
2.8866992 -1.7441492 0.074154913
2.8852959 -1.6829654 0.073748246
2.8841789 -1.6342299 0.073424324
2.8830657 -1.5856851 0.073101655
2.8819573 -1.5373305 0.072780266
2.8808529 -1.4891644 0.072460115
2.8794785 -1.4292302 0.072061747
2.8781104 -1.3695678 0.071665168
2.8767493 -1.3101982 0.071270555
2.8772929 -1.333909 0.071428165
2.8759356 -1.2747233 0.071034774
2.8748543 -1.2275757 0.070721388
2.8737772 -1.1806098 0.070409209
2.8727043 -1.1338248 0.070098236
2.8716359 -1.0872195 0.069788471
2.870306 -1.0292228 0.069402978
2.8689826 -0.97148514 0.069019198
2.9021642 -0.94857991 0.069992557
2.966588 -0.94702071 0.072129935
3.0338778 -0.94539219 0.074362412
3.1042285 -0.94368958 0.076696455
3.1762669 -0.9415288 0.054592442
3.2541595 -0.93984711 0.069126412
3.2525005 -0.93946034 0.044004988
3.3341544 -0.93768716 0.058635283
3.4190218 -0.93562239 0.060808387
3.5082431 -0.93345141 0.063093007
3.6021631 -0.93116617 0.06549792
3.7011621 -0.92875731 0.068032891
3.8045535 -0.92599249 0.056049827
3.9149697 -0.92329872 0.058458898
2.8944843 -2.0795279 0.12278169
2.8933306 -2.0292296 0.12235484
2.8921819 -1.9791319 0.12192969
2.8910379 -1.9292332 0.12150623
2.8898981 -1.8795322 0.12108447
2.888763 -1.8300279 0.12066433
2.8876321 -1.7807192 0.1202459
2.886225 -1.7193502 0.11972509
2.8867869 -1.7438591 0.1199331
2.8853841 -1.6826831 0.11941394
2.8842669 -1.6339542 0.11900042
2.8831537 -1.5854158 0.11858849
2.882045 -1.5370673 0.1181782
2.8809407 -1.4889076 0.11776951
2.8796716 -1.4337751 0.11504403
2.8783665 -1.3764633 0.11907287
2.876837 -1.3099643 0.11625092
2.8773806 -1.3336723 0.11645213
2.8760228 -1.2744939 0.11594991
2.8749421 -1.2273524 0.11554985
2.8738649 -1.1803925 0.1151513
2.8727925 -1.1336133 0.11475432
2.8717232 -1.0870137 0.11435886
2.8703938 -1.0290246 0.11386675
2.8690696 -0.97129399 0.11337683
2.9048533 -0.94927907 0.11495228
2.9693882 -0.94773388 0.11807039
3.0367961 -0.9461199 0.12132733
3.1072731 -0.94443238 0.12473258
3.1802387 -0.94247645 0.11600359
3.2566507 -0.94042808 0.10685317
3.3376293 -0.93847865 0.11015286
3.4226625 -0.93643159 0.11361778
3.5120628 -0.93427932 0.11726062
3.6061752 -0.93201363 0.12109552
3.7043271 -0.92940819 0.11084735
3.8078868 -0.92665917 0.10004194
3.9184861 -0.9239822 0.10371134
2.8945725 -2.0791931 0.16916572
2.8934188 -2.0289018 0.16864645
2.8922698 -1.9788108 0.16812924
2.8911254 -1.9289184 0.16761407
2.889986 -1.8792241 0.16710097
2.8888509 -1.8297263 0.16658987
2.8877201 -1.7804239 0.16608082
2.8863127 -1.7190633 0.16544724
2.8868747 -1.7435689 0.16570026
2.8854721 -1.6824013 0.16506867
2.8843544 -1.6336786 0.16456561
2.8832414 -1.5851467 0.1640645
2.8821328 -1.5368043 0.16356532
2.8810282 -1.4886507 0.16306813
2.8799281 -1.4406848 0.16257286
2.8785596 -1.3809988 0.16195655
2.8769248 -1.3097304 0.16122067
2.8774683 -1.3334354 0.16146545
2.8761327 -1.2742075 0.1720784
2.875052 -1.2270733 0.17157003
2.8739748 -1.1801209 0.17106365
2.8729012 -1.1333492 0.17055918
2.8718324 -1.0867568 0.17005666
2.8705025 -1.0287765 0.16943133
