# .PCD v0.7 - Point Cloud Data file format
VERSION 0.7
FIELDS x y z
SIZE 4 4 4
TYPE F F F
COUNT 1 1 1
WIDTH 1468
HEIGHT 1
VIEWPOINT 0 0 0 1 0 0 0
POINTS 1468
DATA ascii
3.4526472 1.3854264 -0.55128431
3.4777 1.3426725 -0.5259406
3.5497711 1.3543802 -0.53318083
3.6247547 1.3665611 -0.54071373
3.7028298 1.3792442 -0.54855716
3.7841935 1.3924617 -0.55673093
3.037689 1.3956789 -0.55580741
3.0933516 1.4068877 -0.56268799
3.1722021 1.3794752 -0.54667717
3.2326512 1.3908626 -0.55368239
3.2953331 1.4026698 -0.56094629
3.3603737 1.4149219 -0.56848359
3.5237613 1.3978997 -0.55897659
3.5977302 1.4108747 -0.56697774
3.8816364 -2.7038088 -0.51772761
3.8809063 -2.6740093 -0.51767832
3.8798113 -2.6293015 -0.51760441
3.8783507 -2.5696764 -0.51750576
3.8772552 -2.5249465 -0.51743186
3.8761587 -2.4802051 -0.51735783
3.8746972 -2.4205351 -0.51725918
3.8736005 -2.3757713 -0.51718515
3.872504 -2.3309963 -0.51711112
3.8710408 -2.2712812 -0.51701236
3.8699439 -2.2264838 -0.51693827
3.8688459 -2.181675 -0.51686418
3.867382 -2.1219153 -0.51676536
3.8662839 -2.0770836 -0.51669127
3.865186 -2.0322413 -0.51661712
3.8637207 -1.9724364 -0.51651824
3.8626215 -1.9275714 -0.51644403
3.8615224 -1.8826951 -0.51636982
3.8600559 -1.822845 -0.51627082
3.8589566 -1.7779464 -0.51619667
3.857856 -1.733036 -0.51612234
2.9472139 -1.2978706 -0.49354905
2.9463625 -1.263144 -0.49349821
2.9449446 -1.2052492 -0.49341339
2.943526 -1.1473337 -0.49332857
2.9423902 -1.1009852 -0.49326068
2.9412549 -1.0546227 -0.49319279
2.9401183 -1.0082461 -0.49312484
2.9389815 -0.96185541 -0.49305689
2.9375601 -0.90384674 -0.49297196
2.9361386 -0.84581757 -0.4928869
2.9350011 -0.79937792 -0.49281895
2.9338629 -0.75292426 -0.49275088
3.2286158 -0.72116274 -0.48626858
2.8858757 1.2465166 -0.46648592
2.936254 1.2547021 -0.47154689
2.9883256 1.2631627 -0.47677809
3.0421784 1.2719129 -0.48218805
3.176836 1.2505887 -0.47001094
3.2373533 1.2596384 -0.47562456
3.300106 1.2690228 -0.48144549
3.3652194 1.2787596 -0.48748547
3.5287728 1.2555134 -0.47427458
3.6028149 1.2656261 -0.4805733
3.6798887 1.276153 -0.48712993
3.7601852 1.2871205 -0.49396062
2.8842614 1.2854253 -0.47417325
2.9178257 1.2916056 -0.49343336
2.9693048 1.3006371 -0.4990018
3.0225344 1.3099755 -0.50475961
3.0877547 1.3003024 -0.49925143
3.1556034 1.2903429 -0.49358273
3.2153816 1.3000559 -0.49958807
3.277354 1.310125 -0.50581384
3.3416414 1.3205699 -0.51227212
3.4083748 1.3314105 -0.51897615
3.4328265 1.2888693 -0.49375671
3.503073 1.2993714 -0.50027275
3.5761199 1.3102926 -0.50704861
3.652138 1.3216578 -0.51410007
3.7313128 1.3334953 -0.52144432
3.8829262 -2.7040544 -0.45782274
3.8821962 -2.6742535 -0.45776898
3.8811014 -2.6295428 -0.45768827
3.8796408 -2.5699141 -0.45758069
3.8785448 -2.5251811 -0.45749998
3.8774493 -2.4804368 -0.45741922
3.8759875 -2.420763 -0.45731151
3.874891 -2.3759961 -0.45723075
3.8737946 -2.3312182 -0.45714992
3.8723316 -2.2714996 -0.45704216
3.8712344 -2.2266994 -0.45696127
3.870137 -2.1818876 -0.45688045
3.8686731 -2.1221237 -0.45677257
3.8675752 -2.0772898 -0.45669168
3.866477 -2.0324445 -0.45661074
3.8650119 -1.9726357 -0.4565028
3.8639128 -1.9277676 -0.45642179
3.8628139 -1.8828887 -0.45634079
3.8613477 -1.8230348 -0.45623279
3.8602479 -1.778133 -0.45615172
3.8591483 -1.7332201 -0.45607066
2.9484603 -1.2980323 -0.43556005
2.9476101 -1.263303 -0.43550265
2.9461918 -1.2054036 -0.43540692
2.944773 -1.1474836 -0.43531114
2.9436374 -1.1011312 -0.43523449
2.9425018 -1.054765 -0.43515784
2.9413657 -1.0083846 -0.43508112
2.9402292 -0.9619903 -0.43500441
2.9388082 -0.90397692 -0.43490851
2.9373863 -0.84594315 -0.43481249
2.9362488 -0.79949975 -0.43473577
2.9351108 -0.75304234 -0.43465889
3.2516203 -0.72148877 -0.43706441
3.1602106 1.1622725 -0.41740304
3.2200515 1.1696749 -0.42203397
3.282089 1.1773492 -0.42683482
3.657264 1.1745077 -0.42656547
3.7365208 1.1832898 -0.43209076
3.8191307 1.192441 -0.43784982
2.893198 1.1948659 -0.4280706
2.9385307 1.1950207 -0.43604726
2.9737148 1.1796848 -0.42705619
3.0270026 1.1869648 -0.43158931
3.0821323 1.1944962 -0.43627924
3.1392026 1.2022928 -0.44113415
3.1983173 1.2103688 -0.44616294
3.2595875 1.2187392 -0.45137519
3.3347893 1.2063653 -0.44429809
3.4132512 1.1935744 -0.43698508
3.4826515 1.2021595 -0.44235581
3.5548 1.2110844 -0.44793922
3.6298625 1.2203696 -0.45374805
3.7080138 1.2300346 -0.45979595
3.7894554 1.2401067 -0.46609843
2.8864286 1.234462 -0.43137276
3.0075574 1.2252744 -0.45430863
3.0620432 1.2334223 -0.45936275
3.1184351 1.2418551 -0.46459365
3.3890862 1.2364305 -0.4623915
3.4575832 1.2457885 -0.46821851
2.8852756 1.2815362 -0.43129498
3.883894 -2.7042391 -0.41288936
3.8831639 -2.6744366 -0.4128322
3.8820691 -2.629724 -0.41274643
3.8806086 -2.570092 -0.41263205
3.8795125 -2.5253568 -0.41254622
3.878417 -2.4806104 -0.41246039
3.8769555 -2.4209337 -0.41234595
3.8758593 -2.3761649 -0.41226006
3.8747625 -2.3313851 -0.41217422
3.8732998 -2.2716634 -0.41205963
3.8722029 -2.226861 -0.41197371
3.871105 -2.1820471 -0.41188776
3.8696415 -2.1222806 -0.41177315
3.8685434 -2.0774446 -0.41168714
3.867445 -2.0325968 -0.41160107
3.8659804 -1.972785 -0.41148636
3.8648813 -1.9279151 -0.41140032
3.8637824 -1.8830339 -0.41131422
3.8623166 -1.823177 -0.41119939
3.8612165 -1.7782732 -0.41111326
3.8601167 -1.7333581 -0.41102713
2.9494584 -1.298162 -0.38916194
2.9486074 -1.2634304 -0.38909924
2.9471893 -1.2055271 -0.38899475
2.945771 -1.1476034 -0.38889024
2.9446356 -1.1012481 -0.38880658
2.9435 -1.0548788 -0.3887229
2.9423637 -1.0084956 -0.38863918
2.9412274 -0.96209824 -0.38855547
2.9398065 -0.90408111 -0.38845074
2.9383848 -0.84604365 -0.38834602
2.9372475 -0.79959726 -0.38826221
2.9361093 -0.75313681 -0.38817835
3.2749319 -0.72181916 -0.38720432
2.8995566 1.0983136 -0.37374181
2.9592717 1.0971658 -0.37790585
3.0120034 1.1030089 -0.38158196
3.0665481 1.1090527 -0.38538447
3.1230009 1.1153082 -0.38932002
3.1922135 1.1013057 -0.38125134
3.2531712 1.1076652 -0.38526589
3.3279102 1.0930607 -0.37685984
3.3939292 1.0995256 -0.38095629
3.4624941 1.1062396 -0.38521069
3.5337558 1.1132179 -0.3896324
3.6078763 1.120476 -0.39423156
3.6850309 1.1280311 -0.39901888
3.7654104 1.1359023 -0.40400636
2.8898401 1.1404479 -0.38476944
2.940625 1.1351088 -0.40040994
2.992754 1.1415575 -0.40444404
3.0466647 1.1482264 -0.40861601
3.1024508 1.1551273 -0.41293317
3.3048611 1.1354593 -0.40199816
3.3700404 1.1426815 -0.40654206
3.4377184 1.1501807 -0.41126013
3.5080402 1.1579727 -0.41616255
3.5811656 1.1660757 -0.42126036
2.8885834 1.1874332 -0.38467646
2.8874302 1.2344964 -0.38459146
2.8862779 1.2815737 -0.38450652
3.8848615 -2.7044237 -0.36795112
3.8841314 -2.6746197 -0.36789057
3.8830366 -2.6299047 -0.36779976
3.8815761 -2.5702701 -0.36767858
3.8804808 -2.5255327 -0.36758769
3.8793848 -2.4807844 -0.36749679
3.8779237 -2.4211047 -0.36737555
3.876827 -2.3763337 -0.3672846
3.8757305 -2.3315516 -0.36719364
3.8742678 -2.2718272 -0.36707231
3.8731709 -2.2270226 -0.3669813
3.8720734 -2.1822066 -0.36689025
3.8706095 -2.1224372 -0.36676884
3.8695118 -2.077599 -0.36667773
3.8684134 -2.0327492 -0.36658663
3.8669488 -1.9729345 -0.36646512
3.8658497 -1.9280624 -0.36637396
3.8647509 -1.8831791 -0.36628276
3.8632851 -1.8233193 -0.36616117
3.8621855 -1.7784133 -0.36606997
3.8610854 -1.7334961 -0.36597872
2.9504559 -1.2982913 -0.34275776
2.9496052 -1.2635577 -0.34268987
2.9481876 -1.2056506 -0.34257662
2.9467688 -1.1477232 -0.34246331
2.9456332 -1.101365 -0.34237266
2.9444981 -1.0549927 -0.34228194
2.943362 -1.0086064 -0.34219122
2.9422255 -0.96220613 -0.34210044
2.9408047 -0.9041853 -0.34198698
2.939383 -0.84614408 -0.34187347
2.9382458 -0.79969472 -0.3417826
2.937108 -0.75323135 -0.34169173
3.2985561 -0.72215402 -0.33667511
2.8945036 1.0112957 -0.32657087
2.9449933 1.0155903 -0.32931715
2.997179 1.0200288 -0.3321557
3.2467313 0.99744833 -0.31966648
3.3096128 1.0019886 -0.32260597
3.3748586 1.0066996 -0.32565594
3.4426043 1.0115911 -0.32882279
3.5129964 1.0166734 -0.33211339
3.5861921 1.0219585 -0.33553505
3.6623635 1.0274582 -0.33909577
3.7416961 1.0331864 -0.34280425
3.8243897 1.0391569 -0.34666985
2.9014034 1.0511428 -0.33868951
2.9781215 1.0588081 -0.35515577
3.0413077 1.0443256 -0.34677857
3.0968251 1.0494026 -0.35000959
3.1543014 1.0546589 -0.35335457
3.2247186 1.0393825 -0.34453237
3.2868195 1.0446644 -0.34791023
3.3512416 1.0501441 -0.35141435
3.4181154 1.055832 -0.35505188
3.4875848 1.0617409 -0.35883054
3.5598047 1.0678837 -0.36275882
3.6349401 1.0742742 -0.36684567
3.7131727 1.0809284 -0.37110102
3.7946968 1.0878626 -0.37553543
2.8918891 1.0933751 -0.33808023
2.8907375 1.1404124 -0.3379882
2.8895848 1.1874642 -0.33789617
2.8884325 1.2345304 -0.33780414
2.8872793 1.2816108 -0.33771205
3.885829 -2.704608 -0.32300901
3.8850992 -2.6748025 -0.32294512
3.8840041 -2.6300855 -0.32284918
3.8825443 -2.5704482 -0.32272124
3.8814487 -2.5257087 -0.32262531
3.8803527 -2.4809582 -0.32252932
3.8788915 -2.4212759 -0.32240131
3.8777955 -2.3765028 -0.32230526
3.8766985 -2.3317184 -0.32220924
3.8752363 -2.2719908 -0.32208109
3.8741388 -2.2271841 -0.32198501
3.8730421 -2.1823661 -0.32188886
3.8715785 -2.1225939 -0.32176065
3.8704801 -2.0777535 -0.32166451
3.9118195 -2.0621126 -0.292914
3.8693819 -2.0329013 -0.32156831
3.8855703 -2.0233688 -0.29202986
3.8682406 -1.9731339 -0.30643034
3.8671417 -1.9282589 -0.30633241
3.8660426 -1.8833725 -0.30623442
3.8645768 -1.8235093 -0.30610377
3.863477 -1.7786003 -0.30600572
3.8623776 -1.7336804 -0.30590767
2.9514537 -1.2984209 -0.29634768
2.9506037 -1.263685 -0.29627448
2.9491854 -1.2057742 -0.29615247
2.947767 -1.1478431 -0.2960304
2.9466321 -1.1014819 -0.29593271
2.9454961 -1.0551066 -0.29583502
2.9443605 -1.0087173 -0.29573727
2.9432244 -0.96231413 -0.29563949
2.9418035 -0.90428954 -0.29551724
2.9403818 -0.84624457 -0.2953949
2.9392447 -0.79979223 -0.29529703
2.9381068 -0.75332582 -0.29519916
3.3164735 -0.72240794 -0.29835254
3.356035 0.91507292 -0.27107006
3.422976 0.91818833 -0.27317727
3.4925148 0.92142487 -0.27536622
3.5648048 0.92478907 -0.2776418
3.6400132 0.92828953 -0.28000924
3.7183197 0.93193388 -0.28247422
3.7999201 0.93573153 -0.28504285
2.9080222 0.94655955 -0.28037143
2.9825256 0.93800747 -0.28330049
3.0359292 0.94117785 -0.28538901
3.0911779 0.94445753 -0.28754967
3.1483696 0.94785285 -0.28978631
3.2076082 0.95136952 -0.29210302
3.2690058 0.95501423 -0.29450417
3.3326828 0.95879471 -0.29699445
3.3987684 0.96271753 -0.29957891
3.4674025 0.96679223 -0.30226305
3.538734 0.97102666 -0.3050527
3.6129262 0.97543108 -0.30795419
3.6901548 0.98001587 -0.31097448
3.7706089 0.98479164 -0.31412086
2.898674 0.9941541 -0.29401436
2.9636576 0.97700953 -0.30643383
3.0164471 0.98082137 -0.30890155
3.0710506 0.98476362 -0.31145406
3.1275632 0.98884404 -0.3140958
3.1860871 0.99306977 -0.31683159
2.8940425 1.046374 -0.2914072
2.8928912 1.0934002 -0.2913081
2.8917391 1.1404406 -0.29120898
2.8905871 1.1874956 -0.29110986
2.8894346 1.2345647 -0.29101068
2.8882821 1.281648 -0.29091147
2.9524517 -1.2985504 -0.24993156
2.9516013 -1.2638123 -0.24985312
2.9501832 -1.2058978 -0.24972233
2.9487653 -1.1479629 -0.2495915
2.9476302 -1.1015987 -0.2494868
2.9464948 -1.0552205 -0.24938208
2.9453588 -1.0088283 -0.24927729
2.9442227 -0.96242201 -0.24917251
2.9428017 -0.90439379 -0.24904145
2.9413805 -0.84634507 -0.24891037
2.9402432 -0.79988974 -0.24880546
2.9391057 -0.75342035 -0.24870053
3.328526 -0.72257876 -0.27257374
2.9382174 -0.70695978 -0.23696838
2.9370794 -0.66046154 -0.23686163
2.9359407 -0.61394924 -0.23675483
2.9350865 -0.57905626 -0.23667473
2.9342322 -0.54415441 -0.23659459
2.9330926 -0.49760693 -0.23648772
2.9319527 -0.45104533 -0.2363808
2.9169207 0.85520399 -0.23378687
2.9680414 0.85692847 -0.23500647
3.0208881 0.858711 -0.23626727
3.0755498 0.8605547 -0.23757136
3.1321228 0.86246312 -0.23892105
3.1907079 0.86443949 -0.24031875
3.2514153 0.86648738 -0.24176708
3.3143616 0.8686105 -0.24326882
3.3796732 0.87081349 -0.244827
3.4474869 0.87310088 -0.24644485
3.5179479 0.87547791 -0.2481259
3.5912156 0.87794936 -0.24987388
3.6674602 0.88052118 -0.25169289
3.7468669 0.88319993 -0.25358734
3.8296375 0.88599193 -0.25556204
2.8987751 0.89837754 -0.24263483
2.9493587 0.89614546 -0.25826854
3.0016017 0.89857709 -0.25991306
3.0556288 0.90109146 -0.26161373
3.1115336 0.90369344 -0.26337355
3.1694162 0.90638733 -0.26519558
3.2293825 0.90917826 -0.26708323
3.2915478 0.91207159 -0.26904011
2.897346 0.95238018 -0.24484845
2.8961957 0.99938083 -0.2447423
2.8950443 1.0463958 -0.24463613
2.893893 1.093425 -0.24452993
2.8927412 1.1404687 -0.24442369
2.8915892 1.1875267 -0.24431743
2.8904366 1.2345988 -0.24421112
2.8892841 1.2816852 -0.2441048
2.9536998 -1.2987124 -0.1919027
2.9528491 -1.2639713 -0.19181767
2.9514315 -1.2060523 -0.19167593
2.9500132 -1.1481128 -0.19153413
2.9488785 -1.1017449 -0.19142066
2.9477429 -1.0553629 -0.19130714
2.9466071 -1.0089669 -0.19119361
2.9454713 -0.96255702 -0.19108002
2.9440503 -0.90452409 -0.190938
2.9426291 -0.84647071 -0.19079591
2.9414918 -0.80001163 -0.19068222
2.9403546 -0.75353849 -0.19056849
2.9392166 -0.70705134 -0.19045472
2.9380784 -0.66055012 -0.19034091
2.9369404 -0.61403483 -0.19022709
2.9355862 -0.57909787 -0.2134092
2.9355075 -0.55296671 -0.18716918
2.934092 -0.49768499 -0.18994233
2.9329522 -0.45112047 -0.18982838
2.9318123 -0.40454173 -0.18971439
2.9306717 -0.35794899 -0.18960036
2.9295311 -0.31134209 -0.18948631
2.92839 -0.2647211 -0.18937221
2.9269631 -0.20642424 -0.18922953
2.9255352 -0.14810681 -0.18908681
2.9243934 -0.10143632 -0.18897261
2.9232502 -0.054751813 -0.18885835
2.9221075 -0.0080530643 -0.18874407
2.920964 0.038659811 -0.18862975
2.9198201 0.085386872 -0.18851539
2.91839 0.14381635 -0.1883724
2.9169595 0.20226657 -0.18822935
2.9158146 0.24904329 -0.18811488
2.9146693 0.29583406 -0.18800035
2.9135232 0.34263921 -0.18788581
2.9123776 0.38945842 -0.18777123
2.9114811 0.43628752 -0.17598441
2.910048 0.49485099 -0.17583889
2.9086137 0.55343521 -0.17569329
2.9074667 0.60031927 -0.17557678
2.9063187 0.64721751 -0.17546023
2.9051707 0.69413006 -0.17534365
2.904022 0.7410568 -0.17522703
2.9093428 0.79363823 -0.18221837
2.9869275 0.81728268 -0.21149033
3.0403886 0.81840217 -0.21235883
3.0956962 0.81956029 -0.21325733
3.1529481 0.82075882 -0.21418741
3.2122486 0.82200038 -0.21515077
3.2737105 0.82328737 -0.21614923
3.3374524 0.82462204 -0.21718475
3.4036045 0.82600713 -0.21825941
3.4723067 0.82744575 -0.21937551
3.5437086 0.82894051 -0.22053546
3.6179726 0.8304956 -0.2217419
3.6952741 0.83211398 -0.2229977
3.7758043 0.8338002 -0.22430593
2.9014735 0.83495128 -0.18668097
2.9000361 0.89366508 -0.1865373
2.8985984 0.95240009 -0.18639354
2.8974478 0.99940455 -0.18627851
2.8962967 1.0464233 -0.18616346
2.8951457 1.0934565 -0.18604834
2.8939948 1.1405038 -0.1859332
2.8928418 1.1875654 -0.18581802
2.89169 1.2346412 -0.18570283
2.8905368 1.2817317 -0.18558757
2.9549477 -1.2988743 -0.13386509
2.9540973 -1.2641306 -0.13377351
2.9526796 -1.2062068 -0.13362078
2.9512615 -1.1482627 -0.13346802
2.9501266 -1.101891 -0.13334577
2.9489913 -1.0555054 -0.13322347
2.9478555 -1.0091057 -0.13310115
2.9467194 -0.96269202 -0.13297878
2.9452994 -0.90465438 -0.13282578
2.9438779 -0.84659636 -0.13267271
2.9427412 -0.80013359 -0.13255021
2.9416037 -0.75365674 -0.13242769
2.9404664 -0.70716578 -0.13230512
2.9393277 -0.6606608 -0.13218252
2.9384742 -0.62577331 -0.13209054
2.9379048 -0.60251027 -0.13202919
2.9367659 -0.55597246 -0.13190649
2.9353421 -0.49778259 -0.1317531
2.9342022 -0.45121422 -0.13163033
2.9330618 -0.40463185 -0.13150752
2.9319217 -0.3580353 -0.13138467
2.9307809 -0.31142464 -0.13126178
2.9296401 -0.26479986 -0.13113886
2.9282134 -0.20649832 -0.13098517
2.9267857 -0.14817625 -0.13083139
2.9256437 -0.101502 -0.13070834
2.9245012 -0.054813623 -0.13058525
2.9233577 -0.0081110597 -0.13046212
2.9222147 0.038605571 -0.13033897
2.9210711 0.085336387 -0.13021576
2.9196408 0.14377058 -0.1300617
2.9182103 0.20222545 -0.12990759
2.9170654 0.24900597 -0.12978426
2.9159203 0.29580057 -0.12966089
2.9147747 0.34260941 -0.12953749
2.9136288 0.38943243 -0.12941405
2.9124823 0.43626976 -0.12929057
2.9110494 0.49483716 -0.12913616
2.9096153 0.55342507 -0.12898169
2.9084675 0.60031223 -0.12885809
2.9073198 0.64721358 -0.12873444
2.9061716 0.69412911 -0.12861076
2.9050231 0.74105871 -0.12848702
2.9038749 0.78800309 -0.12836325
2.9027257 0.83496141 -0.12823945
2.9012885 0.89367998 -0.12808466
2.8998511 0.95241988 -0.12792978
2.8987005 0.99942803 -0.12780586
2.8975499 1.0464507 -0.12768188
2.8963985 1.0934877 -0.12755787
2.8952472 1.1405388 -0.12743384
2.8940952 1.1876043 -0.12730974
2.8929431 1.2346842 -0.12718563
2.8917902 1.2817785 -0.12706146
2.9559457 -1.2990038 -0.087428018
2.9550958 -1.2642579 -0.087331146
2.9536781 -1.2063304 -0.087169662
2.9522603 -1.1483825 -0.087008119
2.9511256 -1.102008 -0.086878866
2.94999 -1.0556194 -0.086749531
2.9488544 -1.0092165 -0.086620174
2.9477186 -0.96279997 -0.086490788
2.9462981 -0.90475869 -0.086328983
2.9448774 -0.84669691 -0.086167142
2.9437404 -0.8002311 -0.086037606
2.9426031 -0.75375128 -0.085908026
2.9414654 -0.70725733 -0.085778415
2.9403272 -0.66074944 -0.085648775
2.9392235 -0.62583804 -0.097187005
2.9391775 -0.61035717 -0.081629768
2.9377656 -0.55605429 -0.085356899
2.9363415 -0.49786067 -0.085194685
2.9352016 -0.45128936 -0.085064851
2.934062 -0.40470392 -0.08493498
2.9329219 -0.35810438 -0.084805086
2.9317811 -0.31149077 -0.084675141
2.9306397 -0.26486298 -0.08454515
2.9292135 -0.20655763 -0.084382601
2.9277861 -0.14823169 -0.084220022
2.9266438 -0.10155457 -0.084089898
2.9255016 -0.054863095 -0.083959728
2.9243586 -0.0081576109 -0.08382953
2.9232154 0.038562179 -0.083699286
2.9220717 0.085295916 -0.08356902
2.9206417 0.14373398 -0.083406106
2.9192114 0.2021926 -0.083243132
2.9180667 0.24897605 -0.083112732
2.9169214 0.29577374 -0.082982272
2.9157758 0.34258568 -0.082851768
2.9146299 0.38941169 -0.082721218
2.9134839 0.43625188 -0.082590654
2.9120502 0.49482322 -0.082427345
2.9106169 0.55341518 -0.082264051
2.9094696 0.6003052 -0.082133323
2.9083219 0.64720953 -0.082002565
2.9071736 0.69412804 -0.081871763
2.9060252 0.74106085 -0.081740931
2.9048769 0.78800809 -0.081610069
2.9037275 0.83496964 -0.081479147
2.9022908 0.89369226 -0.081315443
2.9008534 0.95243549 -0.081151664
2.8997025 0.99944699 -0.081020631
2.8985522 1.0464727 -0.080889538
2.8974009 1.0935127 -0.080758393
2.8962495 1.1405669 -0.080627233
2.8950975 1.1876354 -0.080495998
2.8939457 1.2347183 -0.080364779
2.8927932 1.2818154 -0.080233477
2.9569445 -1.2991335 -0.040984944
2.9560945 -1.2643853 -0.040882826
2.9546769 -1.206454 -0.040712565
2.9532592 -1.1485025 -0.040542245
2.9521244 -1.1021249 -0.040405929
2.950989 -1.0557333 -0.040269583
2.9498537 -1.0093277 -0.040133193
2.9487178 -0.96290797 -0.039996795
2.9472976 -0.904863 -0.039826199
2.9458768 -0.84679747 -0.039655536
2.9447398 -0.80032867 -0.039518975
2.9436026 -0.75384587 -0.039382353
2.9424648 -0.70734894 -0.039245695
2.9413385 -0.66470718 -0.042999119
2.9412925 -0.64923048 -0.027438685
2.9401891 -0.61431295 -0.038972259
2.9387655 -0.55613613 -0.038801283
2.9373415 -0.49793875 -0.038630217
2.9362023 -0.45136446 -0.038493365
2.9350622 -0.40477604 -0.038356408
2.9339218 -0.35817346 -0.038219467
2.932781 -0.31155679 -0.038082466
2.9316406 -0.26492605 -0.037945405
2.9302137 -0.206617 -0.037774026
2.9287868 -0.1482873 -0.037602589
2.9276447 -0.10160697 -0.037465423
2.926502 -0.054912627 -0.037328154
2.9253592 -0.0082041025 -0.037190884
2.924216 0.038518608 -0.037053585
2.9230726 0.085255444 -0.036916211
2.9216425 0.14369726 -0.036744446
2.9202125 0.20215976 -0.03657262
2.9190679 0.24894625 -0.036435127
2.9179227 0.29574692 -0.036297575
2.9167774 0.34256184 -0.036159992
2.9156313 0.38939106 -0.03602235
2.9144855 0.43623424 -0.035884693
2.9130518 0.49480927 -0.03571254
2.9116187 0.55340493 -0.035540313
2.910471 0.60029805 -0.035402492
2.9093235 0.64720547 -0.035264656
2.9081752 0.6941272 -0.035126716
2.9070272 0.74106288 -0.034988791
2.9058785 0.78801334 -0.034850791
2.9047296 0.83497751 -0.034712777
2.9032927 0.89370406 -0.034540161
2.9018555 0.95245147 -0.034367502
2.9007053 0.99946582 -0.034229308
2.8995545 1.0464945 -0.0340911
2.8984034 1.0935374 -0.033952847
2.8972523 1.1405951 -0.033814535
2.8961005 1.1876667 -0.033676207
2.8949482 1.2347527 -0.033537805
2.893796 1.2818528 -0.033399388
3.4761815 -2.5222464 -0.011167869
3.9524665 -2.5265923 -0.020369872
3.4694805 -2.4793317 -0.011292577
3.9440598 -2.4778786 -0.020495906
3.0921361 -2.4549627 -0.0041262209
3.4627967 -2.4365299 -0.011416927
3.9356775 -2.4293098 -0.020621583
2.9850125 -2.3956738 0.013647392
3.0848475 -2.4040704 -0.0042868406
3.456135 -2.3938689 -0.011540875
3.9273272 -2.3809226 -0.020746753
2.9838872 -2.3496685 0.013791323
3.0775845 -2.3533573 -0.0044468939
3.4472823 -2.3371739 -0.011705622
3.916235 -2.3166459 -0.020913079
2.9827619 -2.3036494 0.013935313
3.0703468 -2.3028221 -0.0046064109
3.4384639 -2.2807014 -0.011869684
3.9079466 -2.2686172 -0.021037355
2.9816358 -2.2576165 0.014079317
3.0631344 -2.2524643 -0.0047653317
3.4318719 -2.2384858 -0.01199235
3.8996887 -2.2207668 -0.021161139
2.9805093 -2.2115698 0.014223337
3.0559471 -2.2022827 -0.0049237162
3.4253013 -2.1964076 -0.012114599
3.8914547 -2.1730576 -0.02128458
2.9793825 -2.165509 0.014367446
3.0487857 -2.152276 -0.0050815493
3.4165688 -2.1404858 -0.012277082
3.8832521 -2.125525 -0.021407574
2.9779737 -2.1079125 0.014547601
3.0398676 -2.0900078 -0.0052780658
3.0434296 -2.1148806 -0.0051995516
3.407871 -2.0847821 -0.012438923
3.8750727 -2.0781326 -0.021530196
2.9765639 -2.0502963 0.014727846
3.0345366 -2.0527854 -0.0053955317
3.4013684 -2.0431402 -0.01255995
3.8669243 -2.0309143 -0.021652371
2.9754362 -2.0041871 0.014872074
3.0274487 -2.0032992 -0.0055517256
3.394887 -2.0016329 -0.012680545
3.8560991 -1.9681884 -0.021814659
2.9743078 -1.9580636 0.015016362
3.0203862 -1.9539851 -0.0057073683
3.3841236 -1.9327048 -0.012880817
3.388422 -1.9602332 -0.012800828
3.8480101 -1.9213163 -0.02193594
2.9731791 -1.9119266 0.015160695
3.0133479 -1.9048413 -0.0058624744
3.3776925 -1.8915187 -0.013000473
3.839951 -1.8746158 -0.022056744
2.9717677 -1.8542351 0.015341133
3.0063341 -1.8558676 -0.0060170442
3.3691449 -1.8367808 -0.013159528
3.8319147 -1.8280518 -0.022177234
2.970356 -1.7965229 0.015521675
2.9993439 -1.8070629 -0.0061710626
3.3606305 -1.7822539 -0.013317958
3.8239176 -1.7816603 -0.02229695
2.9692261 -1.7503371 0.015666157
2.9923785 -1.7584262 -0.0063245744
3.354265 -1.7414901 -0.013436407
3.8133094 -1.7200341 -0.022455409
2.968096 -1.7041373 0.015810683
2.9854364 -1.7099569 -0.0064775348
3.3479204 -1.7008572 -0.013554469
3.8053818 -1.6739819 -0.022573814
2.9669652 -1.6579239 0.015955269
2.9785185 -1.6616538 -0.0066299886
3.3394871 -1.6468529 -0.013711363
3.7974832 -1.6280963 -0.022691786
2.9687295 -1.6126063 0.0046589673
3.3310866 -1.5930557 -0.013867661
3.7896073 -1.5823431 -0.022809431
2.9649494 -1.5655613 0.0046668649
3.3206303 -1.5260921 -0.014062256
3.3248067 -1.5528367 -0.013984531
3.7817597 -1.5367551 -0.022926629
2.9630392 -1.5075967 0.0048202723
3.3143821 -1.4860775 -0.014178514
3.7739346 -1.4912984 -0.023043498
2.9616246 -1.449755 0.0049990416
3.3060868 -1.4328961 -0.014332622
2.9604921 -1.4034653 0.0051420778
3.2998941 -1.3931383 -0.014447451
2.9593594 -1.3571618 0.0052851886
2.9582264 -1.3108442 0.0054283142
2.957093 -1.2645125 0.0055714846
2.9556756 -1.2065778 0.0057505369
2.954258 -1.1486225 0.005929634
2.9531233 -1.102242 0.0060729831
2.951988 -1.0558474 0.0062163472
2.9508526 -1.0094386 0.006359756
2.9497173 -0.96301603 0.0065032244
2.948297 -0.90496725 0.0066825897
2.9468763 -0.84689802 0.0068620443
2.9457393 -0.80042624 0.0070056617
2.9446023 -0.7539404 0.0071493238
2.9434643 -0.70744056 0.0072930306
2.9423616 -0.67253453 -0.0042359084
2.9423151 -0.65705729 0.011327684
2.9411883 -0.6143986 0.0075805634
2.9397652 -0.55621803 0.0077603757
2.9383414 -0.49801686 0.0079402179
2.9372025 -0.45143953 0.0080841929
2.9360621 -0.40484813 0.0082281679
2.934922 -0.35824257 0.0083721727
2.9337819 -0.31162292 0.008516252
2.932641 -0.26498911 0.0086603761
2.9312143 -0.2066763 0.0088405758
2.9297876 -0.14834279 0.0090208501
2.9286451 -0.10165954 0.0091651231
2.9275029 -0.054962158 0.009309426
2.9263599 -0.0082505941 0.0094537884
2.9252172 0.038475156 0.0095981807
2.9240735 0.085215032 0.0097426474
2.9226441 0.14366066 0.0099232644
2.9212136 0.20212692 0.010103926
2.920069 0.24891633 0.010248542
2.9189241 0.29572022 0.010393158
2.9177787 0.342538 0.010537863
2.9166329 0.3893702 0.010682583
2.9154871 0.43621671 0.010827348
2.9140539 0.49479544 0.011008382
2.9126203 0.55339479 0.011189505
2.911473 0.60029113 0.011334404
2.9103255 0.64720142 0.011479378
2.9091775 0.69412613 0.011624411
2.9080296 0.74106526 0.011769459
2.9068809 0.78801847 0.011914566
2.9057319 0.83498597 0.012059703
2.9042954 0.89371598 0.0122412
2.902858 0.95246708 0.01242277
2.9017079 0.99948466 0.012568071
2.9005575 1.0465165 0.012713417
2.8994062 1.0935626 0.012858823
2.8982551 1.1406231 0.013004228
2.8971033 1.1876978 0.013149709
2.8959513 1.2347869 0.013295248
2.8947992 1.2818903 0.013440803
2.9857605 -2.3958237 0.048364788
2.9846351 -2.3498163 0.048513934
2.9835093 -2.3037946 0.048663184
2.9823835 -2.2577596 0.04881236
2.981257 -2.2117105 0.048961654
2.9800115 -2.1587455 0.051449969
2.9785585 -2.1034307 0.046996042
2.9773116 -2.0504293 0.049484462
2.9761841 -2.004318 0.04963398
2.9750559 -1.9581925 0.049783483
2.9739275 -1.9120532 0.049933061
2.9725161 -1.8543587 0.0501201
2.9711044 -1.7966441 0.050307199
2.9699748 -1.750456 0.050456911
2.9688444 -1.7042542 0.050606698
2.9677141 -1.6580381 0.050756559
2.9665833 -1.6118083 0.050906375
2.9654524 -1.5655648 0.051056281
2.9640377 -1.5077395 0.051243752
2.9626229 -1.4498942 0.051431254
2.9614909 -1.4036016 0.051581353
2.9603579 -1.357295 0.051731437
2.9592252 -1.3109746 0.051881596
2.9580917 -1.2646401 0.052031815
2.9566748 -1.2067015 0.052219674
2.9552569 -1.1487424 0.052407548
2.9541223 -1.1023588 0.052557901
2.9529877 -1.0559614 0.052708298
2.9518521 -1.0095497 0.052858755
2.9507165 -0.96312404 0.053009257
2.9492967 -0.90507156 0.053197429
2.9478757 -0.84699863 0.05338566
2.946739 -0.80052388 0.053536341
2.9456019 -0.75403506 0.053687066
2.9444642 -0.70753217 0.053837776
2.9433267 -0.66101521 0.053988606
2.9421883 -0.61448419 0.054139435
2.9407656 -0.55629987 0.054328069
2.939342 -0.49809498 0.054516733
2.9382024 -0.45151466 0.054667741
2.9370627 -0.40492022 0.054818779
2.9359224 -0.35831168 0.054969892
2.9347823 -0.31168896 0.055121049
2.9336414 -0.2650522 0.055272192
2.932215 -0.20673561 0.055461213
2.9307883 -0.14839834 0.055650383
2.9296463 -0.10171211 0.055801705
2.928504 -0.05501163 0.055953115
2.9273615 -0.0082970858 0.056104526
2.9262183 0.038431644 0.056256011
2.9250751 0.08517462 0.056407556
2.9236453 0.14362383 0.056597024
2.922215 0.20209396 0.056786582
2.9210703 0.24888653 0.056938246
2.9199257 0.29569328 0.057089984
2.9187801 0.34251428 0.057241783
2.9176345 0.38934946 0.057393596
2.9164886 0.43619871 0.057545438
2.9151204 0.49009454 0.055383503
2.9138446 0.54635108 0.060239226
2.9124749 0.60028386 0.05807738
2.9113271 0.64719713 0.058229432
2.9101799 0.69412529 0.058381557
2.9090316 0.74106729 0.058533788
2.9078832 0.78802347 0.058685973
2.906734 0.83499408 0.058838263
2.9052975 0.89372802 0.05902864
2.9038601 0.95248282 0.059219107
2.9027102 0.99950337 0.059371546
2.9015598 1.0465385 0.059524044
2.9004092 1.0935876 0.059676543
2.8992579 1.140651 0.059829116
2.8981066 1.187729 0.059981748
2.8969543 1.2348211 0.060134411
2.8958023 1.2819275 0.060287103
2.986758 -2.3960235 0.094659641
2.9856322 -2.3500128 0.094815776
2.9845066 -2.3039885 0.09497194
2.9833806 -2.2579503 0.095128164
2.9822545 -2.2118983 0.095284387
2.9808462 -2.1543131 0.095479801
2.9794371 -2.0967078 0.095675245
2.9783101 -2.0506072 0.095831707
2.9771819 -2.0044928 0.09598814
2.9760537 -1.9583644 0.096144691
2.9749253 -1.9122221 0.096301243
2.9735141 -1.854524 0.096497044
2.9721026 -1.7968056 0.096692845
2.970973 -1.7506145 0.096849605
2.9698429 -1.7044096 0.097006366
2.9687128 -1.658191 0.097163185
2.9675817 -1.611958 0.097320065
2.9664507 -1.5657113 0.097477004
2.9650364 -1.5078826 0.097673222
2.9636214 -1.4500337 0.097869501
2.9624891 -1.403738 0.098026589
2.9613566 -1.3574284 0.098183706
2.9602239 -1.3111049 0.098340914
2.9590912 -1.2647674 0.098498151
2.9576735 -1.2068251 0.098694727
2.9562559 -1.1488624 0.098891422
2.955122 -1.1024759 0.099048808
2.9539866 -1.0560753 0.099206224
2.9528518 -1.0096607 0.099363729
2.9517159 -0.96323216 0.099521264
2.9502959 -0.90517592 0.099718228
2.9488752 -0.84709924 0.099915311
2.9477386 -0.80062145 0.10007299
2.9466016 -0.75412965 0.10023074
2.945749 -0.71925199 0.10034911
2.9451804 -0.69599557 0.10042803
2.9443266 -0.66110384 0.1005464
2.9431887 -0.61456984 0.1007043
2.9417658 -0.55638176 0.10090177
2.9403422 -0.49817312 0.10109924
2.9392028 -0.45158979 0.10125731
2.9380629 -0.40499237 0.10141541
2.936923 -0.35838079 0.1015736
2.9357827 -0.31175509 0.10173179
2.9346421 -0.26511532 0.10189007
2.9332159 -0.20679492 0.10208796
2.9317889 -0.14845395 0.10228588
2.9306471 -0.10176468 0.10244431
2.9295044 -0.055061221 0.10260279
2.9283621 -0.008343637 0.10276128
2.9272192 0.038388133 0.10291983
2.9260759 0.085134149 0.10307847
2.9246464 0.14358735 0.10327683
2.9232166 0.20206112 0.10347523
2.9220719 0.24885654 0.10363396
2.920927 0.29566646 0.10379283
2.9197819 0.34249055 0.10395171
2.9186363 0.38932884 0.10411067
2.9174907 0.43618119 0.10426958
2.9163439 0.48304784 0.10442863
2.914911 0.54165196 0.1046275
2.9134772 0.60027695 0.10482644
2.9123299 0.64719331 0.10498558
2.9111822 0.69412434 0.10514487
2.9100342 0.74106944 0.10530417
2.9088855 0.7880286 0.10546349
2.9077368 0.83500218 0.10562284
2.9063003 0.89374006 0.10582216
2.9048631 0.95249867 0.10602157
2.9037132 0.99952257 0.1061811
2.9025626 1.0465603 0.10634072
2.9014122 1.0936126 0.10650037
2.9002609 1.1406791 0.10666008
2.8991094 1.1877599 0.10681985
2.8979576 1.2348554 0.10697959
2.8968053 1.2819647 0.10713945
2.9880047 -2.3962731 0.15253688
2.9868786 -2.3502591 0.15270172
2.9857535 -2.3042312 0.15286665
2.9846275 -2.2581892 0.15303154
2.9835012 -2.2121332 0.15319656
2.9820933 -2.1545436 0.15340285
2.9806845 -2.0969338 0.15360923
2.9795573 -2.0508294 0.1537744
2.9784298 -2.0047112 0.15393959
2.9773011 -1.9585791 0.15410487
2.9761729 -1.912433 0.15427016
2.974762 -1.8547301 0.15447687
2.9733505 -1.7970073 0.1546836
2.9722204 -1.7508126 0.15484913
2.9710908 -1.7046041 0.15501471
2.9699605 -1.6583816 0.15518026
2.9688301 -1.6121452 0.1553459
2.9676991 -1.5658947 0.1555116
2.9662845 -1.5080614 0.15571873
2.9648705 -1.4502077 0.155926
2.9637382 -1.4039085 0.15609188
2.9626055 -1.3575951 0.15625782
2.9614727 -1.3112679 0.15642373
2.9603393 -1.2649267 0.15658979
2.9589226 -1.2069799 0.15679736
2.957505 -1.1490123 0.15700503
2.9563711 -1.1026222 0.15717123
2.955236 -1.0562178 0.15733747
2.9541013 -1.0097995 0.15750374
2.9529657 -0.96336722 0.15767007
2.9515457 -0.90530634 0.15787806
2.9501257 -0.84722495 0.15808611
2.9489889 -0.80074346 0.15825264
2.9478087 -0.75656366 0.1537552
2.9480674 -0.74266922 0.18173902
2.9467144 -0.70773834 0.1585858
2.9455767 -0.66121465 0.15875246
2.9444387 -0.61467689 0.1589192
2.9430165 -0.5564841 0.1591277
2.9415927 -0.49827081 0.15933622
2.9404538 -0.45168373 0.15950312
2.9393141 -0.40508249 0.15967004
2.938174 -0.35846719 0.15983705
2.9370337 -0.31183776 0.16000406
2.9358928 -0.26519418 0.1601712
2.9344666 -0.20686918 0.16038008
2.9330404 -0.14852333 0.16058908
2.9318986 -0.10183036 0.16075639
2.9307568 -0.055123091 0.1609237
2.9296136 -0.0084016323 0.1610911
2.9284708 0.038333714 0.1612585
2.9273279 0.085083485 0.16142599
2.9258983 0.1435414 0.16163544
2.9244685 0.20201993 0.16184492
2.9233243 0.24881935 0.16201259
2.9221795 0.29563296 0.16218023
2.9210341 0.34246075 0.16234802
2.9198458 0.38696218 0.1578344
2.9184926 0.43616354 0.15099986
2.9173465 0.48303306 0.15116598
2.9159131 0.54164112 0.15137373
2.9144795 0.60026968 0.15158157
2.913332 0.64718926 0.15174784
2.9121845 0.69412315 0.15191422
2.9110363 0.74107134 0.15208067
2.909888 0.78803372 0.15224706
2.9087393 0.83501041 0.15241359
2.9073031 0.89375198 0.15262182
2.9058661 0.95251453 0.15283005
2.9047158 0.99954116 0.15299676
2.9035654 1.0465822 0.15316354
2.9024148 1.0936376 0.15333028
2.9012644 1.1407074 0.15349714
2.9001131 1.1877912 0.15366401
2.8989611 1.2348895 0.15383096
2.897809 1.2820021 0.15399794
2.9892514 -2.396523 0.21042283
2.9881263 -2.3505054 0.21059637
2.9870007 -2.3044734 0.21077
2.9858751 -2.2584281 0.21094368
2.9847486 -2.2123685 0.21111734
2.983341 -2.1547742 0.2113346
2.9819322 -2.0971594 0.21155192
2.9808049 -2.0510516 0.21172582
2.979677 -2.0049295 0.21189977
2.978549 -1.9587941 0.21207379
2.9774208 -1.9126443 0.21224777
2.9760096 -1.8549368 0.21246545
2.9745986 -1.7972094 0.21268319
2.973469 -1.7510109 0.21285741
2.9723394 -1.7047988 0.21303169
2.971209 -1.6585724 0.21320607
2.9700785 -1.6123323 0.2133805
2.9689476 -1.5660782 0.21355493
2.9675338 -1.5082402 0.21377306
2.9661188 -1.4503818 0.2139913
2.9649868 -1.4040788 0.21416594
2.9638543 -1.3577619 0.21434058
2.9627216 -1.3114309 0.21451537
2.9615891 -1.2650859 0.21469022
2.9601719 -1.2071345 0.21490876
2.9587545 -1.1491624 0.21512739
2.9576201 -1.1027684 0.21530236
2.9564862 -1.0563605 0.21547745
2.9553504 -1.0099384 0.21565245
2.9542155 -0.96350229 0.21582763
2.9527955 -0.90543675 0.21604662
2.9513752 -0.84735072 0.21626569
2.9502389 -0.80086553 0.21644102
2.9493866 -0.76599282 0.21657257
2.9488175 -0.74273968 0.21666025
2.9479654 -0.7078529 0.21679185
2.9468272 -0.66132545 0.2169673
2.9456897 -0.61478394 0.21714289
2.9442668 -0.5565865 0.21736239
2.9428434 -0.4983685 0.21758197
2.9417043 -0.45177764 0.21775769
2.9405649 -0.40517271 0.21793346
2.9394252 -0.35855359 0.21810929
2.9382849 -0.31192037 0.21828522
2.9371445 -0.26527309 0.21846111
2.9357185 -0.20694327 0.21868111
2.9342916 -0.14859289 0.21890123
2.9331501 -0.10189599 0.2190773
2.932008 -0.05518502 0.2192535
2.9308658 -0.008459866 0.21942975
2.929723 0.038279474 0.21960597
2.9285798 0.085033 0.21978234
2.9271507 0.14349562 0.22000284
2.9257205 0.2019788 0.22022341
2.9245765 0.24878198 0.22039996
2.9234319 0.29559934 0.22057651
2.9222867 0.34243095 0.22075315
2.920934 0.3916223 0.21392845
2.9197452 0.43614113 0.2094215
2.9185994 0.48301458 0.2095965
2.9171665 0.54162753 0.20981534
2.9157326 0.60026097 0.21003427
2.9145856 0.64718449 0.2102095
2.9134378 0.6941222 0.2103848
2.9122899 0.74107397 0.21056004
2.9111416 0.7880404 0.21073543
2.9099932 0.83502066 0.21091084
2.9085565 0.89376688 0.21113019
2.9071195 0.9525342 0.21134959
2.9059699 0.99956477 0.21152519
2.9048197 1.0466094 0.21170084
2.9036691 1.0936689 0.21187656
2.9025178 1.1407424 0.21205233
2.9013669 1.18783 0.21222816
2.9002151 1.2349323 0.21240403
2.8990636 1.2820486 0.21257995
2.9902489 -2.3967228 0.25673854
2.9891241 -2.350702 0.25691903
2.9879987 -2.3046675 0.25709969
2.9868727 -2.2586188 0.25728035
2.9857469 -2.2125566 0.25746101
2.9843385 -2.1549585 0.25768697
2.9829302 -2.0973401 0.25791299
2.9818032 -2.0512295 0.25809395
2.9806755 -2.0051045 0.25827485
2.9795477 -1.958966 0.25845587
2.9784188 -1.9128132 0.25863695
2.9770081 -1.8551022 0.25886333
2.9755969 -1.7973709 0.25908977
2.974468 -1.7511697 0.25927103
2.9733379 -1.7049543 0.25945234
2.972208 -1.6587253 0.25963372
2.9710772 -1.6124821 0.2598151
2.9699466 -1.5662251 0.25999659
2.9685323 -1.5083833 0.26022351
2.9671178 -1.4505212 0.26045048
2.9659863 -1.4042153 0.26063216
2.9648538 -1.3578953 0.26081389
2.9637213 -1.3115615 0.26099569
2.9625888 -1.2652135 0.26117754
2.9611716 -1.2072582 0.26140487
2.9597542 -1.1492823 0.26163226
2.9586203 -1.1028855 0.26181436
2.9574854 -1.0564746 0.26199639
2.9563506 -1.0100495 0.26217854
2.955215 -0.96361041 0.26236069
2.9537954 -0.90554118 0.2625885
2.9523759 -0.84745139 0.26281643
2.9512391 -0.80096316 0.26299876
2.9501026 -0.75446087 0.26318121
2.9489651 -0.70794457 0.26336372
2.9478281 -0.66141409 0.26354623
2.9466903 -0.61486959 0.26372886
2.9452674 -0.5566684 0.2639572
2.9438441 -0.49844664 0.26418561
2.9427054 -0.4518528 0.26436841
2.9415658 -0.40524486 0.26455122
2.9404263 -0.35862279 0.26473415
2.9392858 -0.31198654 0.26491708
2.9381459 -0.26533619 0.26510012
2.9367194 -0.2070027 0.265329
2.9352927 -0.1486485 0.26555789
2.9341516 -0.10194862 0.26574105
2.9330094 -0.055234611 0.26592433
2.9318671 -0.0085064173 0.26610768
2.9307244 0.038235962 0.26629102
2.9295816 0.084992468 0.26647449
2.9281521 0.14345884 0.26670384
2.9267223 0.20194584 0.26693326
2.9255786 0.24875212 0.26711696
2.9244339 0.29557252 0.26730061
2.9232891 0.34240723 0.26748431
2.9221437 0.38925588 0.26766813
2.9209979 0.4361192 0.26785195
2.9198523 0.48299646 0.26803589
2.9184191 0.54161394 0.26826584
2.9169855 0.60025203 0.26849586
2.9158387 0.64717937 0.26868004
2.9146912 0.69412065 0.26886415
2.9135437 0.74107647 0.26904839
2.912395 0.78804648 0.26923263
2.9112463 0.83503079 0.26941693
2.9098103 0.89378202 0.26964748
2.9083738 0.95255423 0.26987803
2.9072239 0.99958837 0.27006257
2.906074 1.0466373 0.2702471
2.9049234 1.0937001 0.27043176
2.9037724 1.1407772 0.27061641
2.902621 1.1878691 0.27080119
2.9014702 1.2349751 0.27098602
2.9003179 1.2820953 0.27117085
2.9912465 -2.3969226 0.30306017
2.9901214 -2.3508987 0.30324769
2.9889965 -2.3048613 0.30343527
2.9878709 -2.25881 0.30362284
2.9867446 -2.2127447 0.3038106
2.9853365 -2.1551428 0.30404532
2.9839287 -2.0975208 0.3042801
2.9828014 -2.0514071 0.30446798
2.981674 -2.0052795 0.30465591
2.9805462 -1.9591379 0.3048439
2.9794176 -1.9129822 0.30503196
2.9780071 -1.8552675 0.30526716
2.9765956 -1.7975324 0.30550236
2.9754665 -1.7513282 0.30569065
2.9743366 -1.70511 0.30587894
2.9732068 -1.6588778 0.30606729
2.9720767 -1.6126318 0.30625576
2.9709454 -1.5663718 0.30644417
2.9695315 -1.5085263 0.3066799
2.9681177 -1.4506606 0.3069157
2.9669855 -1.4043517 0.30710441
2.9658532 -1.3580287 0.30729318
2.9647207 -1.3116919 0.30748194
2.963588 -1.2653409 0.30767083
2.9621713 -1.207382 0.30790704
2.9607542 -1.1494025 0.30814332
2.9596202 -1.1030025 0.30833226
2.9584856 -1.0565886 0.30852145
2.9573505 -1.0101606 0.30871058
2.9562154 -0.96371859 0.30889982
2.9547958 -0.90564555 0.30913645
2.9533758 -0.84755206 0.30937308
2.9525235 -0.81268537 0.30951512
2.9519556 -0.78943628 0.30960989
2.9511032 -0.75455558 0.30975211
2.949966 -0.70803618 0.30994159
2.9488287 -0.66150278 0.31013119
2.947691 -0.61495525 0.31032079
2.9462683 -0.55675036 0.31055808
2.9448452 -0.49852481 0.31079525
2.9437063 -0.45192799 0.31098509
2.9425669 -0.40531695 0.31117505
2.9414272 -0.35869193 0.31136501
2.9402874 -0.3120527 0.31155503
2.939147 -0.26539934 0.31174517
2.9377213 -0.20706201 0.31198281
2.9362948 -0.14870411 0.31222063
2.9351532 -0.10200125 0.31241089
2.9340112 -0.055284142 0.31260127
2.9328687 -0.0085529089 0.31279176
2.9317265 0.038192391 0.31298214
2.9305832 0.084951937 0.31317264
2.9291544 0.14342219 0.31341088
2.9277248 0.20191294 0.31364924
2.9265807 0.24872226 0.31383991
2.9254363 0.2955457 0.31403071
2.9242911 0.34238327 0.31422156
2.9231458 0.38923526 0.31441253
2.9220006 0.43610132 0.31460345
2.9208546 0.4829818 0.31479448
2.9194217 0.54160297 0.31503332
2.9179888 0.600245 0.31527227
2.9168415 0.64717543 0.3154636
2.9156942 0.69411981 0.31565481
2.9145465 0.74107862 0.31584603
2.9133983 0.78805172 0.31603748
2.9122496 0.83503902 0.31622899
2.9108133 0.89379406 0.31646836
2.9093771 0.95256984 0.31670779
2.908227 0.99960732 0.31689954
2.9070771 1.046659 0.31709123
2.9059267 1.093725 0.31728303
2.9047761 1.1408054 0.31747478
2.9036248 1.1879001 0.31766665
2.9024732 1.2350091 0.31785864
2.9013219 1.2821327 0.31805068
2.9922447 -2.3971224 0.34938782
2.9911196 -2.3510957 0.34958231
2.9899943 -2.3050554 0.34977692
2.988869 -2.2590013 0.34997153
2.9877431 -2.2129328 0.3501662
2.9863353 -2.1553276 0.35040963
2.9849269 -2.097702 0.35065317
2.9837999 -2.051585 0.35084796
2.9826727 -2.0054545 0.35104299
2.981545 -1.9593097 0.35123795
2.9804165 -1.9131511 0.3514331
2.9790061 -1.8554329 0.35167694
2.9775949 -1.7976941 0.3519209
2.9764655 -1.7514867 0.35211617
2.9753358 -1.7052656 0.35231161
2.9742055 -1.6590306 0.35250694
2.9730754 -1.6127815 0.35270238
2.9716623 -1.5549498 0.35294676
2.9702482 -1.4970978 0.35319126
2.9691167 -1.4507999 0.35338694
2.9679854 -1.4044881 0.35358262
2.9668529 -1.3581622 0.35377836
2.9657204 -1.3118224 0.35397422
2.9645877 -1.2654686 0.35417026
2.9631715 -1.2075057 0.35441512
2.9617543 -1.1495225 0.35466027
2.9606197 -1.1031196 0.35485625
2.9594855 -1.0567026 0.35505241
2.9583507 -1.0102718 0.35524857
2.9572155 -0.96382672 0.35544491
2.9557958 -0.90574992 0.3556903
2.9543762 -0.84765267 0.35593587
2.9532402 -0.80115849 0.35613233
2.9521034 -0.75465024 0.35632885
2.9509664 -0.70812792 0.35652548
2.9498291 -0.66159147 0.35672218
2.9486916 -0.61504096 0.35691899
2.9472694 -0.55683225 0.3571648
2.9458463 -0.49860302 0.35741097
2.9447072 -0.45200315 0.35760796
2.9435682 -0.40538916 0.35780489
2.9424284 -0.35876107 0.35800189
2.9412887 -0.31211883 0.35819906
2.9401486 -0.26546246 0.35839623
2.9387224 -0.20712137 0.35864282
2.9372962 -0.14875972 0.3588894
2.9361548 -0.10205382 0.35908681
2.9350128 -0.055333734 0.35928422
2.9338708 -0.0085994601 0.35948169
2.9327281 0.038148999 0.35967928
2.9315853 0.084911525 0.35987693
2.9301565 0.14338547 0.36012405
2.9287269 0.2018801 0.36037129
2.9275827 0.24869233 0.36056912
2.9264386 0.29551888 0.36076689
2.9252937 0.34235942 0.36096483
2.9241483 0.38921452 0.36116296
2.923003 0.43608344 0.36136103
2.9218576 0.48296702 0.36155909
2.9204247 0.54159212 0.36180687
2.9189916 0.60023808 0.36205477
2.9178443 0.64717138 0.36225313
2.916697 0.69411898 0.36245149
2.9155498 0.74108064 0.36264998
2.9144011 0.78805673 0.36284846
2.9132528 0.83504725 0.36304712
2.9118166 0.89380598 0.36329538
2.9103804 0.95258582 0.36354375
2.9092307 0.99962616 0.36374259
2.9080806 1.046681 0.36394143
2.9069302 1.09375 0.36414045
2.9057801 1.1408336 0.36433923
2.9046288 1.1879314 0.36453843
2.9034772 1.2350433 0.36473745
2.9023259 1.2821697 0.36493665
2.9932427 -2.3973227 0.39572144
2.9921179 -2.3512928 0.3959229
2.9909925 -2.3052492 0.39612442
2.989867 -2.259192 0.39632595
2.9887412 -2.2131209 0.39652771
2.9873333 -2.1555119 0.39677989
2.985925 -2.0978823 0.39703226
2.9847984 -2.0517626 0.39723396
2.9836709 -2.0056291 0.39743596
2.9825432 -1.9594817 0.39763802
2.9814155 -1.9133202 0.39784014
2.9800048 -1.8555981 0.39809275
2.9785938 -1.7978556 0.39834547
2.9774644 -1.7516456 0.39854783
2.976335 -1.7054214 0.39875013
2.9752052 -1.6591835 0.39895254
2.9740748 -1.6129314 0.39915502
2.972662 -1.5550959 0.39940822
2.9712481 -1.4972403 0.39966142
2.9701161 -1.4509394 0.39986408
2.9689846 -1.4046245 0.40006691
2.9678526 -1.3582957 0.40026969
2.9667206 -1.3119528 0.40047258
2.9655879 -1.2655962 0.40067554
2.9641714 -1.2076297 0.40092927
2.9627538 -1.1496426 0.40118307
2.9616206 -1.1032368 0.40138626
2.9604857 -1.0568168 0.40158939
2.9593513 -1.0103829 0.40179276
2.9582157 -0.9639349 0.40199602
2.9567966 -0.90585434 0.40225023
2.9553878 -0.85161924 0.39860642
2.9553432 -0.83615583 0.41419894
2.9542406 -0.80125618 0.40270823
2.9531043 -0.75474495 0.40291178
2.9519675 -0.70821959 0.40311545
2.95083 -0.66168016 0.40331912
2.9496927 -0.61512667 0.40352297
2.9482703 -0.55691421 0.40377784
2.9468472 -0.49868119 0.40403265
2.9457085 -0.45207834 0.40423673
2.9445696 -0.40546137 0.40444088
2.9434299 -0.35883024 0.40464497
2.9422898 -0.31218502 0.40484911
2.94115 -0.26552561 0.40505338
2.9397242 -0.20718074 0.40530878
2.9382977 -0.14881527 0.40556425
2.9371564 -0.10210633 0.40576869
2.9360147 -0.055383265 0.40597326
2.9348726 -0.0086460114 0.40617788
2.9337304 0.038105369 0.40638256
2.9325876 0.084870994 0.40658718
2.9311585 0.14334881 0.40684325
2.9297292 0.20184708 0.40709937
2.9285853 0.24866253 0.40730429
2.9274409 0.29549205 0.40750927
2.9262962 0.3423357 0.40771425
2.9251513 0.38919377 0.40791947
2.9240057 0.43606591 0.40812469
2.9228604 0.48295236 0.40832984
2.9214277 0.54158139 0.4085865
2.9199944 0.60023093 0.40884334
2.9188476 0.64716709 0.4090488
2.9177003 0.6941179 0.40925425
2.9165528 0.74108267 0.40945989
2.9154048 0.78806198 0.40966552
2.9142563 0.83505547 0.40987128
2.9128203 0.89381802 0.41012847
2.9113839 0.95260155 0.41038579
2.9102345 0.99964511 0.41059172
2.9090846 1.0467027 0.41079772
2.9079342 1.0937752 0.41100377
2.9067838 1.1408616 0.41120994
2.9056327 1.1879625 0.41141611
2.9044812 1.2350777 0.41162241
2.9033296 1.2822071 0.41182864
2.9944904 -2.397572 0.45364702
2.9933658 -2.3515389 0.45385736
2.9922407 -2.3054922 0.45406753
2.9911151 -2.2594309 0.45427793
2.989989 -2.213356 0.45448834
2.9885814 -2.1557426 0.45475131
2.9871738 -2.0981085 0.45501459
2.9860468 -2.0519853 0.45522535
2.9849198 -2.0058479 0.45543599
2.9837916 -1.9596965 0.45564675
2.9826641 -1.9135315 0.45585763
2.9812539 -1.8558046 0.45612127
2.9798429 -1.7980579 0.45638508
2.9787138 -1.7518438 0.4565959
2.9775846 -1.705616 0.45680708
2.9764543 -1.6593742 0.45701826
2.9753239 -1.6131186 0.45722955
2.973911 -1.5552788 0.45749372
2.9724975 -1.4974182 0.45775795
2.9713657 -1.4511137 0.45796943
2.9702342 -1.4047952 0.45818096
2.9691024 -1.3584626 0.4583925
2.9677205 -1.3120835 0.4469769
2.9665875 -1.2657235 0.44718683
2.9651711 -1.2077534 0.44744945
2.9637547 -1.1497627 0.44771206
2.9626205 -1.1033539 0.44792229
2.9614859 -1.0569309 0.44813246
2.9603515 -1.010494 0.44834274
2.9592164 -0.96404302 0.44855314
2.9577971 -0.90595877 0.44881624
2.9564114 -0.85945201 0.43738264
2.9563663 -0.84398812 0.45297819
2.9552417 -0.80135387 0.44928992
2.9541051 -0.75483966 0.44950068
2.9529681 -0.70831132 0.44971132
2.9518311 -0.66176891 0.44992226
2.9506936 -0.61521238 0.45013303
2.9492712 -0.55699623 0.45039672
2.9478488 -0.49875942 0.45066053
2.9467099 -0.45215353 0.45087159
2.9455709 -0.40553352 0.45108271
2.9444313 -0.35889941 0.45129395
2.9432919 -0.31225115 0.45150518
2.9421518 -0.26558879 0.45171654
2.940726 -0.20724022 0.45198077
2.9392998 -0.14887094 0.45224518
2.9381583 -0.10215902 0.45245671
2.9370167 -0.055432856 0.45266831
2.9358747 -0.0086926222 0.45288002
2.9347327 0.038061857 0.4530918
2.9335897 0.084830582 0.45330358
2.9321609 0.14331204 0.4535684
2.9307318 0.20181417 0.45383346
2.9295876 0.24863249 0.45404553
2.9284434 0.29546511 0.45425755
2.927299 0.34231186 0.45446968
2.9261539 0.38917291 0.45468199
2.9250085 0.43604803 0.4548943
2.9238629 0.48293757 0.45510662
2.92243 0.54157019 0.45537227
2.9209974 0.60022378 0.45563793
2.9198506 0.64716327 0.45585042
2.9187036 0.69411683 0.45606315
2.9175556 0.74108469 0.45627588
2.9164081 0.78806722 0.45648861
2.9152598 0.83506358 0.45670146
2.9138243 0.89383018 0.45696759
2.9123876 0.95261741 0.45723391
2.9112384 0.99966407 0.45744693
2.9100883 1.0467249 0.45766008
2.9089382 1.0938001 0.45787334
2.9077876 1.1408896 0.45808667
2.9066367 1.1879934 0.45829988
2.9054856 1.2351118 0.45851332
2.9043341 1.2822446 0.45872682
2.995738 -2.3978224 0.51158148
2.9946136 -2.3517852 0.51180035
2.9934888 -2.3057346 0.51201946
2.9923635 -2.2596703 0.51223856
2.9912374 -2.2135913 0.51245767
2.98983 -2.155973 0.51273161
2.9884219 -2.0983346 0.51300579
2.9872952 -2.0522075 0.5132252
2.9861681 -2.0060666 0.51344466
2.9850407 -1.9599116 0.51366419
2.9839129 -1.9137428 0.51388383
2.9825025 -1.8560115 0.51415843
2.9810917 -1.7982599 0.51443315
2.9799631 -1.7520424 0.51465297
2.9788334 -1.7058107 0.51487279
2.9777038 -1.6595652 0.51509273
2.9765735 -1.6133059 0.51531273
2.9751608 -1.5554612 0.51558793
2.973747 -1.4975963 0.51586312
2.9726157 -1.451288 0.51608342
2.9714839 -1.4049656 0.51630384
2.9703524 -1.3586293 0.51652408
2.9689703 -1.3122466 0.50511593
2.967838 -1.265883 0.50533497
2.9664216 -1.2079082 0.50560838
2.9650052 -1.1499128 0.50588208
2.963871 -1.1035002 0.50610101
2.9627371 -1.0570736 0.50632006
2.961602 -1.010633 0.50653917
2.9604673 -0.9641782 0.50675839
2.9591389 -0.91272205 0.50367397
2.9587307 -0.88287485 0.51878697
2.9576285 -0.84797996 0.50730669
