# .PCD v0.7 - Point Cloud Data file format
VERSION 0.7
FIELDS x y z
SIZE 4 4 4
TYPE F F F
COUNT 1 1 1
WIDTH 1455
HEIGHT 1
VIEWPOINT 0 0 0 1 0 0 0
POINTS 1455
DATA ascii
3.7952862 -2.7352915 -0.57324529
3.8968322 -2.7513819 -0.57569695
3.6392617 -2.6493754 -0.55341697
3.7313938 -2.6622248 -0.55518126
3.8289373 -2.6758304 -0.55704987
3.9323871 -2.6902628 -0.55903339
4.0422893 -2.7055955 -0.56114042
4.1592674 -2.7219152 -0.5633831
4.2840281 -2.7393212 -0.56577528
3.7638314 -2.6033773 -0.53916895
3.8631659 -2.615355 -0.54057872
3.9685676 -2.628068 -0.54207635
4.080606 -2.641582 -0.54366887
4.1999259 -2.6559753 -0.5453651
4.32726 -2.6713347 -0.54717481
4.2413535 -2.5887876 -0.52700579
4.3713384 -2.6020191 -0.528211
3.027698 -2.2055662 -0.59144831
3.0285254 -2.1667609 -0.59404409
3.0298266 -2.1092384 -0.60490036
3.0294068 -2.1227651 -0.59173608
3.0307856 -2.0610781 -0.60177457
3.0318463 -2.0096605 -0.60193944
3.0329049 -1.9583843 -0.60210383
3.0339608 -1.9072313 -0.60226786
3.0349088 -1.8602548 -0.60046458
3.0360739 -1.8098867 -0.61234176
3.0370014 -1.7649159 -0.61247456
3.0380466 -1.7142725 -0.61262441
3.0390894 -1.6637502 -0.61277401
3.0401289 -1.6133657 -0.61292303
3.0411665 -1.5631011 -0.61307192
3.0422006 -1.5129731 -0.61322033
3.0432324 -1.4629645 -0.61336827
3.0442591 -1.4160678 -0.61902833
3.0455918 -1.353629 -0.62334168
3.0451815 -1.3735026 -0.62328768
3.0464103 -1.3139491 -0.62344933
3.0474317 -1.2644496 -0.62358367
3.0484505 -1.2150836 -0.62371767
3.0496688 -1.1560042 -0.62387788
3.0507801 -1.1071501 -0.63359547
3.05179 -1.058185 -0.63371611
3.0830767 -1.0457069 -0.60727501
3.1277828 -1.0567993 -0.60447788
3.1794631 -1.0593324 -0.60348618
3.2332175 -1.0619991 -0.60244763
3.289212 -1.0647436 -0.60137331
3.3415718 -1.0771165 -0.59823191
3.4021807 -1.0803337 -0.59701514
3.4590063 -1.0935395 -0.59365463
3.4719477 -1.0737727 -0.59785092
3.5248759 -1.0972258 -0.59229076
3.5937419 -1.1011207 -0.59085619
3.658555 -1.1156739 -0.58713412
3.6731861 -1.0946405 -0.59159195
3.7414382 -1.109431 -0.5877887
3.8127596 -1.124887 -0.58381438
3.828764 -1.1028537 -0.58847857
3.8957109 -1.1298177 -0.58203411
3.9829156 -1.1350529 -0.58015144
4.0655928 -1.1523225 -0.57568538
4.0839877 -1.1287054 -0.58067417
4.1523747 -1.1704497 -0.5709976
4.1716332 -1.146328 -0.57608891
4.2637615 -1.1648519 -0.57126904
4.3607278 -1.1843486 -0.5661962
4.3821244 -1.1589038 -0.57155776
4.4741683 -1.1918813 -0.56358969
3.0539002 -1.0096028 -0.63426065
3.1032379 -1.0108187 -0.61470449
3.1486049 -1.0213602 -0.61202168
3.2010307 -1.0232431 -0.6111654
3.2556245 -1.0251501 -0.6102854
3.3124566 -1.0271913 -0.609357
3.3656471 -1.0389255 -0.6063478
3.4146569 -1.0609086 -0.60114121
3.4335568 -1.0314822 -0.60739136
3.4915559 -1.043823 -0.60420907
3.5519531 -1.0566741 -0.60089529
3.6148994 -1.0700676 -0.59744155
3.6362808 -1.0386865 -0.60409665
3.6953704 -1.0627496 -0.59835124
3.7645371 -1.076926 -0.59467399
3.8530436 -1.0694292 -0.59555411
3.9293942 -1.0844815 -0.59162498
4.0093813 -1.1002507 -0.58750844
4.1119184 -1.0928466 -0.58824897
4.2008829 -1.1096921 -0.58382177
4.2944317 -1.1274054 -0.57916653
4.4037323 -1.1332068 -0.57697225
4.4255562 -1.1072543 -0.58244097
4.5081372 -1.1525712 -0.57186496
3.0589814 -0.96431261 -0.63833821
3.1063924 -0.96195579 -0.62532341
3.1517932 -0.97161931 -0.62283158
3.2042804 -0.97246975 -0.62219954
3.2394805 -0.95890301 -0.62485588
3.2840269 -0.97844177 -0.62021995
3.3360338 -0.98910111 -0.61745501
3.3962548 -0.99037135 -0.61666572
3.4590709 -0.99175817 -0.61582911
3.5180326 -1.0033824 -0.61279452
3.5725234 -1.0258669 -0.60743237
3.5933619 -0.99465805 -0.61405432
3.6579471 -1.0068874 -0.61084032
3.7177947 -1.030513 -0.6051836
3.7329075 -1.0087879 -0.60978842
3.795764 -1.0329831 -0.60398197
3.8858781 -1.0242267 -0.60512304
3.9636681 -1.0383506 -0.60138381
4.045197 -1.053153 -0.5974648
4.1497326 -1.0442985 -0.5985043
4.2404985 -1.0600724 -0.59429526
4.3359876 -1.0766671 -0.58986712
4.4475985 -1.0810419 -0.58796442
3.0577834 -0.91286099 -0.64474332
3.1042638 -0.92180783 -0.63408852
3.1495199 -0.9307301 -0.63175952
3.2018173 -0.93079329 -0.63130069
3.2562587 -0.9308269 -0.63083017
3.3071239 -0.94045836 -0.62829876
3.3599517 -0.95046145 -0.62566984
3.4211011 -0.95095646 -0.62504148
3.4784455 -0.96159226 -0.62223625
3.5381441 -0.97266465 -0.61931598
3.6144187 -0.96312243 -0.62074578
3.6798446 -0.97474802 -0.61765611
3.7481446 -0.9868843 -0.61443079
3.8195109 -0.99956548 -0.61106038
3.910857 -0.98983818 -0.61240244
3.9897516 -1.0032442 -0.60881042
4.0724626 -1.0172983 -0.60504436
4.0908594 -0.99310601 -0.61015868
4.1785321 -1.0073233 -0.6063149
4.2706828 -1.0222666 -0.60227513
4.2910624 -0.99674064 -0.60766304
4.3676624 -1.0379932 -0.59802353
4.3890557 -1.0118723 -0.60353231
4.469862 -1.054566 -0.59354305
4.4923501 -1.0278225 -0.59917831
3.0558054 -0.86353594 -0.63419628
4.5150676 -1.0008073 -0.60487068
3.0570025 -0.80552137 -0.63433969
3.0579972 -0.75730479 -0.63445854
3.0589874 -0.71211773 -0.63999033
3.0600748 -0.66151583 -0.64417076
3.0614557 -0.5945574 -0.64431942
3.0608647 -0.62322664 -0.64425576
3.0622427 -0.55640781 -0.64440405
3.0632243 -0.50881559 -0.64450967
3.0643239 -0.45919475 -0.65168548
3.06547 -0.4048318 -0.65414965
3.0664439 -0.35761893 -0.65424287
3.0674155 -0.31053048 -0.6543355
3.0684402 -0.25944525 -0.65175986
3.6700499 -2.5920696 -0.53783798
3.581368 -2.5813766 -0.53657913
3.4446838 -2.5077178 -0.51963127
3.5256717 -2.5159578 -0.5203805
3.6110978 -2.5246496 -0.52117074
3.7013388 -2.5338316 -0.52200556
3.7968118 -2.5435457 -0.52288866
3.8979869 -2.5538399 -0.52382457
4.0053906 -2.5647686 -0.5248183
4.1196256 -2.5763969 -0.52587748
3.3939002 -2.4464924 -0.50444746
3.47205 -2.4529765 -0.50478518
3.5544009 -2.4598091 -0.50514114
3.6413019 -2.4670191 -0.50551653
3.7331402 -2.4746389 -0.5059135
3.830349 -2.4827044 -0.50633383
3.933413 -2.4912555 -0.50677907
4.0428786 -2.5003381 -0.5072521
4.1593661 -2.5100055 -0.50775683
4.2835727 -2.5203161 -0.50829601
3.8644562 -2.4208279 -0.48949704
3.9694605 -2.4275742 -0.48943469
4.0810456 -2.4347432 -0.48936877
4.1998491 -2.4423759 -0.48929825
4.3266063 -2.4505243 -0.48922518
3.0271873 -2.2047076 -0.54212081
3.0281479 -2.1603746 -0.54655123
3.0295281 -2.1015816 -0.56229067
3.0290556 -2.1168027 -0.54745758
3.0302777 -2.0601692 -0.55263102
3.0313396 -2.0087337 -0.55285919
3.0323992 -1.9574397 -0.553087
3.0334556 -1.9062693 -0.55331421
3.0345092 -1.8552392 -0.55354083
3.0355608 -1.8043315 -0.55376697
3.0363998 -1.7637029 -0.55394745
3.0374434 -1.716049 -0.55972755
3.0385897 -1.6627049 -0.56413114
3.0396304 -1.612303 -0.56434238
3.0406685 -1.5620215 -0.56455326
3.0417035 -1.5118768 -0.56476367
3.0427368 -1.4618511 -0.56497347
3.0438924 -1.4096396 -0.57244265
3.044893 -1.3624194 -0.57504761
3.7833357 -1.3975022 -0.52467024
3.9517496 -1.4217365 -0.51795721
4.0517874 -1.423666 -0.51668549
4.2498612 -1.4514699 -0.50894523
4.3682046 -1.4545076 -0.50727808
3.045918 -1.312786 -0.57524347
3.0848417 -1.306007 -0.55054867
3.1352553 -1.3134639 -0.54849494
3.1822827 -1.329803 -0.54453492
3.2176366 -1.3209696 -0.54615855
3.2536328 -1.3116164 -0.54789007
3.3050683 -1.3286633 -0.54373837
3.3646386 -1.337204 -0.54137075
3.4331751 -1.3367834 -0.54087901
3.4916997 -1.3555367 -0.53629518
3.5050175 -1.3363914 -0.54035306
3.5665731 -1.3555031 -0.53566539
3.6379418 -1.3655548 -0.53286791
3.7203569 -1.3658341 -0.53210568
3.8071938 -1.3661287 -0.53130269
3.8820574 -1.3879578 -0.52590978
3.9779723 -1.3888919 -0.52488995
4.0794587 -1.3898801 -0.52381086
4.1674891 -1.4141531 -0.51777434
4.2805333 -1.4159737 -0.51641738
4.3898187 -1.4301896 -0.51239192
4.4116483 -1.4056289 -0.51755679
3.0471413 -1.2575289 -0.58316886
3.0609276 -1.2576839 -0.56128037
3.1103141 -1.264117 -0.55945826
3.1616907 -1.2707578 -0.55757427
3.2206714 -1.2689054 -0.55747592
3.2765193 -1.2759833 -0.55545866
3.3347633 -1.2833066 -0.55336738
3.389257 -1.3003337 -0.54919398
3.4017181 -1.2816715 -0.55315399
3.4654121 -1.2894695 -0.55091286
3.5319974 -1.2976069 -0.54857337
3.5945368 -1.3161527 -0.54400063
3.6087027 -1.2962177 -0.54822326
3.6745896 -1.3151029 -0.54354799
3.7433128 -1.3349369 -0.53864205
3.7587867 -1.3141105 -0.54304779
3.8394563 -1.3237028 -0.54027128
3.9242649 -1.3337687 -0.5373565
4.0134592 -1.3444445 -0.53427172
4.1169219 -1.3441391 -0.53345752
4.2067313 -1.367483 -0.5276078
4.322094 -1.3678753 -0.52654219
4.4336972 -1.3808215 -0.52277362
4.4559689 -1.3557639 -0.52804315
3.0481586 -1.2102282 -0.58719349
3.0909877 -1.2073827 -0.57198346
3.1362429 -1.2214773 -0.56852758
3.1939919 -1.2185736 -0.56866896
3.2486393 -1.2245384 -0.56690419
3.2997317 -1.2398424 -0.56313515
3.317349 -1.2124131 -0.56896114
3.3649642 -1.2371786 -0.56316042
3.4269507 -1.2438827 -0.56117213
3.4916599 -1.2509456 -0.55908263
3.5662482 -1.2483693 -0.55900919
3.6301782 -1.2659972 -0.55462456
3.711936 -1.2636887 -0.55443192
3.7822556 -1.2825222 -0.54973006
3.8059878 -1.2505796 -0.55648732
3.8722737 -1.2805483 -0.54939413
3.9673417 -1.2784636 -0.54903913
4.0404735 -1.310608 -0.54141355
4.0587015 -1.2877778 -0.54623234
4.1454539 -1.3093028 -0.54080451
4.1647115 -1.2857895 -0.54576337
4.2366304 -1.3319254 -0.53509974
4.2568183 -1.307918 -0.54015839
4.3644733 -1.3188295 -0.53686643
4.478466 -1.330452 -0.53336608
3.0513103 -1.1607251 -0.59102643
3.0719941 -1.1517508 -0.58426571
3.1300762 -1.1721172 -0.57933414
3.1732454 -1.1606244 -0.58147073
3.2214057 -1.1742857 -0.57808435
3.2771344 -1.1793362 -0.57650983
3.3351779 -1.1846545 -0.57485712
3.3957577 -1.1901447 -0.57314563
3.4524982 -1.2056214 -0.56929076
3.4654324 -1.1862507 -0.57340097
3.5250587 -1.201926 -0.56947839
3.5941517 -1.2082565 -0.56751108
3.6518834 -1.2354538 -0.56109428
3.6738806 -1.2044992 -0.56765127
3.742388 -1.221766 -0.56330621
3.8300555 -1.2181859 -0.56334019
3.8972409 -1.2477164 -0.55633461
3.9140778 -1.2255751 -0.56101513
3.9936466 -1.2446914 -0.55617332
4.0113931 -1.2219086 -0.5609858
4.0863752 -1.2531149 -0.55354881
4.1939611 -1.250077 -0.55329537
4.2874894 -1.2714434 -0.54784429
4.3967829 -1.2814376 -0.54473758
4.4186087 -1.2561781 -0.55005455
4.501193 -1.304882 -0.53874326
3.0517714 -1.1065549 -0.59576786
3.0971196 -1.1089869 -0.59336865
3.1424313 -1.1213007 -0.59030032
3.2002456 -1.1162225 -0.59091461
3.24933 -1.1291738 -0.58767533
3.306102 -1.1333835 -0.58627498
3.3531787 -1.1566277 -0.58081019
3.3713984 -1.1282606 -0.58683538
3.4270844 -1.1422961 -0.58330357
3.4916286 -1.1470181 -0.58172548
3.552192 -1.1621033 -0.57792354
3.5659342 -1.1419339 -0.58220088
3.6296787 -1.1571848 -0.57833576
3.7036078 -1.1626667 -0.57651222
3.7733467 -1.1791461 -0.57232845
3.8543966 -1.1854243 -0.57027078
3.8708091 -1.1633341 -0.5749439
3.9396288 -1.1919756 -0.56811798
4.0383301 -1.187324 -0.56829166
4.1238413 -1.2061883 -0.56345391
4.2335768 -1.2017069 -0.56349635
4.3290491 -1.2220209 -0.5582583
4.4406538 -1.2306657 -0.55542517
3.0631986 -1.0801041 -0.59995008
3.0952959 -1.0686423 -0.60217416
3.1634698 -1.0860949 -0.59779155
3.2221427 -1.0802119 -0.59857416
3.2719827 -1.0925779 -0.59545565
3.3237314 -1.1054178 -0.5922178
3.3897955 -1.0996168 -0.59291935
3.4461615 -1.1131586 -0.58948934
3.5797837 -1.1216071 -0.58651161
3.7262068 -1.1308647 -0.5832485
3.7968891 -1.1467359 -0.5791893
3.9654791 -1.1579821 -0.57530415
3.0553222 -0.86222482 -0.58655643
3.0565202 -0.80419135 -0.58677125
3.0575161 -0.75595927 -0.58694971
3.0586307 -0.70565754 -0.59425354
3.0595956 -0.66013944 -0.59678507
3.0605836 -0.61227846 -0.59695041
3.0617654 -0.55499774 -0.59714818
3.0627482 -0.50739038 -0.59731257
3.0637283 -0.45990902 -0.5974766
3.0649016 -0.40308201 -0.59767294
3.0658762 -0.3558512 -0.59783602
3.066848 -0.30874491 -0.59799862
3.0679874 -0.25478718 -0.60052919
3.2731531 -2.3828385 -0.48984757
3.3449266 -2.3874497 -0.48980501
3.4203889 -2.3922977 -0.48976025
3.4998324 -2.3974023 -0.48971322
3.5835798 -2.4027824 -0.48966357
3.6719911 -2.4084625 -0.48961112
3.7654674 -2.4144681 -0.48955569
3.2282567 -2.3273115 -0.47605661
3.2976682 -2.3304751 -0.47567531
3.3705833 -2.3337986 -0.47527489
3.4472735 -2.3372939 -0.47485361
3.5280406 -2.340975 -0.47440991
3.6132181 -2.3448575 -0.47394201
3.7031777 -2.3489575 -0.47344789
3.7983339 -2.3532944 -0.47292539
3.2520368 -2.2754619 -0.46203211
3.3225343 -2.2773626 -0.46130046
3.3966162 -2.2793601 -0.4605315
3.4745629 -2.281462 -0.45972255
3.556685 -2.2836761 -0.45887014
3.8991492 -2.3578892 -0.47237143
4.0061455 -2.362766 -0.47178361
4.1199088 -2.3679514 -0.47115889
4.2411008 -2.3734751 -0.47049323
4.3704782 -2.3793733 -0.46978322
3.0266757 -2.2038481 -0.49275419
3.643327 -2.2860122 -0.45797095
3.7348733 -2.2884805 -0.45702067
3.8317518 -2.2910926 -0.45601526
3.9344428 -2.2938616 -0.45494947
4.0434852 -2.2968016 -0.4538177
4.1594868 -2.2999291 -0.45261368
4.2831368 -2.3032634 -0.45133039
3.0275328 -2.1623831 -0.49299976
3.0286019 -2.1106591 -0.49330619
3.0297694 -2.0592597 -0.50345314
3.0308328 -2.0078065 -0.50374508
3.031893 -1.9564946 -0.50403643
3.0329506 -1.9053063 -0.50432706
3.0340052 -1.8542588 -0.50461674
3.035058 -1.8033335 -0.5049057
3.0358975 -1.7626913 -0.50513637
3.0370722 -1.7096331 -0.51275015
3.0380895 -1.6616588 -0.51545024
3.0391312 -1.6112399 -0.51572382
3.0764127 -1.5875406 -0.48928282
3.1322956 -1.5925555 -0.48771474
3.1906395 -1.5977912 -0.48607752
3.2516117 -1.6032627 -0.48436651
3.3153932 -1.6089861 -0.48257676
3.3821831 -1.61498 -0.48070261
3.4521992 -1.6212628 -0.4787378
3.5256813 -1.627857 -0.47667584
3.6028934 -1.6347857 -0.47450915
3.6841259 -1.6420755 -0.47222969
3.7697062 -1.6497562 -0.46982923
3.851721 -1.6679544 -0.46516809
3.9466598 -1.6767802 -0.46243879
4.0471063 -1.6861176 -0.45955124
4.1535525 -1.6960132 -0.45649126
4.2562628 -1.7177627 -0.45088056
4.2768455 -1.6952729 -0.45560506
4.386735 -1.71769 -0.44978806
3.042254 -1.5575025 -0.51393306
3.0968747 -1.5556829 -0.49604961
3.153584 -1.5600398 -0.49461779
3.2072275 -1.5729482 -0.49134877
3.2631106 -1.586385 -0.48794565
3.2746923 -1.5693874 -0.49155053
3.3334329 -1.5830529 -0.48807326
3.4010255 -1.5884647 -0.48631909
3.4653006 -1.6032267 -0.48255584
3.4785023 -1.5850523 -0.48640314
3.5463064 -1.6000967 -0.48254845
3.6172664 -1.6158845 -0.47850475
3.6317556 -1.5968313 -0.48253265
3.7068133 -1.6129475 -0.47838268
3.7935479 -1.6198924 -0.47613236
3.8850796 -1.6272221 -0.47375789
3.9818175 -1.6349685 -0.47124848
4.0842185 -1.6431684 -0.46859232
4.1927943 -1.6518626 -0.46577582
4.3081217 -1.6610975 -0.46278426
4.4308505 -1.6709249 -0.45960066
3.0478432 -1.5112391 -0.52093542
3.1094015 -1.5061874 -0.5067265
3.1568379 -1.508966 -0.5057174
3.204988 -1.5291963 -0.50090015
3.2409098 -1.5225043 -0.50205231
3.2981336 -1.5349834 -0.49884656
3.3639429 -1.5391939 -0.4973692
3.4200561 -1.5616844 -0.49199167
3.4393265 -1.5345669 -0.49773571
3.5052457 -1.5482345 -0.49419692
3.5671484 -1.5720446 -0.48848274
3.5882661 -1.5436215 -0.49449548
3.6611269 -1.5582078 -0.49069753
3.7374833 -1.5735714 -0.48670039
3.8176599 -1.5896893 -0.48250708
3.8339181 -1.569324 -0.48680535
3.9104638 -1.5962269 -0.48029444
3.9275846 -1.5753212 -0.48470315
4.0085812 -1.6031392 -0.47795501
4.026639 -1.5816634 -0.48247996
4.1124825 -1.6104586 -0.47547778
4.1315589 -1.5883811 -0.48012516
4.2226934 -1.6182225 -0.47285005
4.2428818 -1.5955086 -0.47762653
4.3505111 -1.614779 -0.47251424
4.4644971 -1.6352568 -0.46708491
3.0468299 -1.456759 -0.52584791
3.10309 -1.4554291 -0.51783884
3.1545029 -1.4659579 -0.51510751
3.2080381 -1.4768667 -0.5122751
3.2695444 -1.4796202 -0.51115191
3.3218565 -1.5001643 -0.50623071
3.3399088 -1.4736693 -0.51184952
3.4012811 -1.485518 -0.50874579
3.4653466 -1.4979513 -0.50549173
3.539197 -1.5014951 -0.50409114
3.6167982 -1.5052187 -0.5026195
3.6984434 -1.5091364 -0.5010711
3.7686679 -1.533535 -0.49515793
3.7923846 -1.5030856 -0.50159001
3.8585868 -1.538425 -0.49332711
3.8835411 -1.5071692 -0.49992451
3.9535701 -1.5435917 -0.49139437
4.0540552 -1.5490577 -0.48934987
4.1605325 -1.5548499 -0.48718354
4.2632647 -1.5725756 -0.4824492
4.2838459 -1.5494201 -0.48731866
4.3937464 -1.5675356 -0.48243859
3.0610757 -1.4080719 -0.53261495
3.1290333 -1.4142741 -0.52658451
3.1760027 -1.432483 -0.52221763
3.2113202 -1.4249556 -0.52355707
3.2472794 -1.4169297 -0.52499962
3.3045645 -1.4271733 -0.52228034
3.3642728 -1.4379108 -0.5194329
3.4266081 -1.4491088 -0.51646268
3.4394302 -1.4306762 -0.52036929
3.4984546 -1.4513609 -0.51536059
3.5738609 -1.4537735 -0.5141933
3.653136 -1.4563098 -0.51296592
3.7212021 -1.4792082 -0.50739789
3.7365425 -1.4590356 -0.51166236
3.8164377 -1.4722047 -0.50811327
3.908859 -1.4754584 -0.5066179
3.9798646 -1.5114853 -0.49816522
4.0065527 -1.478898 -0.50503743
4.0818071 -1.5160537 -0.49630401
4.1005349 -1.4937804 -0.50099695
4.1997747 -1.5094352 -0.49674353
4.3151202 -1.5142338 -0.49471816
4.4267159 -1.5315101 -0.49000648
4.4489923 -1.5071692 -0.49511972
3.0548072 -1.3553996 -0.54004312
3.1041322 -1.3637441 -0.53780544
3.155447 -1.3723731 -0.53548872
3.2143626 -1.372759 -0.53490329
3.2759345 -1.373162 -0.53429139
3.3343108 -1.3826234 -0.53173327
3.3827703 -1.4107623 -0.52519035
3.4014964 -1.3832779 -0.53101885
3.4653995 -1.3933439 -0.52828205
3.5321617 -1.4039276 -0.52540791
3.6091683 -1.4051669 -0.52448261
3.6826789 -1.4165468 -0.52137768
3.6976514 -1.3963945 -0.52564085
3.759809 -1.4284401 -0.51813018
3.8489659 -1.4304421 -0.51693511
3.9344728 -1.4433761 -0.51338947
4.0335627 -1.4459183 -0.51199245
4.1289754 -1.4599564 -0.50812352
4.2296739 -1.474833 -0.50402725
4.3468037 -1.478586 -0.50221467
4.4714937 -1.4825811 -0.50028479
3.119607 -1.3387442 -0.54312027
3.0550385 -0.85122108 -0.53892791
3.0560377 -0.80286038 -0.53916645
3.0570343 -0.75461268 -0.53940463
3.0580285 -0.70649356 -0.5396421
3.05902 -0.65848649 -0.53987908
3.0600088 -0.61060715 -0.54011536
3.0613897 -0.54376668 -0.54044509
3.0607986 -0.57237995 -0.54030383
3.0621755 -0.50769573 -0.5444032
3.0632524 -0.45846778 -0.5503068
3.0644267 -0.40162271 -0.55057323
3.0654025 -0.35437703 -0.55079484
3.0663757 -0.30725586 -0.55101573
3.0676363 -0.24830806 -0.55531251
3.1208026 -2.2719233 -0.46339414
3.1848698 -2.2736509 -0.46272925
3.0264814 -2.1927841 -0.45330921
3.0808368 -2.2212424 -0.45078918
3.1429167 -2.2217638 -0.4498423
3.2079496 -2.2223103 -0.44885054
3.2761514 -2.2228832 -0.44781044
3.3477588 -2.2234848 -0.44671831
3.423034 -2.2241173 -0.44557032
3.5022659 -2.2247829 -0.4443619
3.0310419 -2.1538575 -0.44492659
3.1023283 -2.1715643 -0.43737456
3.1653297 -2.1709273 -0.43610767
3.2313488 -2.1702602 -0.43478009
3.3006072 -2.1695602 -0.43338737
3.3733492 -2.1688251 -0.43192461
3.5857754 -2.2254846 -0.44308826
3.6739185 -2.2262251 -0.44174418
3.767091 -2.2270079 -0.44032308
3.865737 -2.2278366 -0.43881866
3.9703524 -2.2287157 -0.43722317
4.0814967 -2.2296491 -0.43552807
3.0350814 -2.1124074 -0.44027784
3.1241045 -2.1212265 -0.4237819
3.1880472 -2.1194003 -0.42218646
3.2550731 -2.1174858 -0.4205139
3.3254113 -2.1154771 -0.41875872
3.3993137 -2.1133661 -0.41691467
3.4498448 -2.168052 -0.43038639
3.5303926 -2.1672378 -0.42876658
3.6153226 -2.1663795 -0.42705879
3.7050033 -2.165473 -0.42525545
3.7998433 -2.1645145 -0.42334834
3.9003024 -2.1634994 -0.42132816
4.199801 -2.2306433 -0.43372384
4.3259797 -2.231703 -0.43179944
3.0294113 -2.0525105 -0.4570919
3.0287328 -2.0787857 -0.44424263
3.4770582 -2.1111457 -0.41497466
3.5589523 -2.1088066 -0.41293111
3.6453376 -2.1063392 -0.41077557
3.7365935 -2.1037328 -0.40849838
3.8331442 -2.100975 -0.40608922
4.0068951 -2.1624217 -0.41918465
4.1201997 -2.1612768 -0.41690621
4.2408719 -2.1600573 -0.4144797
4.3696537 -2.1587555 -0.41188988
3.0303252 -2.0068784 -0.45459226
3.9354644 -2.098053 -0.40353605
4.0440865 -2.0949502 -0.40082559
4.1596122 -2.0916507 -0.39794287
3.0313861 -1.955549 -0.45494714
4.2827201 -2.0881345 -0.39487097
4.4141831 -2.0843794 -0.39159051
3.0324452 -1.9043429 -0.45530102
4.2627716 -1.9884837 -0.3918505
3.0335178 -1.8532877 -0.4556593
3.0832655 -1.8503432 -0.43196806
3.1399806 -1.8611515 -0.42913058
3.2104261 -1.856679 -0.42950556
3.2728527 -1.868166 -0.42647156
3.3382068 -1.8801925 -0.42329618
3.4195356 -1.875912 -0.4235377
3.4852455 -1.8974285 -0.41829214
3.4987323 -1.8801119 -0.42194989
3.5681078 -1.9022789 -0.41653153
3.663065 -1.8983123 -0.41658887
3.7403038 -1.9221957 -0.4107298
3.7560093 -1.9035172 -0.41466537
3.8296647 -1.937763 -0.40657935
3.8461907 -1.9186375 -0.41060534
3.9327748 -1.9444118 -0.40425488
3.959054 -1.914845 -0.4104726
4.0516086 -1.9413884 -0.40390405
4.1590509 -1.9590497 -0.39914373
4.2835579 -1.9671323 -0.39632532
4.3045478 -1.9455702 -0.40084401
4.4167666 -1.9757214 -0.39332232
3.0364921 -1.8055568 -0.4605175
3.0722084 -1.8058944 -0.44174603
3.1144676 -1.8045475 -0.44167987
3.167016 -1.8222859 -0.43736812
3.2387953 -1.8167574 -0.43796173
3.2905221 -1.8438406 -0.43162093
3.3084068 -1.8192194 -0.43683293
3.3691063 -1.8386002 -0.43209431
3.4389653 -1.8503599 -0.4289389
3.4520504 -1.8331513 -0.43257651
3.5260594 -1.8450246 -0.42936131
3.5894182 -1.8755856 -0.42216536
3.6110151 -1.8485334 -0.42787519
3.6856093 -1.870785 -0.42239413
3.7008047 -1.8522303 -0.42630693
3.7798352 -1.8751819 -0.42063567
3.8797262 -1.8798273 -0.41877499
3.985729 -1.8848331 -0.4167839
4.0796075 -1.910794 -0.41033092
4.098505 -1.8901448 -0.41466865
4.1886673 -1.9276547 -0.40573135
4.2187581 -1.8957562 -0.41242447
4.3364511 -1.9127994 -0.40771183
3.036411 -1.7561882 -0.46441081
3.0843999 -1.7568998 -0.45231667
3.1409745 -1.7656438 -0.44993022
3.1944923 -1.7827873 -0.4457399
3.2112098 -1.7587554 -0.45083329
3.2676387 -1.7761683 -0.44655934
3.3386526 -1.77758 -0.44564745
3.3941967 -1.8048282 -0.43923828
3.4132993 -1.7791171 -0.44467726
3.4785585 -1.7982914 -0.43994537
3.5607603 -1.8004711 -0.43877217
3.6402011 -1.811975 -0.43559119
3.7316203 -1.8146031 -0.43424204
3.8202274 -1.8271441 -0.43075714
3.9223862 -1.8304563 -0.42916766
4.0218344 -1.8442101 -0.42532656
4.1272058 -1.858783 -0.42125663
4.2492371 -1.8634462 -0.41920403
4.2698212 -1.8416266 -0.42378256
4.3796988 -1.8683748 -0.41702208
3.0440145 -1.7110386 -0.47076425
3.0876281 -1.706682 -0.46323022
3.1207581 -1.7024484 -0.46387056
3.1733696 -1.7180977 -0.46001342
3.2338154 -1.726259 -0.45772097
3.297039 -1.7347953 -0.45532301
3.3694227 -1.73522 -0.45461455
3.445622 -1.7356122 -0.45388058
3.505409 -1.7629805 -0.44740948
3.5258622 -1.7360828 -0.45309535
3.5890377 -1.7641642 -0.44644114
3.6105292 -1.7365699 -0.45226976
3.6773829 -1.7654006 -0.44542119
3.7707896 -1.7667749 -0.44432822
3.8531001 -1.7880492 -0.43899444
3.8697746 -1.7682188 -0.44317284
3.9484382 -1.8003068 -0.43551424
3.9660127 -1.7799673 -0.4397957
4.0493274 -1.8132782 -0.43183133
4.0678811 -1.7924035 -0.43622121
4.1759505 -1.805521 -0.4324455
4.2906051 -1.8195939 -0.42840573
4.3115935 -1.7973442 -0.43307421
4.423821 -1.8230512 -0.42652068
3.0405459 -1.6520441 -0.47742525
3.0906444 -1.6561728 -0.47420898
3.1472867 -1.6627181 -0.47230092
3.2008677 -1.6777389 -0.46857235
3.237143 -1.6732805 -0.46923491
3.2740898 -1.6683621 -0.46999207
3.3330085 -1.6841791 -0.46604457
3.4008076 -1.6920133 -0.46376082
3.4785247 -1.6913273 -0.46324888
3.5534921 -1.699749 -0.46077624
3.6323106 -1.7086034 -0.45817706
3.7076204 -1.7275255 -0.45341519
3.7229483 -1.7083254 -0.45746753
3.8027484 -1.727752 -0.45255759
3.8950789 -1.7381248 -0.44951352
3.992692 -1.7490916 -0.44629523
4.0196939 -1.7178426 -0.45287314
4.096055 -1.760704 -0.44288734
4.1245804 -1.7286103 -0.44963631
4.2257853 -1.7510664 -0.44388464
4.343493 -1.7635288 -0.44016966
4.4574747 -1.7884815 -0.4337655
3.0612693 -1.6111186 -0.48427495
3.1113183 -1.6245961 -0.4809126
3.1217713 -1.6086299 -0.48430213
3.1742423 -1.6223485 -0.48086676
3.234525 -1.628341 -0.47904822
3.29757 -1.634608 -0.47714624
3.3573999 -1.6498554 -0.47331515
3.3697457 -1.6324821 -0.4769952
3.4327455 -1.6480448 -0.47306839
3.5053222 -1.6552591 -0.47087905
3.5815611 -1.6628375 -0.46857914
3.6543281 -1.6803341 -0.46414837
3.6691661 -1.661283 -0.46817252
3.7461967 -1.6792042 -0.46361396
3.82706 -1.6980669 -0.45881781
3.9206798 -1.7076778 -0.45592865
3.0544579 -0.84964156 -0.48168674
3.0554321 -0.80374467 -0.48436359
3.0565522 -0.7532652 -0.49182764
3.0575471 -0.70513052 -0.49212483
3.0585396 -0.65710801 -0.49242106
3.05953 -0.60921329 -0.49271658
3.0610094 -0.53926742 -0.49630508
3.06042 -0.56451702 -0.48983547
3.0617955 -0.50252002 -0.49904796
3.062777 -0.45702544 -0.50310123
3.0639513 -0.40016234 -0.50343812
3.7726371 -0.44333243 -0.4536539
4.0592251 -0.4723931 -0.44567528
4.1734576 -0.47431314 -0.44428012
4.2734952 -0.50405884 -0.4378728
4.4024973 -0.50720251 -0.43611553
4.5284352 -0.52524155 -0.43163416
3.0649283 -0.35290167 -0.50371802
3.1031635 -0.34158906 -0.47854599
3.1571188 -0.34976962 -0.4765434
3.213433 -0.3583473 -0.47444597
3.2662692 -0.37755358 -0.47041699
3.2783499 -0.35699439 -0.47410467
3.3402021 -0.36611283 -0.47185686
3.3983831 -0.38643199 -0.46757349
3.4659808 -0.39672825 -0.46505591
3.4797761 -0.37470716 -0.46899799
3.5513921 -0.38496482 -0.4664509
3.6115136 -0.41884565 -0.45964471
3.6266339 -0.39579451 -0.463765
3.7058511 -0.40714091 -0.46094748
3.7976985 -0.40695119 -0.46014598
3.8685894 -0.44422069 -0.45261577
3.8861911 -0.41931745 -0.45705554
3.9704535 -0.44516376 -0.45151368
3.9890866 -0.41949418 -0.45608577
4.0886745 -0.43292445 -0.45269778
4.1942463 -0.44723558 -0.4490926
4.306469 -0.46236992 -0.44527426
4.4376745 -0.46407709 -0.44376245
4.5657749 -0.48090732 -0.43948469
3.0673094 -0.30571043 -0.50446343
3.1193361 -0.31239697 -0.48379114
3.1739151 -0.32002413 -0.48188505
3.2051475 -0.3190679 -0.48177722
3.2427065 -0.30751371 -0.48356947
3.2966542 -0.32584321 -0.47969219
3.3656898 -0.32362714 -0.47947273
3.41821 -0.35407957 -0.47336915
3.4315689 -0.33228225 -0.47727397
3.5006948 -0.34131557 -0.47497562
3.5732546 -0.35084832 -0.47255376
3.5879924 -0.32784921 -0.47666791
3.649574 -0.36082166 -0.47001627
3.7379906 -0.35930941 -0.46949026
3.8230631 -0.37013048 -0.4667165
3.9129224 -0.38149777 -0.4637982
4.0173941 -0.38049573 -0.46303174
4.1185117 -0.39293551 -0.45981279
4.2152467 -0.41988263 -0.45395401
4.2364616 -0.39224997 -0.45886502
4.3512034 -0.40580702 -0.45531568
4.473362 -0.42032591 -0.45152041
3.0671628 -0.24965322 -0.51372468
3.0933099 -0.25675398 -0.49430665
3.1466768 -0.26304621 -0.49265823
3.202347 -0.2696746 -0.49092677
3.2665114 -0.26617646 -0.49098846
3.3213713 -0.28377861 -0.4872373
3.3915775 -0.28047502 -0.4872081
3.4586442 -0.28810275 -0.48518822
3.5218422 -0.3075586 -0.48101863
3.5360954 -0.28480661 -0.48509154
3.6103487 -0.29296124 -0.48290887
3.6727781 -0.3254464 -0.47633955
3.6884265 -0.30159014 -0.48060378
3.7707026 -0.31062591 -0.47818527
3.8488135 -0.33274913 -0.47338709
3.9491234 -0.3302806 -0.47292945
4.0460663 -0.34099445 -0.47006735
4.1488447 -0.3522816 -0.46704617
4.2687225 -0.3502309 -0.46633306
4.3853459 -0.36263418 -0.46297964
4.5097008 -0.37577322 -0.45941988
3.0678439 -0.21182887 -0.50455546
3.1092985 -0.22735243 -0.49959221
3.168864 -0.22299725 -0.49985412
3.225461 -0.22874196 -0.4982774
3.2845891 -0.23478468 -0.49662259
3.3464694 -0.24106564 -0.49489877
3.4178743 -0.23664065 -0.49506578
3.4860842 -0.24332795 -0.49320915
3.4999902 -0.22063738 -0.49727395
3.5577121 -0.25030065 -0.49126866
3.6329587 -0.25767773 -0.48922059
3.6482038 -0.23388746 -0.49347636
3.7121725 -0.26538879 -0.4870747
3.804003 -0.26106751 -0.48703644
3.8748791 -0.29490998 -0.48013934
3.8924704 -0.26937336 -0.48469624
3.976702 -0.29126185 -0.47988591
3.9953208 -0.26491928 -0.48458228
4.0752058 -0.30085063 -0.47721735
4.179584 -0.31108367 -0.47437629
4.2003527 -0.28324887 -0.47932884
4.3014283 -0.30763063 -0.47390434
4.4200993 -0.31868961 -0.47078058
4.5465722 -0.33056343 -0.46743521
3.7361968 -0.22876352 -0.49362126
3.9102252 -0.24359977 -0.48929557
4.0141182 -0.23832475 -0.48932371
4.1146951 -0.24644665 -0.48690715
4.2213326 -0.25513154 -0.4843317
4.3235364 -0.27883548 -0.47902206
4.3458757 -0.24973811 -0.48419353
4.4553528 -0.2741127 -0.47869375
4.5715179 -0.29997641 -0.47285804
4.4791951 -0.24396452 -0.48404559
3.029067 -2.0473096 -0.41492137
3.0284274 -2.0782435 -0.41467699
3.0842075 -2.0731263 -0.41185316
3.1461725 -2.0702162 -0.41000763
3.2110751 -2.0671682 -0.40807453
3.27913 -2.0639722 -0.40604779
3.3505721 -2.0606167 -0.40391991
3.0299187 -2.0061352 -0.4152467
3.0461481 -2.0059361 -0.4005197
3.1063719 -2.0123641 -0.39846322
3.172349 -2.0099034 -0.39717063
3.2431059 -2.0082018 -0.39621815
3.3133986 -2.0154927 -0.39403263
3.4096737 -2.0360382 -0.39757225
3.5046828 -2.0533793 -0.39932999
3.5879555 -2.0494683 -0.3968499
3.6758308 -2.0453415 -0.39423266
3.0309808 -1.9547915 -0.41565236
3.0718665 -1.9590688 -0.40837714
3.1229646 -1.9797583 -0.40343508
3.144377 -1.949625 -0.40981767
3.1984153 -1.9706488 -0.40477863
3.2722516 -1.9689703 -0.40451685
3.3255389 -1.9995272 -0.39740756
3.3439293 -1.975342 -0.40251985
3.4193816 -1.9819944 -0.40042958
3.4785581 -2.0144498 -0.39285669
3.4988301 -1.9890568 -0.39821598
3.5755353 -2.0051901 -0.39404991
3.6712477 -2.0043228 -0.39342567
3.7668328 -2.0268104 -0.39114198
3.8698719 -2.0241621 -0.38929442
3.9712372 -2.0314682 -0.3854346
4.0914817 -2.0306778 -0.38411406
3.037616 -1.9173427 -0.41775939
3.052686 -1.8952241 -0.4224501
3.102937 -1.914403 -0.41784397
3.1715779 -1.9113467 -0.41792569
3.2266276 -1.9318061 -0.41300043
3.2437966 -1.9081683 -0.41800395
3.3018932 -1.9290714 -0.41295674
3.3750389 -1.9344296 -0.41116807
3.4519935 -1.9401226 -0.40927413
3.5262141 -1.9547558 -0.4054558
3.5470228 -1.9286904 -0.41095713
3.6115141 -1.9612582 -0.40331456
3.7093279 -1.9590344 -0.4029679
3.7809322 -1.9941611 -0.39470741
3.8051591 -1.9661236 -0.40060946
3.8982511 -1.9832547 -0.3960866
4.0057912 -1.9914522 -0.39338717
4.1201806 -2.0002546 -0.39049771
4.2218027 -2.0305684 -0.38303074
4.2421875 -2.0096281 -0.38741925
4.3726373 -2.0195932 -0.3841401
3.0678906 -1.8729088 -0.42718253
3.1239808 -1.8841515 -0.4242557
3.1936436 -1.8802955 -0.42450294
3.2553523 -1.8922591 -0.42137155
3.3199389 -1.9047813 -0.4180949
3.4003017 -1.901207 -0.41819081
3.4718623 -1.9146116 -0.41466263
3.6407661 -1.9255404 -0.41084692
3.0541739 -0.83863223 -0.43402323
3.0550733 -0.7972821 -0.43842593
3.0560703 -0.75191665 -0.44421443
3.057066 -0.70376647 -0.44457117
3.271661 -0.70691413 -0.40952775
3.3403225 -0.71434605 -0.4075295
3.412554 -0.72216451 -0.40542737
3.4886386 -0.73039991 -0.40321228
3.5688951 -0.73908681 -0.4008753
3.6536767 -0.7482636 -0.39840671
3.7433786 -0.75797296 -0.39579478
3.8384404 -0.76826239 -0.3930268
3.939358 -0.77918577 -0.39008823
4.0564919 -0.77841127 -0.38916329
4.1714835 -0.79041415 -0.38589689
4.2832084 -0.8164041 -0.3800762
4.3053932 -0.7900635 -0.38474038
4.4257698 -0.81695646 -0.378674
3.0633907 -0.65753609 -0.44111612
3.1062016 -0.64996254 -0.42155507
3.1609046 -0.66498601 -0.41828153
3.2239358 -0.67108196 -0.41658148
3.2900996 -0.67748088 -0.4147968
3.3596365 -0.68420601 -0.41292116
3.4328105 -0.69128287 -0.41094735
3.5099151 -0.69873971 -0.40886751
3.5837705 -0.71749556 -0.40472886
3.5987735 -0.6957202 -0.40861526
3.6772463 -0.71492255 -0.4043518
3.7682431 -0.72372288 -0.40189609
3.8647161 -0.73305273 -0.3992925
3.9671738 -0.74296141 -0.39652738
4.0860915 -0.74098969 -0.39580718
4.2029448 -0.75184476 -0.39273605
4.3278131 -0.76344442 -0.38945416
4.4615498 -0.77586794 -0.38593909
3.0626252 -0.60811257 -0.44638607
3.1281075 -0.61268187 -0.42824212
3.1894298 -0.61743778 -0.42680511
3.2417369 -0.64203519 -0.42178497
3.2597625 -0.61262208 -0.4270539
3.3213072 -0.62766552 -0.42371455
3.3857286 -0.64348859 -0.42020479
3.4055572 -0.61254543 -0.42574015
3.4671221 -0.63897383 -0.42029747
3.5386753 -0.65593833 -0.41651198
3.5605466 -0.62338817 -0.42232546
3.6292076 -0.65154374 -0.41649911
3.7091348 -0.66981339 -0.41239521
3.7934084 -0.68905902 -0.40807089
3.8103888 -0.66566926 -0.4122375
3.8913186 -0.6974048 -0.40563616
3.9092751 -0.67334217 -0.40991816
3.9953468 -0.70627201 -0.40304908
4.0143709 -0.68149686 -0.40745303
4.1161828 -0.70294571 -0.40256175
4.2349463 -0.71261245 -0.39969262
4.3619208 -0.72294748 -0.39662513
4.4857531 -0.74807358 -0.39085361
4.5102243 -0.71997154 -0.3958225
3.0607264 -0.53168154 -0.45531943
3.0721581 -0.5608387 -0.44938001
3.1313424 -0.55436528 -0.4389849
3.1614976 -0.55585772 -0.43843463
3.2184491 -0.56906509 -0.43547615
3.2841022 -0.57290655 -0.43416855
3.3466618 -0.58719277 -0.43095973
3.3595045 -0.56669259 -0.43462959
3.4256506 -0.58118862 -0.43134937
3.4950218 -0.59644061 -0.42790011
3.5091629 -0.57488191 -0.43175372
3.5827267 -0.59037912 -0.42822096
3.6679084 -0.59536302 -0.42652449
3.74159 -0.62390071 -0.42058173
3.7662923 -0.58895195 -0.4268125
3.8361712 -0.63015509 -0.41856387
3.9365501 -0.63679278 -0.4164221
4.0432782 -0.64385027 -0.41414484
4.1466765 -0.66439259 -0.40940651
4.1672797 -0.63834476 -0.41403124
4.2783556 -0.65939474 -0.40912911
4.3965168 -0.68187088 -0.40389886
4.4199128 -0.65409225 -0.4088178
4.5349674 -0.69155663 -0.40084669
3.0614128 -0.50339454 -0.46498677
3.0704639 -0.50322574 -0.44898602
3.1288016 -0.50530946 -0.44806984
3.1842115 -0.51720309 -0.44536808
3.2480495 -0.51972383 -0.44432095
3.3025899 -0.54273987 -0.43957254
3.3213155 -0.51218545 -0.44504616
3.3789704 -0.5356192 -0.44019225
3.4528031 -0.53881645 -0.43892905
3.5306098 -0.54218572 -0.43759796
3.6051583 -0.55699587 -0.43418333
3.6202829 -0.53448689 -0.43820342
3.6995025 -0.54949921 -0.43470863
3.7829583 -0.56537318 -0.43101636
3.8710771 -0.5820719 -0.42712894
3.9734957 -0.58728492 -0.42523214
4.0824547 -0.59283066 -0.42321375
4.1986036 -0.59874237 -0.42106232
4.3226776 -0.6050573 -0.41876414
4.443563 -0.62601191 -0.4137902
3.0623956 -0.4558709 -0.46531537
3.097033 -0.45617485 -0.45743534
3.1565223 -0.45717263 -0.4567093
3.2072036 -0.47807357 -0.45238671
3.2188418 -0.45826742 -0.45593938
3.278173 -0.46951085 -0.4533219
3.3466055 -0.47091877 -0.45243856
3.4052689 -0.49363992 -0.44770715
3.4252551 -0.46173692 -0.45341828
3.4803977 -0.49575397 -0.4466323
3.5522952 -0.50912583 -0.44350734
3.5669134 -0.48683962 -0.44749102
3.64323 -0.50033581 -0.44430277
3.7316551 -0.50282395 -0.44303778
3.7997746 -0.54158103 -0.435258
3.8167439 -0.51757276 -0.43953827
3.8976598 -0.54544985 -0.43365178
3.9156027 -0.52073044 -0.43805447
4.0016484 -0.54955983 -0.43194529
4.0206552 -0.524086 -0.43647775
4.1123223 -0.5539341 -0.43012789
4.1324987 -0.5276584 -0.43479845
4.2410846 -0.54503429 -0.43059793
4.3565063 -0.56358504 -0.42611787
4.479557 -0.58327544 -0.42135772
3.0672629 -0.40847471 -0.46690211
3.1185906 -0.41799903 -0.46429095
3.1294975 -0.39868405 -0.46775958
3.184715 -0.40821642 -0.46549568
3.242408 -0.41816145 -0.46313313
3.3027008 -0.42862526 -0.46065113
3.3658197 -0.43956617 -0.45805505
3.3787632 -0.41844589 -0.46183857
3.4455087 -0.42940661 -0.4592059
3.5084457 -0.45198417 -0.45446214
3.5297711 -0.41870528 -0.46041521
3.589088 -0.45303383 -0.45353362
3.6664419 -0.46579096 -0.4504725
3.6820958 -0.44249418 -0.45463333
3.7561278 -0.46729842 -0.44937727
3.8425086 -0.48112047 -0.44603714
3.9428558 -0.48318461 -0.44474182
4.0398469 -0.49836493 -0.44105425
4.1528773 -0.50111949 -0.43951586
4.3793793 -0.53554404 -0.43109009
3.0871804 -0.37043995 -0.4733623
3.1404824 -0.3792305 -0.47125289
3.2018781 -0.37841204 -0.47084478
3.3213317 -0.39756903 -0.46621814
3.0555186 -0.83788472 -0.3963258
3.1883759 -0.8398515 -0.38572857
3.0620425 -0.80403101 -0.4002333
3.1078997 -0.80721009 -0.39249238
3.1433847 -0.80251932 -0.39303586
3.2058692 -0.81193233 -0.39072737
3.2714517 -0.82181215 -0.38830385
3.3403707 -0.83219445 -0.38575712
3.4264126 -0.8229931 -0.38667247
3.5034964 -0.83400899 -0.38393429
3.5923474 -0.8350203 -0.38293716
3.6787238 -0.84703171 -0.37993017
3.8849425 -0.85005134 -0.37749156
3.0556839 -0.75083721 -0.40610197
3.1054235 -0.75746894 -0.40170339
3.165977 -0.7656548 -0.3996397
3.2294838 -0.77423984 -0.39747545
3.2474167 -0.74561441 -0.4025999
3.3024216 -0.77348977 -0.3969492
3.3728197 -0.78273296 -0.39459959
3.4537933 -0.78225011 -0.39395031
3.5322657 -0.79225266 -0.39138672
3.6151152 -0.80281305 -0.38867995
3.7027192 -0.81397951 -0.38581797
3.7954986 -0.82580554 -0.38278696
3.9119797 -0.81484133 -0.38375041
4.0176659 -0.8274982 -0.38044807
4.1200304 -0.85349369 -0.37471172
4.1404457 -0.82846534 -0.37914976
4.2612543 -0.84247053 -0.37546042
4.3905048 -0.8574543 -0.3715134
3.0739868 -0.70478666 -0.4117212
3.13293 -0.71161771 -0.40992251
3.1831295 -0.73766667 -0.40465352
3.2004941 -0.70933217 -0.40972933
3.2594926 -0.72633767 -0.40605065
3.32758 -0.734231 -0.40397242
3.3991926 -0.74253291 -0.4017863
3.4746094 -0.7512759 -0.39948329
3.5541446 -0.76049626 -0.39705434
3.6381454 -0.77023447 -0.39448908
3.7269988 -0.7805351 -0.39177576
3.8211379 -0.79144841 -0.38890085
3.0600803 -0.16669026 0.30684665
3.0608656 -0.1290887 0.30581912
3.0619748 -0.079266638 0.29813939
3.0629184 -0.035711974 0.29379943
3.0636041 0.0019592345 0.30223808
3.0529566 -0.47809383 0.37286535
3.053956 -0.43030256 0.3714875
3.0552487 -0.37340176 0.36028528
3.0562422 -0.32586759 0.35892677
3.0576055 -0.26751775 0.3439112
3.0569375 -0.2909863 0.36110914
3.0583181 -0.23146662 0.34670466
3.0593047 -0.184297 0.34536839
3.0604844 -0.12784317 0.3437691
3.0614655 -0.080922455 0.34243989
3.0624442 -0.034125656 0.34111419
3.063225 0.0032376647 0.3400557
3.0475307 -0.71777809 0.41838589
3.0483408 -0.6790458 0.41723034
3.0493515 -0.63072777 0.41578883
3.0504572 -0.58282191 0.40473929
3.0516636 -0.52515393 0.40303329
3.0526662 -0.47722566 0.40161541
3.0536664 -0.42942524 0.40020132
3.054863 -0.37221748 0.39850894
3.0558577 -0.32467118 0.39710239
3.057246 -0.25830841 0.39513916
3.0566514 -0.2867226 0.39597976
3.0579355 -0.23024648 0.38477731
3.0589223 -0.18306497 0.38339338
3.0597098 -0.14539462 0.38228843
3.0922213 -0.066070378 0.38996816
3.2127781 -0.070374489 0.40244624
3.0619693 -0.032538474 0.38846022
3.2454062 -0.067203194 0.38268965
3.3634591 -0.073476613 0.40589252
3.3998797 -0.07016167 0.38503891
3.5528226 -0.07521823 0.39871579
3.723001 -0.080878884 0.4141157
3.9398649 -0.08534357 0.41907564
3.0628502 0.011162579 0.39032346
4.1887622 -0.090467751 0.42476824
4.4773579 -0.096409351 0.43136877
3.0403924 -1.0290078 0.48610139
3.0414233 -0.97978306 0.4845587
3.0426123 -0.92697668 0.47513217
3.0437799 -0.87220448 0.47148496
3.0449014 -0.8215909 0.46410009
3.0459194 -0.77495849 0.45878592
3.046936 -0.72638381 0.45728797
3.0479505 -0.67793959 0.45579404
3.0489621 -0.62960911 0.45430359
3.049969 -0.58432162 0.44740668
3.0512757 -0.5240081 0.44143355
3.0522444 -0.47935605 0.43686873
3.0533764 -0.42854756 0.42892614
3.0543747 -0.38084939 0.42747918
3.5149446 -0.34441352 0.48539722
3.6310861 -0.36612439 0.49133497
3.0565748 -0.25618368 0.46188074
3.1273093 -0.2719509 0.46557921
3.2142601 -0.288205 0.47002459
3.3073785 -0.30561209 0.47478533
3.4073453 -0.3242994 0.47989616
3.0571687 -0.22780399 0.46099129
3.7749498 -0.26815945 0.47007623
3.9126494 -0.28849852 0.47587931
4.0627899 -0.31067505 0.4822067
4.2271366 -0.33494988 0.48913279
4.4078045 -0.36163557 0.49674672
3.0583074 -0.17603883 0.45460719
3.1406949 -0.17446572 0.44334638
3.2282543 -0.18740276 0.44703653
3.3220353 -0.20125923 0.45098892
3.4227386 -0.21613592 0.45523292
3.5311589 -0.2321502 0.45980209
3.6482053 -0.24943858 0.46473479
3.0594356 -0.12441412 0.44823667
3.0605154 -0.075774848 0.44102553
3.1541491 -0.076652586 0.42104006
3.2423432 -0.086247802 0.42397043
3.336817 -0.096526265 0.42710948
3.4382663 -0.10756376 0.43048027
3.5474937 -0.11944732 0.43410951
3.6654289 -0.13227829 0.4380281
3.7931566 -0.14617467 0.44227207
3.9319491 -0.16127494 0.44688365
4.0833097 -0.1777426 0.45191282
4.2490263 -0.19577202 0.45741901
4.4312429 -0.21559668 0.46347344
3.0614939 -0.03094998 0.43584201
3.0624728 0.015767992 0.43440133
3.0402026 -1.018132 0.52473593
3.0411081 -0.97689074 0.51950616
3.0406232 -0.98807633 0.54324281
3.0420537 -0.93260264 0.51641387
3.0433855 -0.87114823 0.51027173
3.044373 -0.8256523 0.50558048
3.0455272 -0.77387697 0.49746639
3.0465446 -0.72528964 0.49591923
3.5971856 -0.59810174 0.54422367
3.0504019 -0.52142769 0.52791417
3.3767509 -0.53943223 0.52895141
3.4827764 -0.56765139 0.53629714
4.1837125 -0.61130399 0.5521059
4.3612862 -0.6515069 0.56279075
3.0514073 -0.47345942 0.52633846
3.100672 -0.46595284 0.50982404
3.1864159 -0.48877376 0.51576459
3.2782199 -0.51320779 0.52212501
3.7388835 -0.51059425 0.52534008
3.8744016 -0.54127568 0.53349435
4.0221043 -0.57471573 0.54238176
3.0525067 -0.42591217 0.51517737
3.39202 -0.43206388 0.50446892
3.4988298 -0.45624578 0.51089585
3.6141024 -0.48234355 0.51783192
3.0535069 -0.37818661 0.51362169
3.1139688 -0.36911276 0.48773834
3.200314 -0.38866138 0.49293381
3.2927732 -0.40959427 0.49849719
4.0423646 -0.44299677 0.51236141
4.2053514 -0.47345805 0.52069396
4.3844848 -0.50693703 0.52985197
3.0546002 -0.3308872 0.50250649
3.7568283 -0.38963002 0.4977636
3.8934348 -0.41516271 0.50474751
3.0557933 -0.2739245 0.500664
3.0569324 -0.22200622 0.49420998
3.0564914 -0.23573261 0.50897813
3.0577748 -0.17936441 0.49760544
3.0589588 -0.12285367 0.49577755
3.0599427 -0.075886041 0.49425834
3.0609238 -0.029042453 0.49274316
3.0620258 0.02477023 0.4933722
3.2348678 -0.8218559 0.59250844
3.6854923 -0.87050223 0.60738921
3.0610454 -0.75455856 0.57564461
3.1450052 -0.78706449 0.58379018
3.4508529 -0.78919232 0.58681023
3.5635529 -0.82824636 0.59669453
3.9819727 -0.83638144 0.60202348
4.1409411 -0.88505685 0.61449611
3.0457611 -0.72309935 0.57325244
3.2492676 -0.71933669 0.56913018
3.3463807 -0.75298953 0.57764745
3.8366239 -0.7918762 0.59061944
3.0467775 -0.67461735 0.57161117
3.0742114 -0.65867418 0.55377686
3.1587615 -0.68797356 0.56119233
3.5803354 -0.71340179 0.57051098
3.7032161 -0.75102723 0.58015221
4.1622763 -0.74850285 0.5833745
4.3383546 -0.79536682 0.59557366
3.0478895 -0.62652946 0.56032741
3.3615382 -0.64640677 0.55334413
3.4667847 -0.67863274 0.56160176
4.0019932 -0.70584297 0.57226968
3.0489006 -0.57829416 0.55870658
3.0874202 -0.56247282 0.53183681
3.172565 -0.58854389 0.5385173
3.2637181 -0.6164546 0.54566914
3.7210131 -0.63105893 0.55280274
3.8554723 -0.6668458 0.56211841
3.0501106 -0.52056676 0.55676675
3.0511165 -0.47258925 0.55515456
3.0521197 -0.42473981 0.55354667
3.0531204 -0.37700206 0.55194259
3.0541184 -0.32939145 0.55034268
3.0553129 -0.27241069 0.548428
3.056504 -0.21559389 0.54651874
3.0561078 -0.23451184 0.54715449
3.057296 -0.17782068 0.54524946
3.0584812 -0.12129217 0.54334998
3.0594659 -0.074309826 0.54177123
3.0604484 -0.027451545 0.54019666
3.0616243 0.028630048 0.53831214
3.044383 -0.84898001 0.6165334
3.0433266 -0.81936872 0.61534882
3.3312793 -0.85918272 0.60186201
3.0443487 -0.77062857 0.61364961
3.0453689 -0.72200322 0.61195445
3.0463862 -0.67350864 0.61026394
3.0474012 -0.62512797 0.60857731
3.0484133 -0.57687712 0.60689521
3.0496247 -0.51913106 0.60488212
3.0506313 -0.47113812 0.60320902
3.0516355 -0.42327335 0.60154039
3.0526373 -0.37552038 0.59987569
3.0536363 -0.3278946 0.59821534
3.054832 -0.27089572 0.5962283
3.0558257 -0.2235229 0.59457684
3.0568166 -0.17627588 0.59292972
3.0580029 -0.11972949 0.59095848
3.058989 -0.072732449 0.58932012
3.0599723 -0.025859475 0.58768606
3.0611491 0.030239671 0.58573037
3.0618372 0.067876995 0.59390646
3.0422184 -0.84734243 0.66493678
3.042834 -0.81802952 0.66387796
3.0438578 -0.76927346 0.66211689
3.0448785 -0.7206322 0.66035998
3.045897 -0.67212188 0.65860772
3.0469129 -0.62372553 0.65685964
3.0479257 -0.57545906 0.6551162
3.0491383 -0.51769441 0.65302974
3.0501461 -0.46968603 0.65129566
3.0511513 -0.42180598 0.64956617
3.0521538 -0.37403768 0.6478408
3.0531538 -0.32639673 0.64611995
3.0543506 -0.26937976 0.64406049
3.0553453 -0.22199197 0.64234883
3.0565355 -0.16528693 0.64030063
3.0559406 -0.19361593 0.6413238
3.0575027 -0.11557698 0.64566183
3.0584159 -0.070838064 0.64642197
3.0594008 -0.023947448 0.64471644
3.0605786 0.032172501 0.64267522
3.0613625 0.069499552 0.64131755
3.9040213 -1.622252 0.78293157
4.2465558 -1.6586988 0.79408967
3.0273063 -1.5224471 0.75863719
3.1684468 -1.5439823 0.75896943
3.3761375 -1.5660832 0.76573563
3.618221 -1.5918417 0.77362156
3.0283692 -1.4718585 0.7567206
3.0832441 -1.4856961 0.74496818
3.2772796 -1.5027132 0.75046158
3.5022151 -1.5224378 0.7568289
3.7660797 -1.5455763 0.7642982
4.0799365 -1.5730987 0.77318263
3.02953 -1.4216366 0.74493718
3.1851978 -1.4436865 0.73623431
3.3947701 -1.4581559 0.74127543
3.6391635 -1.4750295 0.74715412
3.9278419 -1.4949605 0.754098
4.2740417 -1.5188627 0.76242554
3.0714309 -1.397922 0.73981899
3.1275885 -1.3994573 0.73728985
3.182615 -1.3994828 0.74460661
3.2436702 -1.4011154 0.74209946
3.3075161 -1.4028265 0.73945189
3.3702636 -1.4029279 0.74731743
3.4358282 -1.4030337 0.75553614
3.5154216 -1.407406 0.7421934
3.5855167 -1.4068799 0.75042689
3.6612165 -1.407089 0.75933969
3.7457929 -1.409214 0.75677234
3.7884519 -1.4233491 0.73660755
4.1055655 -1.4393501 0.74289131
3.8349478 -1.4114592 0.75402975
3.923327 -1.411805 0.76376271
4.0224495 -1.4142419 0.76110768
4.1274009 -1.4168284 0.75825393
4.2319336 -1.4173584 0.76897037
4.3497043 -1.4201895 0.76623589
4.3087487 -1.110494 0.78008413
3.0637581 -0.97899204 0.74166465
3.2268744 -0.98571867 0.74448949
3.3894906 -0.97745806 0.74415743
3.4352624 -1.0097532 0.75134647
3.6243587 -1.0023475 0.75142252
3.6781859 -1.0377712 0.75933975
3.900831 -1.0316448 0.75997341
3.9649837 -1.0708475 0.76877487
3.040086 -0.91408962 0.73558921
3.0394666 -0.94356519 0.7367059
3.1684 -0.94166547 0.73471737
3.3452008 -0.94620854 0.73720121
3.5724142 -0.96816278 0.74378228
3.0413992 -0.85754919 0.72176558
3.0762753 -0.87226051 0.71932161
3.1122477 -0.89936137 0.72533333
3.3023205 -0.91595441 0.73046637
3.042341 -0.81668931 0.71244466
3.0433662 -0.76791728 0.7106216
3.0443873 -0.71926022 0.70880276
3.0454071 -0.67073405 0.70698881
3.0464239 -0.62232202 0.70517915
3.0474379 -0.57403994 0.70337427
3.0486515 -0.51625669 0.70121431
3.0496602 -0.46823284 0.69941914
3.0506666 -0.42033744 0.69762874
3.0516703 -0.37255388 0.69584262
3.0526712 -0.32489774 0.69406116
3.053869 -0.26786268 0.6919291
3.0548649 -0.22045977 0.69015718
3.0561342 -0.16197279 0.68414497
3.0555122 -0.18719548 0.69369614
3.0569351 -0.11911252 0.69182432
3.0579383 -0.069258183 0.69404292
3.0589237 -0.022352934 0.69227779
3.0601029 0.033784598 0.69016516
3.0610836 0.080442429 0.68840933
3.2247524 -1.8120196 0.82056737
3.8568656 -1.8742411 0.84001124
3.0289905 -1.7598956 0.80865097
3.3391714 -1.780062 0.81422997
3.5767233 -1.8232801 0.82606101
4.0292258 -1.8377373 0.83311766
4.4005198 -1.8982329 0.84999955
3.0228333 -1.7150271 0.80577111
3.1351962 -1.7429526 0.80407113
3.4629929 -1.7454782 0.8073718
3.7217722 -1.7876432 0.81913841
3.0239077 -1.6639271 0.80378366
3.0375032 -1.6813889 0.79661882
3.2421675 -1.7094932 0.79732943
3.5974097 -1.7079239 0.79992366
3.8803632 -1.7486758 0.81156862
4.219275 -1.797487 0.8255167
3.0248668 -1.6233656 0.79226804
3.1517766 -1.6437347 0.78158087
3.3576066 -1.6733847 0.79005384
3.7438536 -1.6670053 0.79180789
4.054491 -1.7058911 0.80325723
3.0259356 -1.5725048 0.79030263
3.0673449 -1.5823121 0.76687074
3.2596798 -1.6063938 0.77396166
3.4825478 -1.6342945 0.78217673
3.0270014 -1.5217841 0.78834265
3.0280652 -1.471185 0.78638744
3.0291259 -1.420725 0.78443754
3.0583229 -1.3919262 0.77774715
3.1105309 -1.3918004 0.78568286
3.1683967 -1.3932219 0.78414017
3.2288418 -1.3947129 0.78248781
3.2881675 -1.3946383 0.79105318
3.3540895 -1.3962221 0.78953105
3.4189408 -1.3961776 0.79864812
3.491142 -1.3978747 0.79722995
3.4999673 -1.4013815 0.77520549
3.5669453 -1.3996615 0.79571044
3.6417682 -1.3996981 0.80565953
3.7304325 -1.4035101 0.79246551
3.8134017 -1.4036461 0.80286598
3.8950617 -1.4018013 0.82624042
3.9063017 -1.40578 0.80137312
3.9985304 -1.4059858 0.81258416
4.0104394 -1.410097 0.78692722
4.0958161 -1.4062032 0.82440996
4.1083741 -1.4104282 0.79808652
4.1985855 -1.4064325 0.8369025
4.2118478 -1.4107779 0.80987686
4.3284087 -1.4134002 0.80837321
3.1286612 -1.2726099 0.8039887
3.2811859 -1.280983 0.80706835
3.452214 -1.2903717 0.81052148
3.6453288 -1.3009729 0.8144207
3.700381 -1.342448 0.82362092
3.9283614 -1.3576697 0.82879335
4.1908674 -1.3751967 0.8347491
4.437407 -1.4115403 0.83557844
