# .PCD v0.7 - Point Cloud Data file format
VERSION 0.7
FIELDS x y z
SIZE 4 4 4
TYPE F F F
COUNT 1 1 1
WIDTH 1504
HEIGHT 1
VIEWPOINT 0 0 0 1 0 0 0
POINTS 1504
DATA ascii
3.0683942 -1.0881881 0.13179573
3.0675576 -1.0263093 0.13135007
3.0678916 -1.0510163 0.13152802
3.0670578 -0.9893589 0.13108397
3.0665603 -0.95251852 0.13081864
3.1235909 -0.94719887 0.13495886
3.1958625 -0.94596887 0.14024311
3.2730472 -0.9452377 0.12083518
3.3523643 -0.94390154 0.12603876
3.4355457 -0.94250023 0.13149583
3.5247521 -0.9416244 0.11039244
3.6166823 -0.94009179 0.11573257
3.7134488 -0.93847883 0.12135368
3.8165777 -0.93709844 0.11277045
3.9255278 -0.93564045 0.1036902
3.0848978 -2.305397 0.16550907
3.0843382 -2.2640488 0.16516706
3.0835953 -2.2091341 0.16471282
3.0828559 -2.1544781 0.16426066
3.0821006 -2.0951705 0.19260162
3.0823033 -2.1136467 0.16392294
3.0814233 -2.0456161 0.18801799
3.0808761 -2.0051761 0.18764025
3.0803313 -1.9648929 0.18726394
3.0796072 -1.9113905 0.18676424
3.0788867 -1.8581364 0.18626678
3.0781701 -1.8051292 0.18577161
3.0772779 -1.7392067 0.18515587
3.0776341 -1.765527 0.18540177
3.0767457 -1.6998479 0.18478826
3.0760384 -1.6475707 0.18429992
3.0753345 -1.5955334 0.18381387
3.0746336 -1.5437346 0.18333003
3.0739362 -1.4921722 0.18284842
3.0732417 -1.4408451 0.18236893
3.072499 -1.385476 0.185846
3.0727046 -1.4025776 0.17002895
3.0718625 -1.3388897 0.18141663
3.0711777 -1.2882583 0.1809437
3.0704956 -1.2378556 0.18047288
3.0698173 -1.1876802 0.18000427
3.0691416 -1.1377305 0.17953774
3.0684688 -1.0880048 0.17907324
3.0676324 -1.0261539 0.17849553
3.0679662 -1.0508499 0.17872617
3.0671329 -0.98922026 0.17815053
3.0666349 -0.95239645 0.17780659
3.1208227 -0.94613516 0.1825361
3.1929297 -0.94488275 0.18889076
3.2707109 -0.94440389 0.15823239
3.2691562 -0.94384933 0.18311611
3.3490593 -0.94276601 0.17705372
3.432035 -0.94133931 0.18374357
3.5210135 -0.94043493 0.16401693
3.6127019 -0.93887436 0.17072085
3.7102644 -0.93754309 0.16369405
3.8131785 -0.93613935 0.1562703
3.9206841 -0.93432909 0.1633231
3.0849683 -2.3046329 0.21536124
3.0844095 -2.2633052 0.21493104
3.0836663 -2.2084184 0.21435967
3.082901 -2.1509621 0.22118214
3.0822275 -2.099086 0.23791501
3.081495 -2.0449815 0.23729405
3.0809481 -2.0045612 0.23683017
3.0804036 -1.9642978 0.23636803
3.0796795 -1.910821 0.23575428
3.0789595 -1.8575928 0.23514339
3.0782423 -1.8046111 0.23453531
3.0774755 -1.7474481 0.2379345
3.0776887 -1.7651528 0.22191676
3.0768182 -1.6993805 0.23332757
3.0761116 -1.6471281 0.23272786
3.075408 -1.5951154 0.23213089
3.074707 -1.543341 0.23153663
3.0740094 -1.4918029 0.23094514
3.0733154 -1.4404998 0.2303564
3.0726244 -1.3894298 0.22977021
3.0719364 -1.3385919 0.2291868
3.0712519 -1.2879839 0.22860593
3.07057 -1.2376044 0.2280277
3.0698915 -1.1874517 0.2274521
3.0692158 -1.137525 0.22687915
3.0685437 -1.0878218 0.22630867
3.0678737 -1.0383412 0.22574082
3.0672076 -0.98908174 0.22517547
3.06671 -0.95227444 0.22475305
3.118062 -0.94507432 0.2299827
3.1900058 -0.94379973 0.23740184
3.2668285 -0.94301879 0.22037008
3.3457646 -0.94163394 0.22791865
3.4285352 -0.94018185 0.23583382
3.5172858 -0.93924904 0.21747565
3.6097245 -0.93796378 0.21185309
3.6077452 -0.93735838 0.23921672
3.7070911 -0.93661046 0.20591971
3.8086615 -0.93486476 0.21410868
3.917062 -0.93334842 0.20791972
3.0850399 -2.3038697 0.26516667
3.0844805 -2.262563 0.26464847
3.0837381 -2.2077029 0.26396024
3.0830605 -2.1555843 0.28061482
3.0822988 -2.0984251 0.28726059
3.0815668 -2.044347 0.2865245
3.0810199 -2.0039465 0.28597456
3.0804753 -1.9637028 0.28542677
3.0797517 -1.9102525 0.28469923
3.0790315 -1.8570498 0.28397509
3.078315 -1.8040937 0.28325424
3.0776017 -1.7513822 0.28253672
3.0768914 -1.6989135 0.28182256
3.0761847 -1.646686 0.28111163
3.0754809 -1.594698 0.280404
3.0747805 -1.5429479 0.27969959
3.0740831 -1.4914341 0.2789984
3.0733891 -1.4401549 0.27830037
3.0726981 -1.389109 0.27760562
3.0720103 -1.3382943 0.27691397
3.0713258 -1.2877097 0.27622542
3.0706441 -1.2373532 0.27553999
3.0699656 -1.1872238 0.27485761
3.0692899 -1.1373193 0.27417836
3.0685954 -1.0851339 0.2805382
3.0679669 -1.0381408 0.2845923
3.0673008 -0.98890865 0.28389594
3.0668032 -0.95212209 0.28337565
3.1153092 -0.94401646 0.27729926
3.1870897 -0.9427197 0.28577697
3.2637327 -0.94191408 0.2699233
3.3424792 -0.94050515 0.27863404
3.4259174 -0.93931609 0.27480355
3.5135722 -0.93806756 0.27076963
3.6047823 -0.93645215 0.28017563
3.7028728 -0.93537062 0.26206827
3.8041599 -0.93359452 0.27175415
3.91345 -0.93237054 0.25238881
3.0847232 1.2783041 0.32190603
3.0694251 1.3323668 0.31886253
3.073226 1.3038925 0.31985012
3.2277339 1.3149312 0.31959075
3.0631344 1.3794926 0.31722805
3.2218254 1.3548815 0.3182047
3.2145028 1.4043918 0.31648687
3.2072427 1.4534795 0.31478378
3.3827469 1.4320664 0.31566313
3.3742721 1.4837447 0.31386945
3.3675528 1.5247159 0.3124474
3.5589459 1.5284168 0.31247088
3.55305 1.5607953 0.31134665
3.5452416 1.6036752 0.30985776
3.7432973 1.6916847 0.30697125
3.0851104 -2.3031073 0.3149254
3.0845513 -2.2618208 0.3143194
3.0837827 -2.2041473 0.32089743
3.0829213 -2.1384621 0.33720097
3.0832901 -2.1656785 0.33762953
3.0823705 -2.0977645 0.33656031
3.0816386 -2.0437133 0.3357093
3.0810919 -2.0033326 0.3350735
3.0805473 -1.9631084 0.3344402
3.079824 -1.9096841 0.33359912
3.0791039 -1.8565075 0.33276185
3.0783875 -1.8035768 0.33192858
3.0776739 -1.7508904 0.33109894
3.0769641 -1.6984468 0.33027333
3.0762572 -1.6462442 0.32945141
3.0755539 -1.594281 0.32863331
3.0748537 -1.5425551 0.3278189
3.0741563 -1.4910655 0.32700816
3.0732894 -1.4270258 0.32600001
3.0736356 -1.4525949 0.32640252
3.0727715 -1.388788 0.325398
3.0720844 -1.337997 0.32459828
3.0713997 -1.2874355 0.32380226
3.0707181 -1.2371024 0.32300979
3.0700586 -1.1869389 0.33405286
3.0693829 -1.137063 0.33324108
3.0685618 -1.074981 0.34400561
3.0688787 -1.0997958 0.33263445
3.0680599 -1.0379401 0.34338295
3.0673938 -0.98873591 0.34255585
3.0668964 -0.95196968 0.34193787
3.1125638 -0.94296134 0.32448629
3.1841819 -0.94164276 0.33401674
3.2606461 -0.94081277 0.31933454
3.3383887 -0.93909955 0.3418242
3.340023 -0.93966109 0.31657782
3.4233077 -0.93845308 0.31367588
3.5098708 -0.93688989 0.32389945
3.601826 -0.93554783 0.32104832
3.698667 -0.93413472 0.31803465
3.8007925 -0.93264437 0.31486815
3.9086483 -0.93107051 0.3115117
3.0461493 1.2821572 0.34790865
3.1122847 1.2785789 0.35828528
3.1582947 1.2765429 0.34356004
3.2124596 1.2767819 0.34039727
3.0360668 1.3303072 0.35000259
3.2399423 1.2803102 0.33672416
3.2756054 1.2794369 0.34948593
3.3342843 1.2797519 0.34636012
3.4018581 1.2902825 0.32795691
3.4587071 1.2804093 0.33967671
3.5247397 1.2807524 0.33609906
3.0354526 1.3763815 0.35509682
3.3982034 1.3378193 0.31893429
3.5999005 1.3014061 0.32662818
3.6653402 1.281495 0.32854414
3.6828704 1.2869638 0.35650632
3.7493789 1.2846795 0.33876368
3.8316867 1.2863308 0.33530247
3.9103506 1.2856556 0.33079153
3.391299 1.3799187 0.31747302
3.5889881 1.3634356 0.31819949
3.818444 1.3207552 0.31985691
4.0069547 1.2891822 0.34181896
4.0739102 1.3103964 0.32041734
4.0868344 1.2867258 0.32205111
4.1930628 1.2904564 0.33338466
3.5808864 1.4079273 0.31665465
3.8063569 1.3804177 0.31778434
4.0652132 1.3488811 0.31907973
3.5708563 1.4630089 0.31474203
3.7920153 1.4512105 0.31532508
3.7967725 1.4277284 0.31614086
4.0537081 1.3997899 0.31731024
3.5628982 1.5067135 0.31322458
3.7849207 1.4862288 0.31410864
4.0423107 1.4502207 0.31555742
3.7755301 1.532581 0.3124983
4.0310206 1.5001804 0.31382099
3.7592897 1.6127465 0.30971351
3.7662213 1.5785315 0.31090206
4.0198355 1.5496747 0.31210068
3.7524073 1.6467156 0.30853349
4.0087538 1.5987109 0.31039634
4.3004599 1.5693097 0.31164393
3.9950502 1.6593477 0.30828878
4.2871623 1.6218745 0.30981568
3.9787986 1.7312609 0.30578923
3.9841881 1.7074116 0.30661812
4.2707214 1.6868658 0.30755541
4.2772722 1.6609726 0.30845594
3.9707634 1.7668167 0.30455342
4.2609591 1.7254508 0.30621329
3.9627767 1.8021575 0.30332506
4.2480493 1.776477 0.30443835
4.2352653 1.8270054 0.30268085
4.2226048 1.8770431 0.30094042
4.2131863 1.914269 0.29964551
3.0851812 -2.3023453 0.36463752
3.0846221 -2.2610795 0.36394385
3.0839422 -2.2087591 0.38038227
3.0829928 -2.1377821 0.38654134
3.0833611 -2.1649852 0.38702759
3.0824418 -2.0971053 0.38581428
3.0817649 -2.0476239 0.38083819
3.0812912 -2.0116289 0.38837793
3.0806191 -1.9625146 0.38340846
3.0798957 -1.9091163 0.38245389
3.0791762 -1.8559654 0.38150382
3.0782812 -1.7898645 0.38032231
3.0786388 -1.8162559 0.38079408
3.0777471 -1.7503992 0.37961689
3.0770369 -1.6979805 0.3786799
3.0763304 -1.6458027 0.37774718
3.0756271 -1.593864 0.37681878
3.0749266 -1.5421627 0.37589458
3.0742295 -1.4906973 0.37497467
3.0733626 -1.4266875 0.37383038
3.073709 -1.4522446 0.37428728
3.0728455 -1.3884676 0.37314728
3.0721579 -1.3377 0.37223986
3.0714917 -1.2870935 0.38321117
3.0708108 -1.2367892 0.38228515
3.0701511 -1.1866543 0.39318663
3.0694754 -1.1368067 0.39224246
3.0686357 -1.0748043 0.39106819
3.0689712 -1.0995607 0.3915371
3.0681345 -1.0377799 0.39036691
3.0674686 -0.98859775 0.38943544
3.066952 -0.95187837 0.3770442
3.1090322 -0.95393193 0.3834717
3.1638052 -0.94732606 0.37957117
3.2873917 -0.94915986 0.38547662
3.258338 -0.93998915 0.35630476
3.3367572 -0.93853879 0.36703366
3.4207032 -0.93759155 0.3524704
3.4433408 -0.94436812 0.38172838
3.5071011 -0.93600881 0.36364466
3.6145725 -0.93910688 0.37761274
3.5998592 -0.93494612 0.34823939
3.6955218 -0.93321049 0.35989609
3.8010013 -0.9326579 0.35830998
3.9050577 -0.9300983 0.3557274
3.0366881 1.2876498 0.37782577
3.0737777 1.2827942 0.38411015
3.1310887 1.2854416 0.39363533
3.1776819 1.2835058 0.37940133
3.036288 1.3171769 0.37721938
3.2393043 1.2862669 0.38918599
3.2895174 1.2842711 0.37433299
3.3559597 1.2871568 0.38438961
3.410229 1.2850975 0.36886233
3.4253368 1.2901697 0.39489058
3.4820812 1.2881187 0.37920409
3.5409169 1.2859921 0.36293963
3.5572391 1.291279 0.39002159
3.6188705 1.289162 0.37357995
3.7005653 1.2924842 0.38473091
3.7677405 1.2902975 0.36745906
3.8568678 1.2937984 0.37896127
3.940474 1.2945087 0.37591413
4.0279918 1.2952373 0.37264457
4.1198153 1.2960175 0.36929774
4.2161498 1.2968194 0.36569899
3.085252 -2.3015842 0.41430315
3.084693 -2.260339 0.41352198
3.0839868 -2.205205 0.43719819
3.0831928 -2.1461086 0.44012788
3.0834143 -2.1644654 0.42404738
3.0825131 -2.096446 0.43502256
3.0819643 -2.0559156 0.4342117
3.0814176 -2.0155432 0.43340418
3.0806911 -1.9619216 0.43233147
3.0799682 -1.9085491 0.43126383
3.0792487 -1.8554238 0.43020108
3.0783536 -1.7893548 0.42887947
3.0787106 -1.8157334 0.42940703
3.0778193 -1.7499083 0.42809036
3.0771093 -1.6975149 0.42704228
3.0764029 -1.6453619 0.42599902
3.0756998 -1.5934477 0.42496052
3.0749998 -1.5417708 0.4239268
3.0743029 -1.4903293 0.42289767
3.0734363 -1.4263495 0.42161795
3.0737824 -1.4518948 0.42212883
3.0728955 -1.3855572 0.42794934
3.0722501 -1.3373291 0.43172941
3.071584 -1.2867519 0.44255796
3.0709028 -1.2364763 0.44149879
3.070225 -1.186427 0.44044438
3.06955 -1.136602 0.43939468
3.0688283 -1.0828605 0.44218382
3.0690269 -1.0994198 0.42684725
3.0682089 -1.0376201 0.43730929
3.068866 -0.99300432 0.43268135
3.1685755 -0.98648608 0.44141272
3.2072518 -0.97433579 0.42320469
3.2468464 -0.96189725 0.40456459
3.313509 -0.98354852 0.4403185
3.3557248 -0.97080868 0.42126736
3.4721053 -0.9803344 0.43912116
3.3989892 -0.95775265 0.40174335
3.518374 -0.96694487 0.41914514
3.5658474 -0.95320714 0.39864916
3.6463919 -0.97680193 0.43780527
3.6973317 -0.96269375 0.41681007
3.8388188 -0.97290218 0.43635258
3.7496653 -0.94819963 0.3952406
3.8951807 -0.95799398 0.41422859
3.9531662 -0.94265586 0.39146701
3.1880729 1.4315859 0.46638671
3.1807671 1.4490035 0.46463385
3.3016629 1.4494846 0.46474186
3.4330268 1.45003 0.46485791
3.2936909 1.4888861 0.46249512
3.4263453 1.480876 0.4630985
3.4153087 1.53183 0.46019223
3.0853226 -2.3008237 0.46392229
3.0847373 -2.2567453 0.47041568
3.0840576 -2.2044928 0.48659089
3.0833192 -2.1500127 0.48538521
3.0825846 -2.0957878 0.48418513
3.0820358 -2.0552771 0.48328862
3.0814891 -2.014924 0.48239556
3.0807626 -1.961329 0.48120943
3.0800397 -1.9079822 0.48002878
3.0793207 -1.8548828 0.47885373
3.0785508 -1.7975907 0.4816322
3.0787652 -1.8153422 0.46583918
3.0778918 -1.7494181 0.47651967
3.0771821 -1.6970495 0.47536066
3.0764756 -1.6449213 0.47420695
3.0757728 -1.5930316 0.47305867
3.0750725 -1.5413789 0.47191545
3.0743759 -1.4899617 0.47077754
3.0737009 -1.4386927 0.48157874
3.0730526 -1.3902575 0.48524258
3.0723417 -1.3369585 0.49115685
3.0716577 -1.2864786 0.48998591
3.0709767 -1.2362262 0.48882034
3.0702991 -1.1861997 0.48766002
3.0696237 -1.1363976 0.48650488
3.0689526 -1.0868181 0.48535499
3.0682836 -1.0374602 0.48421022
3.112319 -1.0041591 0.46789721
3.2124281 -1.0140526 0.48593411
3.2723036 -0.99598336 0.45891353
3.3400834 -1.0185391 0.49611983
3.3830018 -1.0061191 0.47759035
3.4269953 -0.99338818 0.45859668
3.548475 -1.0039208 0.4781622
3.5967903 -0.99053955 0.45824888
3.7307026 -1.0015001 0.4787921
3.7840137 -0.98739851 0.45786533
3.9323626 -0.99882102 0.479489
3.9914942 -0.98391771 0.45744041
3.1189091 0.56165874 0.51620919
3.0457516 0.63424063 0.52120906
3.1104417 0.61442775 0.51326036
3.2256906 0.60164666 0.51409966
3.0451832 0.67618889 0.52008033
3.0454669 0.65523624 0.52064413
3.1020663 0.66662383 0.51034379
3.2163684 0.65600741 0.51106137
3.3400624 0.64451194 0.51183844
3.0446167 0.71795076 0.51895642
3.0937698 0.71832639 0.50745445
3.2089844 0.69906825 0.50865459
3.3338859 0.67819077 0.50995553
3.4628808 0.69050682 0.50941324
3.0439117 0.76993895 0.51755738
3.0855622 0.76947331 0.50459647
3.1998439 0.75236779 0.50567549
3.3236845 0.73383248 0.50684524
3.453794 0.73681766 0.50682402
3.4583271 0.71371508 0.50811559
3.043211 0.82164425 0.51616585
3.0774319 0.82014138 0.50176501
3.190794 0.80514884 0.5027256
3.3115792 0.79986185 0.50315464
3.3155947 0.77795845 0.50437891
3.4470351 0.77126241 0.50489819
3.5900683 0.76400244 0.50546169
3.05147 0.87216794 0.50950813
3.0725927 0.85029912 0.50007975
3.1818457 0.85734653 0.49980882
3.303606 0.84335351 0.5007236
3.4380915 0.81684339 0.50234973
3.5825548 0.79974288 0.50346303
3.2956898 0.88653332 0.49831018
3.4292281 0.86201483 0.49982432
3.570142 0.85878897 0.50016081
3.5750883 0.83525944 0.50147676
3.7294929 0.83062327 0.50190687
3.5652184 0.88220865 0.49885115
3.7184179 0.87973571 0.49915943
3.1426373 1.4316447 0.47938415
3.1694722 1.432988 0.49545315
3.2264318 1.4338757 0.49572793
3.2922938 1.4343237 0.48607674
3.3196888 1.4350331 0.49107507
3.3472183 1.4357666 0.49645337
3.4017897 1.4365181 0.495011
3.4558856 1.4365391 0.48109874
3.5169427 1.4381034 0.49195257
3.5782704 1.4393765 0.47796527
3.6408763 1.4398094 0.48866078
3.7197914 1.4459813 0.47601733
3.7746348 1.4416507 0.48510817
3.8455687 1.4426266 0.48321459
3.9194348 1.443644 0.48126236
3.9964089 1.4447032 0.47920749
4.0880933 1.4497237 0.47867212
4.1605229 1.4469624 0.47484776
4.2517753 1.4491229 0.48800758
4.3036046 1.4667372 0.46488342
3.0853932 -2.3000641 0.51349497
3.0848968 -2.2613447 0.52990872
3.0841284 -2.2037811 0.53593773
3.0833907 -2.1493282 0.53461677
3.0826559 -2.0951297 0.53330225
3.0821071 -2.0546391 0.53232002
3.0815601 -2.0143061 0.53134173
3.0808344 -1.9607369 0.53004235
3.0801117 -1.9074163 0.52874899
3.0793929 -1.8543423 0.52746153
3.0786767 -1.8015136 0.52618009
3.0779643 -1.7489281 0.52490461
3.0772545 -1.6965846 0.52363491
3.0765483 -1.6444811 0.52237111
3.0758455 -1.592616 0.52111304
3.0751219 -1.5383544 0.52698058
3.0744672 -1.4895029 0.53056425
3.0737927 -1.4382634 0.54122126
3.0731025 -1.3873478 0.53993213
3.0724154 -1.3366627 0.53864896
3.0717313 -1.2862058 0.5373714
3.0710506 -1.2359763 0.53609973
3.0703726 -1.1859727 0.53483367
3.0696981 -1.1361932 0.53357333
3.0690265 -1.0866361 0.53231871
3.0685055 -1.049648 0.51966494
3.0985668 -1.0484138 0.53731745
3.1544011 -1.0315641 0.51212049
3.2173994 -1.0540417 0.54908735
3.2573185 -1.0424899 0.53185266
3.2982013 -1.0306588 0.51420188
3.4107666 -1.0420607 0.53491992
3.4555089 -1.0296687 0.5164789
3.5791397 -1.0415895 0.53828514
3.5013971 -1.0169597 0.49756578
3.6283216 -1.0285811 0.51898026
3.6788237 -1.0152225 0.49915627
3.8190429 -1.0273788 0.52173996
3.8749042 -1.0133028 0.50091374
3.131856 -0.22704351 0.56015694
3.1354239 -0.25079596 0.56148398
3.0567515 -0.17434505 0.56545424
3.1265337 -0.19161683 0.55817771
3.2393904 -0.18916947 0.55816603
3.2433164 -0.21363369 0.55953306
3.0562906 -0.14033696 0.56450313
3.1194875 -0.14471501 0.55555731
3.2335367 -0.15268829 0.55612743
3.0555251 -0.083898596 0.56292439
3.1125011 -0.098209165 0.55295908
3.2257884 -0.10440166 0.55342925
3.3457704 -0.098582067 0.55323756
3.3522084 -0.13612457 0.555336
3.0547636 -0.027740581 0.56135356
3.1021314 -0.029181948 0.54910254
3.1072981 -0.0635745 0.55102408
3.2181077 -0.056536138 0.55075437
3.339381 -0.06132295 0.55115503
3.4728158 -0.079385079 0.55230868
3.0541573 0.016963197 0.56010318
3.0952899 0.016355671 0.54655832
3.2085986 0.0027246382 0.54744285
3.2123888 -0.020897241 0.54876292
3.3309255 -0.012017442 0.54839921
3.4657359 -0.040780179 0.55015039
3.6046715 -0.031923592 0.54981053
3.0535541 0.061477505 0.55885798
3.0885062 0.061514415 0.54403543
3.2029455 0.037953317 0.54547429
3.3225462 0.036845349 0.54566818
3.4563699 0.010291584 0.54729515
3.599448 -0.0053098109 0.54832232
3.052803 0.11684607 0.55730933
3.0817778 0.10629896 0.54153323
3.1936045 0.096163273 0.54222143
3.3142416 0.08527144 0.54296148
3.4470916 0.06088762 0.5444665
3.5916634 0.034352168 0.54610443
3.7408895 0.046695568 0.5455817
3.0648916 0.16582187 0.54536867
3.1825185 0.16525206 0.53836071
3.1861963 0.14233206 0.5396415
3.3060117 0.13326651 0.54027897
3.4378986 0.11101443 0.54166412
3.5788059 0.099858798 0.54244131
3.5839288 0.073757723 0.54390079
3.729409 0.10129059 0.54252797
3.7351348 0.074062176 0.54405093
3.0583303 0.21622835 0.5449546
3.1770334 0.19943689 0.53645045
3.2978537 0.18083645 0.53762007
3.4287908 0.16067863 0.53888762
3.5711703 0.13875897 0.54026604
3.7208781 0.14186002 0.54025859
3.8904283 0.11700595 0.54183048
3.0538981 0.26628208 0.54498392
3.1697707 0.24469467 0.53392136
3.2877555 0.2397224 0.5343287
3.2917805 0.21625124 0.53564054
3.4197669 0.2098864 0.53613669
3.5610716 0.19021171 0.53738874
3.7124038 0.18215846 0.53800458
3.8808837 0.15931983 0.53946286
3.0500836 0.32476464 0.54054052
3.0537939 0.29257646 0.53112602
3.1607821 0.30071044 0.53079116
3.2797649 0.28632191 0.53172421
3.408607 0.27074096 0.53273445
3.5436261 0.27909184 0.53241849
3.5510685 0.24117351 0.53453892
3.704 0.22212216 0.53576916
3.8714225 0.20126556 0.53711587
4.0519471 0.19299181 0.53777629
3.0493796 0.36798042 0.53932959
3.1518817 0.35617742 0.52769166
3.2698627 0.34406316 0.52849686
3.3975651 0.33095047 0.52936834
3.5362425 0.31671083 0.5303148
3.6928875 0.2749666 0.53281325
3.8589163 0.25670901 0.53401369
4.0413718 0.23664512 0.53533328
3.0486174 0.42476428 0.54244816
3.1448307 0.40011853 0.52523619
3.2600698 0.4011693 0.52530497
3.2639732 0.37840626 0.52657723
3.3888252 0.37860975 0.52670395
3.5264747 0.36647561 0.52753198
3.6818848 0.3272891 0.52988648
3.8465393 0.31157911 0.53094351
4.0274005 0.29432377 0.53210557
3.0479445 0.47513965 0.54728431
3.1361024 0.45451218 0.52219665
3.2523189 0.44636789 0.52277869
3.3801639 0.42584005 0.52406353
3.5143912 0.42803982 0.52408934
3.5192063 0.40350673 0.52546114
3.6709902 0.37909743 0.52698851
3.8342912 0.36588523 0.52790517
4.0101433 0.36556745 0.52811873
4.0170164 0.33719319 0.52970654
3.0473671 0.51773536 0.54609299
3.1257391 0.51909512 0.51858765
3.1291776 0.49766654 0.51978517
3.2427137 0.50238067 0.51964802
3.3694434 0.48429644 0.5207954
3.3737164 0.46099785 0.52209789
3.5072126 0.46461046 0.52204418
3.660202 0.43039933 0.52411896
3.8191557 0.43300465 0.52415037
3.8251853 0.4062669 0.52564615
3.9999077 0.40782472 0.52575397
3.0466487 0.57072306 0.54461074
3.2332122 0.55778664 0.5165512
3.2369998 0.53570026 0.51778567
3.3609614 0.53054798 0.51820964
3.4977167 0.51299357 0.51933867
3.6468713 0.49380007 0.52057284
3.8101733 0.47283924 0.52192205
3.9897444 0.44978085 0.52340615
3.04597 0.62129873 0.54752111
3.3504529 0.58785003 0.51500612
3.4859664 0.5728572 0.51599103
3.4906492 0.54900056 0.51732504
3.6310742 0.56894284 0.51637042
3.6363115 0.54402995 0.51776373
3.7982972 0.52550405 0.51897585
3.9763262 0.50517732 0.52030617
3.9830174 0.47755283 0.52185196
4.172925 0.48269263 0.52177727
3.0452518 0.67569602 0.55785853
3.0455065 0.6549648 0.54225737
3.3442037 0.62192726 0.51310098
3.478987 0.60842288 0.51400244
3.6232688 0.60607308 0.51429397
3.7836163 0.5906058 0.51533383
3.7894652 0.56467032 0.51678473
3.9663599 0.54632157 0.51800364
4.1616106 0.52610588 0.51934689
3.044615 0.72172272 0.54899782
3.469753 0.6554817 0.51137131
3.6129439 0.65518528 0.51154739
3.7749028 0.62924957 0.51317209
3.9531879 0.60069937 0.51496065
4.1504006 0.5691182 0.51693904
3.0439706 0.76949912 0.54979134
3.6001732 0.71593308 0.50814998
3.605262 0.69172657 0.50950378
3.7633803 0.68034619 0.51031363
3.9401541 0.6545077 0.51194948
4.1355915 0.62594116 0.51375806
3.0432701 0.8211897 0.54831803
3.5951092 0.74002492 0.50680274
3.7519724 0.73093575 0.5074836
3.9272561 0.70775521 0.50896972
4.1209445 0.68214077 0.51061195
3.0425723 0.87263483 0.54685181
3.7406771 0.78102571 0.50468147
3.9113176 0.77355635 0.50528753
3.9176664 0.74734527 0.50675428
4.1064572 0.73772728 0.50750011
3.9018593 0.81260282 0.50310242
4.0921278 0.79271078 0.50442213
3.8893561 0.86421973 0.50021392
4.0744281 0.86062527 0.50062025
4.0814767 0.83357692 0.50213438
4.0674162 0.88752818 0.49911419
3.154845 1.4357405 0.5467397
3.2027295 1.4364424 0.54620606
3.2522321 1.4371694 0.54567623
3.3034279 1.4379199 0.5451057
3.35411 1.4379635 0.53248864
3.4112782 1.4395022 0.54392713
3.4656734 1.439575 0.53083372
3.5245316 1.4404247 0.52995259
3.5296087 1.4419776 0.55537111
3.5855999 1.4413073 0.5290547
3.6489978 1.4422225 0.52810562
3.6544318 1.4438372 0.55449408
3.7148685 1.4431746 0.52713716
3.7862673 1.4450041 0.53982967
3.8515921 1.4443361 0.51108849
3.8576338 1.4460506 0.53904015
3.9288182 1.4462646 0.52395356
4.0029044 1.4464875 0.50825202
4.0094194 1.4482775 0.53738081
4.0868373 1.4485472 0.52160859
4.1710768 1.4497651 0.52037036
4.2591076 1.4510361 0.51905257
3.0854638 -2.2993047 0.56302142
3.0849409 -2.2577524 0.58668107
3.0840147 -2.1894319 0.5848788
3.0843844 -2.2167089 0.58559841
3.0834615 -2.148644 0.58380282
3.0827823 -2.0990305 0.57840759
3.0823064 -2.0629342 0.58562821
3.0816319 -2.0136883 0.58024269
3.0809064 -1.9601455 0.57883024
3.0801837 -1.9068505 0.57742435
3.0794647 -1.8538021 0.57602501
3.0787485 -1.8009988 0.57463193
3.0780361 -1.7484386 0.57324547
3.0773268 -1.69612 0.57186538
3.0766211 -1.6440414 0.57049155
3.0758936 -1.5895532 0.57624787
3.0752788 -1.5430346 0.58458292
3.0743849 -1.4762344 0.58993661
3.0747325 -1.5018545 0.59063965
3.0738659 -1.4379206 0.58888519
3.0731757 -1.3870286 0.58748877
3.0724885 -1.3363667 0.58609855
3.071805 -1.2859333 0.58471453
3.0711241 -1.2357268 0.58333689
3.0704467 -1.1857458 0.58196527
3.0696034 -1.1235775 0.58025938
3.0699403 -1.1484003 0.58094054
3.0691502 -1.0905877 0.5754475
3.0889485 -1.081706 0.59519809
3.0894892 -1.0448912 0.59439635
3.1403193 -1.0763472 0.58236563
3.1933434 -1.062227 0.5851776
3.3093684 -1.0692805 0.58433092
3.4390182 -1.0786456 0.5932802
3.104192 -1.0132351 0.59683013
3.2012165 -1.022603 0.59397721
3.2410011 -1.010789 0.60212302
3.3208096 -1.0249807 0.59409899
3.3671272 -1.054147 0.5529061
3.4495659 -1.0411915 0.59452927
3.5078795 -1.0604347 0.56625336
3.6604366 -1.0673454 0.58087206
3.71187 -1.0543847 0.56169635
3.7647195 -1.0410677 0.54199302
3.9117002 -1.054522 0.56679142
3.970294 -1.0404894 0.5461005
3.0602975 -0.43494147 0.58032489
3.1645296 -0.44453955 0.57230824
3.0597265 -0.39236975 0.58290625
3.1571589 -0.39547366 0.56956702
3.1608362 -0.41995335 0.57093465
3.2774012 -0.42604682 0.57140291
3.4030471 -0.43258542 0.57190597
3.5363629 -0.42590389 0.57168114
3.0590992 -0.34611058 0.58158791
3.1516743 -0.35896569 0.56752735
3.2672396 -0.36272207 0.5678643
3.2712896 -0.38796094 0.56927466
3.3962636 -0.39302763 0.569695
3.531332 -0.39847192 0.57014757
3.6805825 -0.41867569 0.57143784
3.0583379 -0.28861865 0.59124446
3.142612 -0.29864171 0.56415707
3.2612009 -0.32508928 0.56576133
3.3872888 -0.34069219 0.5667699
3.5213437 -0.34400576 0.56710249
3.5263259 -0.3711729 0.5686214
3.66941 -0.36175421 0.56825483
3.6749821 -0.39014304 0.56984234
3.8339763 -0.39596853 0.57034254
4.0110807 -0.41788486 0.57175905
3.0575616 -0.23137969 0.58958268
3.2512257 -0.26292485 0.56228757
3.376184 -0.27593794 0.56315053
3.3806098 -0.30174366 0.56459284
3.5139184 -0.30351651 0.56483895
3.6611078 -0.31945592 0.56588948
3.8184469 -0.32212225 0.56621188
3.8246326 -0.35153651 0.56785721
3.9970856 -0.35583964 0.56828743
3.0569823 -0.18811214 0.59282112
3.3695869 -0.23746678 0.56100023
3.5040975 -0.24996212 0.56184494
3.6501303 -0.26352781 0.5627619
3.8092334 -0.27830783 0.563761
3.9866853 -0.30973053 0.5657075
3.0563478 -0.1405073 0.59816289
3.360858 -0.18656351 0.55815518
3.4919491 -0.18372072 0.55814159
3.4967897 -0.21011604 0.55961722
3.6365583 -0.19438185 0.55889523
3.6419656 -0.22193007 0.56043589
3.8000839 -0.23479733 0.56132734
3.9763789 -0.26404002 0.563151
3.0552967 -0.06164708 0.60700494
3.05564 -0.088574238 0.59439307
3.4847345 -0.14437823 0.55594212
3.6285014 -0.15333201 0.5565998
3.7879999 -0.17733368 0.55811304
3.7940261 -0.20599097 0.55971599
3.9627612 -0.20366968 0.55977315
3.054821 -0.027945621 0.5948354
3.4775655 -0.10528393 0.55375659
3.6178465 -0.099047929 0.55356413
3.7790227 -0.13464288 0.5557251
3.9459417 -0.12910114 0.55560082
3.9526403 -0.15879963 0.55726248
3.054215 0.016744558 0.59351438
3.6099207 -0.058667906 0.55130607
3.7671556 -0.078208201 0.55256838
3.9392784 -0.099562064 0.5539481
3.0536115 0.061245292 0.59219885
3.755409 -0.022349207 0.54944384
3.9293551 -0.055569202 0.55148649
4.1098828 -0.046124205 0.55115986
3.0528607 0.11659709 0.59056252
3.7466738 0.019189976 0.54712027
3.9129803 0.017024845 0.54742461
3.9195023 -0.011888968 0.54904246
4.1025 -0.015650799 0.54945421
3.052114 0.1716767 0.58893436
3.9032667 0.060089774 0.5450151
4.0915065 0.029720841 0.54691476
3.0515196 0.21552417 0.58763814
4.0733728 0.10456081 0.54272592
4.0805941 0.074757487 0.54439402
3.0505233 0.29161987 0.60735607
3.0508349 0.26573429 0.58395666
4.0661912 0.13420002 0.54106688
3.0500631 0.32423651 0.59539014
4.0590496 0.16367665 0.53941709
3.0494769 0.36744064 0.5940901
3.048789 0.41847506 0.59528053
3.0480421 0.47454762 0.60175461
3.0474648 0.51712269 0.60045099
3.0467463 0.57008475 0.59882921
3.0460312 0.62279224 0.59721518
3.0453203 0.67521071 0.59561014
3.0446129 0.72737825 0.59401268
3.0440497 0.76891315 0.59274083
3.0433173 0.82346332 0.59565073
3.0426707 0.87185395 0.60025972
3.0435233 0.92327255 0.60967362
3.1360435 0.92920732 0.599253
3.0420334 0.97395259 0.60787416
3.1344521 0.96046573 0.59803891
3.2318175 0.95641124 0.5982784
3.0405684 1.0283614 0.60809362
3.0413747 1.0044718 0.59625304
3.131814 1.0122995 0.59602571
3.2293813 0.99929142 0.59661287
3.333127 0.99645382 0.59681052
3.0399356 1.0747374 0.60450459
3.1291909 1.0638286 0.59402448
3.2263515 1.0526121 0.59454167
3.3303387 1.0406072 0.59509528
3.4418981 1.0277281 0.59568918
3.5609736 1.0257359 0.59586716
3.0392559 1.1248512 0.60291684
3.126586 1.1150124 0.5920366
3.2233427 1.1055634 0.59248483
3.3275657 1.0845228 0.59338921
3.4387138 1.0732744 0.59391952
3.5582373 1.0611782 0.59448981
3.6871204 1.0481348 0.59510475
3.8253129 1.0468018 0.59527326
3.0385787 1.1747305 0.60133678
3.1239955 1.1658974 0.59006023
3.2203517 1.158195 0.59044051
3.3241203 1.1390743 0.59126985
3.4355462 1.1185672 0.59215975
3.5546064 1.1082076 0.59266227
3.6829617 1.0970391 0.5932039
3.8217444 1.0849631 0.59378964
3.9750035 1.0453372 0.59545654
3.0379059 1.2243438 0.59976488
3.1203971 1.2365947 0.58731449
3.1219358 1.2063679 0.58848846
3.217381 1.2104826 0.58840942
3.2185669 1.1896107 0.58922017
3.3206973 1.1932852 0.58916396
3.431613 1.1748177 0.58997411
3.5509961 1.1549666 0.59084505
3.6788275 1.1456513 0.59131461
3.8158324 1.1481966 0.5913316
3.8181913 1.1229662 0.5923124
3.9695659 1.0983061 0.59339702
3.0372357 1.273726 0.59820038
3.118865 1.2666961 0.5861454
3.2150195 1.2520471 0.58679497
3.3179753 1.2363846 0.5874896
3.4277048 1.2307055 0.58780265
3.546514 1.2130245 0.58858889
3.6747177 1.1939737 0.58943635
3.8123083 1.1858858 0.5898664
3.9641628 1.1509318 0.59135079
4.1268229 1.1402254 0.59190357
3.0365691 1.3228463 0.59664428
3.1163237 1.3166162 0.58420658
3.2120821 1.3037362 0.58478719
3.3145943 1.2899247 0.58540952
3.4245987 1.2751286 0.58607656
3.5420611 1.2706957 0.58634788
3.6706331 1.2420092 0.58756942
3.8076339 1.2358794 0.58792299
3.9587948 1.2032186 0.58931774
4.1206727 1.1948404 0.58977973
3.0359261 1.3715374 0.60550356
3.1137977 1.3662481 0.58227891
3.2091649 1.3550727 0.58279318
3.3112345 1.3431343 0.58334249
3.4207404 1.3303021 0.58393288
3.538523 1.3165259 0.58456683
3.6665726 1.2897601 0.58571351
3.8029881 1.2855651 0.5859915
3.9534616 1.2551692 0.58729786
4.114563 1.249089 0.58766985
3.1117883 1.4057251 0.5807457
3.2062654 1.4061038 0.5808109
3.307898 1.3959696 0.58128995
3.4169071 1.3851235 0.58180285
3.5350051 1.3620958 0.58279598
3.6615312 1.3490381 0.58340955
3.7983713 1.3349456 0.58407187
3.9481623 1.3067869 0.58529085
4.1100063 1.2895485 0.58609647
4.285161 1.2847745 0.58642972
3.2045345 1.4365667 0.57962757
3.305243 1.4380155 0.57965654
3.3610239 1.4401672 0.56863868
3.4138598 1.428702 0.58010966
3.4730444 1.4418614 0.56828892
3.531507 1.4074082 0.5810352
3.6565254 1.4079094 0.58112133
3.7926385 1.3962557 0.58168852
3.7949264 1.3717918 0.58263958
3.9415853 1.3708559 0.58279979
3.9442096 1.3452939 0.58379376
4.1054759 1.329783 0.58453178
4.2799649 1.3268498 0.58479303
3.5288954 1.441232 0.5797208
3.5934792 1.443683 0.567913
3.6535394 1.443025 0.57975662
3.7233136 1.4456469 0.56750762
3.7892218 1.4328026 0.58026791
3.863692 1.44777 0.56706935
3.9376655 1.4090364 0.58131528
4.0979705 1.3964244 0.58194005
4.1009645 1.369839 0.58297402
4.2747941 1.3687296 0.58316392
3.9344304 1.4475369 0.56617951
4.015954 1.4500728 0.566594
4.0935407 1.4408778 0.57073343
4.181675 1.4525796 0.56607664
4.2696533 1.4103674 0.5815444
4.2655005 1.4523842 0.56506288
3.0855517 -2.298357 0.62486184
3.0850117 -2.2570152 0.63605136
3.084085 -2.1887281 0.63410497
3.0844555 -2.2159917 0.63488221
3.0835323 -2.1479607 0.63294309
3.0829816 -2.1073203 0.6317848
3.0824325 -2.0668383 0.63063091
3.0817037 -2.0130713 0.62909853
3.0809777 -1.9595543 0.62757325
3.0802553 -1.9062853 0.62605512
3.0793569 -1.8400376 0.62416691
3.079716 -1.8664879 0.62492079
3.0788207 -1.8004847 0.62303954
3.0781085 -1.7479497 0.62154222
3.0773995 -1.6956561 0.6200518
3.076669 -1.6409402 0.62569606
3.0760512 -1.5942259 0.63394034
3.0753276 -1.5400109 0.63953441
3.0744579 -1.4758739 0.63763839
3.0748053 -1.501482 0.63839531
3.0739386 -1.4375781 0.63650632
3.0733001 -1.3909651 0.63117212
3.072854 -1.3571157 0.63808399
3.0721138 -1.3033006 0.6301738
3.0713038 -1.242986 0.6331169
3.0705202 -1.1855192 0.62905508
3.0696778 -1.1233792 0.62721825
3.0700142 -1.1481906 0.62795162
3.0691745 -1.086273 0.62612128
3.0684845 -1.0344995 0.63159913
3.0984821 -1.011062 0.63088202
3.1671546 -1.0105596 0.62261266
3.2347257 -1.0085278 0.63763422
3.3095551 -1.0079451 0.62915385
3.5887353 -1.0587126 0.59499341
3.7395089 -1.0628787 0.59517354
3.3855829 -1.0065484 0.63265622
3.3902025 -1.0081214 0.60789537
3.4699912 -1.0066956 0.61097157
3.551002 -1.0043795 0.62717676
3.6135385 -1.0094467 0.61247653
3.6438973 -1.004476 0.60429811
3.7392499 -1.0332778 0.59452862
3.8547583 -1.0681593 0.58689916
3.9031465 -1.0519612 0.59503281
3.7360754 -1.00286 0.60752213
3.8329017 -1.0011424 0.61092472
3.9241223 -1.0065974 0.60777599
3.0603116 -0.42734978 0.65209085
3.0602551 -0.42726964 0.618007
3.0598209 -0.3925218 0.63964552
3.0591936 -0.34628707 0.63820541
3.0584328 -0.28882524 0.64770252
3.0576565 -0.23161626 0.64589018
3.0570385 -0.18607783 0.64444745
3.0564237 -0.14073417 0.64301097
3.0553534 -0.061841592 0.64051163
3.0558112 -0.09558399 0.64158058
3.0548978 -0.028218755 0.63944644
3.0542915 0.016453188 0.63803124
3.0536883 0.060935892 0.63662195
3.0529032 0.11938165 0.63950813
3.0522101 0.1712344 0.64416486
3.0516157 0.21505991 0.64275336
3.0506005 0.29121834 0.6512754
3.0510235 0.25870162 0.64134771
3.0501592 0.32371855 0.65021139
3.0495734 0.36690146 0.64879763
3.0488446 0.42061815 0.647039
3.0481195 0.47407448 0.64528894
3.0475423 0.51663297 0.64389563
3.0468242 0.56957471 0.64216238
3.046109 0.62226194 0.64043748
3.0454175 0.674523 0.64949262
3.0447102 0.72666597 0.64775801
3.044147 0.76818097 0.64637685
3.0434861 0.81721449 0.64741558
3.0427685 0.87107384 0.65361726
3.0420749 0.92219269 0.65188962
3.0413842 0.97306985 0.65017003
3.0406976 1.0236732 0.64845973
3.0400143 1.0740386 0.64675754
3.0393343 1.1241341 0.64506447
3.0386775 1.1738118 0.65388298
4.1376863 1.0437683 0.59565485
3.0380042 1.2234029 0.65218061
4.1330152 1.0852404 0.59404206
3.0372388 1.280089 0.65284252
3.0365863 1.3275173 0.64562643
3.0360243 1.3705316 0.65752482
3.08564 -2.2974105 0.68663508
3.0850818 -2.2562785 0.68537551
3.0842853 -2.1970489 0.68766487
3.0845082 -2.2154543 0.67181623
3.0836036 -2.1472781 0.68203777
3.0830526 -2.106658 0.680794
3.0825038 -2.0661952 0.67955494
3.0817747 -2.0124545 0.67790937
3.0810492 -1.9589639 0.67627144
3.0803273 -1.9057208 0.67464113
3.0794291 -1.839505 0.67261344
3.0797875 -1.8659421 0.67342299
3.0788925 -1.7999709 0.67140293
3.0781806 -1.747461 0.66979504
3.0774472 -1.6925163 0.67532641
3.0768266 -1.6456052 0.68347895
3.0760999 -1.5911642 0.68896103
3.0754001 -1.5396209 0.68732816
3.0746529 -1.4840149 0.68954188
3.0748601 -1.5012031 0.6741854
3.0741844 -1.4499757 0.68448818
3.0736663 -1.4117845 0.68327838
3.0729785 -1.3610548 0.68167126
3.0722933 -1.3105539 0.68007135
3.0715058 -1.2527796 0.67588532
3.070699 -1.1927654 0.67869532
3.0697517 -1.1231809 0.67413533
3.0700884 -1.1479813 0.67492098
3.069267 -1.0860461 0.68466145
3.0686395 -1.0392246 0.68782198
3.0909064 -1.0081788 0.67605972
3.1572273 -1.0068825 0.68029273
3.2264016 -1.0055283 0.68473786
3.3008037 -1.0048789 0.67735982
3.3786829 -1.0041991 0.66963696
3.4602883 -1.003487 0.6615445
3.5382621 -1.0002899 0.69171971
3.5433443 -1.0019213 0.66597283
3.6304264 -1.0002813 0.67059302
3.7246616 -0.99941444 0.66191483
3.8238735 -0.9985019 0.65277863
3.9252858 -0.99663913 0.65745044
3.0603869 -0.42745653 0.69750369
3.0599148 -0.3926737 0.69632822
3.059288 -0.34646335 0.6947664
3.0585084 -0.28899041 0.69282401
3.0577323 -0.23180529 0.69089139
3.0571148 -0.18628581 0.68935287
3.0564997 -0.14096089 0.68782109
3.0554297 -0.062100708 0.68515581
3.0558877 -0.09582933 0.68629569
3.0549741 -0.028491685 0.68401986
3.0543873 0.016089305 0.69362283
3.0537837 0.06054949 0.69209671
3.0530756 0.11307248 0.69305551
3.0523059 0.17079259 0.69934189
3.0517116 0.21459627 0.69781512
3.0506773 0.29081717 0.69515842
3.0511193 0.25821629 0.69629461
3.0502362 0.32330447 0.69402611
3.0496507 0.36647043 0.69252157
3.0489221 0.42016605 0.69064987
3.0481968 0.47360173 0.68878752
3.0476389 0.51602143 0.6981495
3.0469205 0.56893778 0.69627714
3.0460634 0.63210309 0.69404209
3.0463488 0.61109614 0.69478542
3.0455146 0.67383587 0.70332408
3.0448072 0.72595412 0.70145237
3.0442443 0.76744968 0.69996214
3.0435441 0.81907237 0.6981082
3.0428467 0.87045008 0.69626319
3.0421531 0.92155004 0.69442809
3.041364 0.98222053 0.71342963
3.041502 0.96908247 0.68919027
3.0407953 1.0228233 0.70135915
3.0401118 1.0731659 0.69952458
3.039432 1.1232387 0.6976999
3.0387757 1.1728939 0.70638037
3.0381024 1.2224629 0.70454794
3.0372989 1.2816294 0.70236057
3.0365005 1.3404562 0.70018566
3.0367663 1.3208907 0.70090902
3.036103 1.3697273 0.69910347
3.0857103 -2.296654 0.73599982
3.0851524 -2.2555425 0.73465383
3.0844114 -2.2009416 0.73286617
3.0836742 -2.146596 0.73108697
3.0831237 -2.1059959 0.72975773
3.0825748 -2.0655532 0.72843373
3.0818462 -2.0118387 0.72667527
3.0811207 -1.958374 0.7249248
3.0803986 -1.9051564 0.7231825
3.0796266 -1.8477356 0.72534037
3.0798416 -1.8655335 0.70977199
3.0789647 -1.7994578 0.71972209
3.0782278 -1.7442825 0.72513974
3.0776043 -1.6971735 0.73319983
3.0768745 -1.6425052 0.73856926
3.0761724 -1.5907503 0.7368201
3.0754731 -1.5392311 0.73507881
3.0749507 -1.5007383 0.73377788
3.0744307 -1.4623911 0.7324819
3.0737395 -1.4114544 0.7307604
3.0730515 -1.3607479 0.72904664
3.0723665 -1.3102704 0.72734064
3.0716848 -1.2600199 0.72564226
3.0708373 -1.1975355 0.72353053
3.0700123 -1.1353266 0.73314661
3.0705543 -1.1724513 0.7578972
3.0693595 -1.0858195 0.74314117
3.0686915 -1.0365835 0.7414251
3.0714719 -0.99125862 0.73372847
3.1425292 -1.0015782 0.72434056
3.2201903 -1.0032902 0.7198835
3.2942748 -1.0025914 0.71332371
3.0673642 -0.93876654 0.73801565
3.1450727 -0.95267314 0.72353643
3.1438017 -0.97711128 0.72393829
3.2399659 -0.97159964 0.72389716
3.3414726 -0.97872663 0.72406685
3.3718131 -1.0018601 0.70645809
3.4504783 -0.99116766 0.71586418
3.5331976 -0.99866426 0.71737945
3.6223972 -0.99778092 0.71011198
3.0667048 -0.8901825 0.73632228
3.1469767 -0.91607291 0.72293478
3.2424669 -0.9212926 0.72307014
3.3439262 -0.92683852 0.72321373
3.4525294 -0.9193666 0.72314674
3.4513335 -0.94611812 0.72358662
3.5659781 -0.96670574 0.72398472
3.6891747 -0.97439694 0.72417504
3.7161744 -0.9968524 0.70247149
3.8151772 -0.98593581 0.71354127
3.9157894 -0.99395049 0.70014733
3.0660484 -0.84181309 0.73463637
3.150142 -0.85521448 0.72193438
3.2449622 -0.87110639 0.72224492
3.3463736 -0.87507904 0.7223627
3.4537234 -0.89264929 0.72270745
3.5682967 -0.91141063 0.72307545
3.6914048 -0.91718578 0.72323412
3.8227708 -0.93816829 0.72364742
3.9639654 -0.96073169 0.72409183
3.0652316 -0.78164405 0.73253918
3.0655575 -0.80566919 0.73337656
3.1532991 -0.79452139 0.72093648
3.2474518 -0.82104075 0.72142184
3.348815 -0.82344759 0.72151375
3.455512 -0.85264152 0.72204959
3.5706091 -0.85626143 0.72216851
3.6930737 -0.87437499 0.72253001
3.8243601 -0.89380348 0.72291762
3.9654586 -0.91467315 0.72333419
3.0653253 -0.74586928 0.73144507
3.1558175 -0.74609864 0.72014046
3.2499352 -0.77109492 0.72060061
3.3512504 -0.77194357 0.72066694
3.4578907 -0.79941118 0.72117424
3.5729158 -0.80125785 0.721264
3.6947386 -0.8316617 0.72182751
3.826474 -0.83478963 0.72194701
3.9669485 -0.86872721 0.72257841
3.0662725 -0.69853622 0.73021483
3.1583304 -0.6977883 0.71934628
3.2524126 -0.72126871 0.71978146
3.3536799 -0.72056681 0.71982217
3.460264 -0.74631661 0.72030127
3.5746417 -0.7600956 0.72058713
3.6969538 -0.77483982 0.72089297
3.8280561 -0.79063362 0.72122073
3.96893 -0.80761546 0.721573
3.0664444 -0.64881003 0.73557252
3.1608372 -0.64958996 0.7185539
3.254884 -0.67156154 0.71896422
3.3561039 -0.66931677 0.71897954
3.4626315 -0.69335711 0.71943033
3.5763643 -0.71902364 0.71991169
3.6991625 -0.71817267 0.71996105
3.8301587 -0.73191088 0.72025484
3.8291078 -0.76125145 0.72073746
3.9704127 -0.76189339 0.7208209
3.0665007 -0.59220403 0.73837078
3.1633379 -0.60150325 0.71776325
3.2573493 -0.6219731 0.71814895
3.3585207 -0.61819267 0.71813893
3.4649923 -0.64053231 0.71856165
3.5786552 -0.66438091 0.71901309
3.7008152 -0.67576855 0.71926361
3.8317327 -0.6879825 0.71953231
3.9718914 -0.71628267 0.72007072
3.0670209 -0.53359884 0.73664409
3.165834 -0.55352795 0.71697462
3.2598093 -0.57250291 0.71733564
3.3609326 -0.56719428 0.7173003
3.4673471 -0.58784163 0.71769524
3.5809407 -0.60988164 0.71811682
3.7024646 -0.63346046 0.71856779
3.8332999 -0.64413589 0.71881044
3.9738481 -0.65561432 0.71907055
3.0674362 -0.4869141 0.73526913
3.1683233 -0.50566339 0.71618772
3.2622633 -0.52315056 0.71652424
3.3627374 -0.52902395 0.71667278
3.469692 -0.53528368 0.71683002
3.5832131 -0.55552399 0.71722132
3.7041039 -0.59122759 0.71787161
3.834856 -0.60039079 0.71808863
3.9753084 -0.61022311 0.7183215
3.0605741 -0.43531996 0.74693948
3.0712233 -0.45259362 0.72383022
3.1701865 -0.46983409 0.7155987
3.2640977 -0.48620933 0.71591628
3.363934 -0.50361776 0.71625388
3.9762795 -0.58002114 0.71782303
3.0599906 -0.39279515 0.741629
3.0593641 -0.34660429 0.73997015
3.058584 -0.28915542 0.73790705
3.0578082 -0.23199415 0.73585439
3.0571907 -0.18649362 0.73422021
3.0565565 -0.13896158 0.73921961
3.0556774 -0.07365346 0.74131542
3.0561357 -0.10738871 0.74254471
3.0550694 -0.028832486 0.73968202
3.0544829 0.015725775 0.74916005
3.0538795 0.060163476 0.74751723
3.0531292 0.11543718 0.74547392
3.0523827 0.17043945 0.74344039
3.0517886 0.21422565 0.74182165
3.0509017 0.27956122 0.73940629
3.0513437 0.24695049 0.74061185
3.0503135 0.32289085 0.73780441
3.0497472 0.3659322 0.74712372
3.0490181 0.41960159 0.74511129
3.0482934 0.4730112 0.74310845
3.0477355 0.51541054 0.75235158
3.0470178 0.56830126 0.75034034
3.0461607 0.63143641 0.74793959
3.0464454 0.61043966 0.74873799
3.0455923 0.67328668 0.74634814
3.0448852 0.72538507 0.74436712
3.0443223 0.76686513 0.74278992
3.0436013 0.82092959 0.74873012
3.042944 0.86967146 0.74952048
3.0422504 0.9207477 0.74755132
3.0414424 0.98155624 0.75578886
3.0416982 0.96144325 0.74598229
3.0408931 1.0219746 0.7542091
3.0402098 1.0722938 0.75224268
3.0395303 1.122344 0.75028658
3.0388534 1.1721605 0.74833965
3.0381808 1.2217116 0.74640304
3.0373971 1.2806638 0.75451744
3.0365984 1.3394649 0.75218832
3.0368645 1.3199078 0.75296295
3.0362015 1.3687228 0.75102937
3.0857809 -2.2958982 0.78531843
3.085223 -2.2548072 0.78388608
3.0844817 -2.200233 0.78198391
3.0837448 -2.1459146 0.78009069
3.0831943 -2.105334 0.77867627
3.0826457 -2.0649114 0.77726746
3.0819173 -2.0112233 0.77539593
3.0811923 -1.9577848 0.77353346
3.0804703 -1.904593 0.77167952
3.0797517 -1.851647 0.76983398
3.0790117 -1.7962401 0.77513713
3.0783854 -1.7489319 0.78310406
3.077652 -1.6940349 0.7883597
3.0769467 -1.6420673 0.78649342
3.0762448 -1.5903367 0.78463572
3.075598 -1.5431551 0.77896857
3.0750237 -1.5003667 0.78140461
3.0753896 -1.5259016 0.79423994
3.0745034 -1.4620373 0.78002822
3.073813 -1.4111247 0.77819979
3.0731246 -1.3604417 0.77637959
3.0724399 -1.3099872 0.77456766
3.0717351 -1.257216 0.779733
3.0710981 -1.2096983 0.78271377
3.0701044 -1.1350724 0.79170436
3.0706091 -1.1722862 0.79307997
3.069433 -1.0856383 0.78987676
3.0687656 -1.0364245 0.78805739
3.0681002 -0.98742938 0.78624618
3.0674384 -0.9386512 0.78444284
3.0667789 -0.8900888 0.78264749
3.0661225 -0.84174073 0.78086001
3.0654688 -0.79360539 0.77908051
3.0647972 -0.74328703 0.78411484
3.0641892 -0.69796562 0.78701693
3.0635839 -0.65283716 0.78990167
3.0627611 -0.59140217 0.7944386
3.0619631 -0.53263557 0.7922039
3.0613282 -0.48586041 0.79042524
3.0606956 -0.43928781 0.78865427
3.0600662 -0.3929165 0.78689104
3.0594394 -0.34674507 0.78513539
3.0586598 -0.28932032 0.78295171
3.0579033 -0.23223007 0.79200226
3.0572858 -0.18675311 0.79024899
3.0567091 -0.14375272 0.79305887
3.0557728 -0.073971063 0.79704034
3.0562305 -0.10768898 0.79835802
3.0551643 -0.029172933 0.79528952
3.0545588 0.015435381 0.79354626
3.0539558 0.059854984 0.79181015
3.0532057 0.1151064 0.78965098
3.0524595 0.17008665 0.78750217
3.051847 0.21598305 0.79229379
3.0509975 0.279066 0.79418987
3.0514402 0.24647135 0.79548091
3.0504096 0.32237422 0.79247463
3.0498431 0.36539453 0.80167317
3.0491147 0.41903767 0.79952013
3.0483902 0.47242132 0.79737759
3.0478129 0.5149222 0.79567158
3.0470951 0.56779271 0.79354966
3.0463803 0.62040931 0.79143775
3.0456493 0.67524534 0.79728353
3.0449824 0.72467476 0.79795992
3.0444193 0.76613492 0.79627401
3.0437698 0.8146863 0.80038756
3.0430412 0.86889338 0.80272764
3.0423477 0.91994596 0.80062467
3.0416183 0.97408104 0.80192167
3.0417759 0.96078664 0.78836149
3.0409715 1.021296 0.79644984
3.0402882 1.071597 0.79437786
3.0396283 1.1214504 0.80281746
3.0388997 1.1754421 0.80355102
3.0382404 1.223291 0.79595584
3.0374951 1.2796993 0.80662626
3.0368297 1.3286999 0.80455613
3.0362997 1.3677194 0.80290765
3.085851 -2.2951429 0.83459115
3.0851076 -2.2404039 0.83256751
3.085479 -2.2677412 0.83357811
3.0845525 -2.1995254 0.83105618
3.0839996 -2.1587751 0.82954961
3.0834486 -2.1181829 0.828049
3.0827167 -2.0642705 0.826056
3.0819881 -2.0106084 0.82407212
3.0812633 -1.9571955 0.82209742
3.0805418 -1.90403 0.82013196
3.0798233 -1.8511093 0.81817549
3.0791693 -1.8008815 0.83319259
3.0784326 -1.7457546 0.83833379
3.0777242 -1.6935729 0.83634943
3.0770192 -1.6416296 0.83437425
3.0763171 -1.5899234 0.83240819
3.0757926 -1.5512911 0.83093911
3.0752702 -1.512805 0.8294757
3.0745759 -1.4616843 0.82753175
3.0738854 -1.4107951 0.82559675
3.0731978 -1.3601354 0.82367039
3.0724897 -1.3071468 0.82872558
3.0718911 -1.2619138 0.83640391
3.0711899 -1.2094022 0.84141487
3.0703464 -1.1472682 0.83898664
3.0695071 -1.0854574 0.83657098
3.0688396 -1.0362659 0.83464867
3.0681744 -0.98729241 0.8327347
3.0675123 -0.93853593 0.83082908
3.0668533 -0.8899951 0.82893199
3.0661967 -0.84166825 0.82704335
3.0655618 -0.79354143 0.83667523
3.0649514 -0.7480309 0.8394655
3.0642824 -0.69795376 0.8443529
3.0636377 -0.65047967 0.84244734
3.0628359 -0.59143877 0.84007752
3.0620382 -0.53269738 0.83771986
3.061403 -0.48594218 0.83584321
3.0607708 -0.43938938 0.83397484
3.0601416 -0.39303771 0.83211428
3.059495 -0.34460494 0.83692998
3.0587544 -0.28952622 0.83920169
3.0579975 -0.23246571 0.84809458
3.0573804 -0.18701234 0.8462224
3.0567656 -0.14175293 0.84435797
3.0560012 -0.085459575 0.84203899
3.0552409 -0.029445065 0.83973193
3.0546355 0.015145069 0.83789504
3.0540318 0.059546731 0.83606607
3.0532591 0.11746876 0.84194398
3.0525548 0.16964601 0.8425259
3.0519981 0.2111727 0.84518057
3.0512409 0.26771179 0.84937942
3.0505056 0.32185811 0.84709209
3.0499198 0.36496481 0.84527093
3.0491915 0.41858691 0.84300542
3.0484669 0.47194988 0.84075117
3.047873 0.51648033 0.8453517
3.0471914 0.56715751 0.84750974
3.0464773 0.61974889 0.84526014
3.0458183 0.66899109 0.84928036
3.0450792 0.72396481 0.85150194
3.0443761 0.77573085 0.84926057
3.0436759 0.82725102 0.84702957
3.0431192 0.86827165 0.84525335
3.0423946 0.92214406 0.84745491
3.0417554 0.96993327 0.85141534
3.0410688 1.0204487 0.8492012
3.040386 1.0707268 0.84699786
3.0397258 1.1205575 0.85529959
3.0389144 1.1802436 0.85265231
3.0382426 1.2297173 0.85045779
3.0375738 1.2789284 0.84827518
3.0368934 1.3297473 0.85224056
3.0363979 1.3667171 0.85473174
3.0859206 -2.2943888 0.88381779
3.0851779 -2.2396765 0.88167965
3.0855491 -2.2670004 0.88274741
3.0846231 -2.1988184 0.88008273
3.08407 -2.1580882 0.87849104
3.083519 -2.117516 0.87690538
3.0827878 -2.0636301 0.87479943
3.0820594 -2.0099943 0.87270343
3.0813344 -1.9566075 0.87061691
3.0804331 -1.890213 0.86802197
3.0807929 -1.9167216 0.86905783
3.0799131 -1.8504381 0.87853783
3.0792158 -1.7976651 0.88849211
3.0785046 -1.7452679 0.88638908
3.0777962 -1.6931112 0.8842957
3.0770915 -1.6411926 0.88221174
3.0765643 -1.6024016 0.88065475
3.0760398 -1.563758 0.87910396
3.0753427 -1.5124283 0.87704343
3.0746491 -1.4613316 0.87499279
3.0739582 -1.4104657 0.87295121
3.0732892 -1.3597533 0.88272196
3.0726461 -1.3118378 0.8854835
3.0719414 -1.2591103 0.89038444
3.0712633 -1.2091653 0.88832724
3.0705879 -1.1594436 0.88627905
3.0697484 -1.097615 0.88373244
3.068913 -1.0361071 0.88119876
3.0682483 -0.98715568 0.87918234
3.0675864 -0.93842089 0.87717479
3.0669458 -0.88987815 0.88672858
3.0661445 -0.82951277 0.89573371
3.0663621 -0.84761053 0.87920356
3.065655 -0.79347748 0.89421117
3.0650046 -0.74560612 0.89218873
3.064357 -0.69794428 0.89017528
3.0637124 -0.65049082 0.88817054
3.0629106 -0.59147537 0.88567722
3.062113 -0.53275919 0.88319641
3.0613198 -0.47436547 0.88072962
3.0616367 -0.49768251 0.88171458
3.0608649 -0.43951628 0.89056849
3.060236 -0.39318913 0.88858688
3.0596478 -0.34937736 0.8912161
3.0588489 -0.28973192 0.89539558
3.0580733 -0.23265401 0.89292407
3.0574565 -0.18721952 0.89095676
3.0568416 -0.14197885 0.88899773
3.0560775 -0.085708544 0.88656127
3.0552981 -0.02752508 0.89069271
3.0547307 0.014782568 0.89327693
