# .PCD v0.7 - Point Cloud Data file format
VERSION 0.7
FIELDS x y z
SIZE 4 4 4
TYPE F F F
COUNT 1 1 1
WIDTH 1489
HEIGHT 1
VIEWPOINT 0 0 0 1 0 0 0
POINTS 1489
DATA ascii
2.7972286 1.4537737 1.0257359
2.7964277 1.502652 1.0257032
2.7954669 1.561278 1.0256639
2.7946668 1.6101093 1.0256311
2.7938671 1.6589175 1.0255984
2.7930677 1.7077049 1.0255656
2.7922683 1.7564685 1.0255328
2.7914698 1.8052119 1.0255002
2.7908311 1.8441904 1.0254741
2.8416898 -1.2789814 1.0672688
2.8410327 -1.2388883 1.0672346
2.8402126 -1.1887934 1.0671921
2.8393919 -1.1387196 1.0671493
2.8385715 -1.0886701 1.0671068
2.8377521 -1.038642 1.067064
2.8369327 -0.9886387 1.0670216
2.8361137 -0.93865615 1.0669792
2.8352952 -0.88869804 1.0669365
2.8344769 -0.83876151 1.0668939
2.8336592 -0.78884882 1.0668515
2.8328419 -0.73895764 1.0668091
2.8320248 -0.68909073 1.0667665
2.831208 -0.63924503 1.0667241
2.8303916 -0.58942342 1.0666817
2.8295758 -0.53962314 1.0666393
2.8285973 -0.47989345 1.0665885
2.8290865 -0.50975382 1.0666138
2.827945 -0.44009185 1.0665545
2.8271303 -0.39036101 1.0665122
2.8263156 -0.34065127 1.0664699
2.8255014 -0.29096562 1.0664276
2.824688 -0.24130104 1.0663854
2.8238747 -0.1916606 1.0663431
2.8230612 -0.14204122 1.0663007
2.8222489 -0.092445925 1.0662585
2.8214364 -0.042871699 1.0662163
2.8206248 0.0066785961 1.0661741
2.8198133 0.056207806 1.0661321
2.8190019 0.10571308 1.0660897
2.8181913 0.15519735 1.0660478
2.8173811 0.20465766 1.0660056
2.8165715 0.25409701 1.0659636
2.8156624 0.30595347 1.0733079
2.8148742 0.35286674 1.075729
2.8140655 0.40223593 1.0756847
2.8130953 0.46145028 1.0756316
2.8122873 0.51077175 1.0755873
2.8114793 0.56006938 1.0755432
2.8106718 0.60934609 1.0754991
2.8098655 0.65859908 1.0754551
2.8090584 0.7078312 1.0754107
2.8082526 0.75703967 1.0753667
2.8074462 0.80622715 1.0753225
2.8066411 0.85539097 1.0752785
2.805836 0.90453398 1.0752344
2.8050311 0.95365334 1.0751903
2.8040867 1.0100993 1.0775945
2.8033531 1.0574517 1.072292
2.8024583 1.1106886 1.0750496
2.8016551 1.1597162 1.0750057
2.8008521 1.2087202 1.0749618
2.8000495 1.2577037 1.0749179
2.7992473 1.3066634 1.0748738
2.7984457 1.3556025 1.0748301
2.7976441 1.404518 1.0747861
2.7968426 1.4534128 1.0747422
2.7960417 1.502284 1.0746984
2.7950814 1.5609018 1.074646
2.7942815 1.609726 1.0746019
2.7934818 1.6585269 1.0745583
2.7926826 1.7073075 1.0745145
2.7918837 1.7560642 1.0744709
2.7910852 1.8048006 1.0744272
2.7904468 1.8437734 1.0743921
2.8412926 -1.2789429 1.1168813
2.8406358 -1.2388557 1.116838
2.8398154 -1.1887681 1.1167841
2.838995 -1.1387017 1.1167301
2.8381751 -1.0886598 1.1166762
2.8373556 -1.0386391 1.1166223
2.8365366 -0.98864299 1.1165684
2.8357177 -0.93866807 1.1165146
2.8348997 -0.88871735 1.1164607
2.8340816 -0.83878797 1.1164069
2.8332639 -0.78888303 1.1163532
2.8324466 -0.73899895 1.1162994
2.83163 -0.68913943 1.1162456
2.8308134 -0.639301 1.1161919
2.8299973 -0.58948678 1.1161382
2.8289394 -0.52975184 1.1259613
2.8293025 -0.5446645 1.1111461
2.828366 -0.48992479 1.1160309
2.8275514 -0.44017714 1.1159775
2.8267367 -0.39045352 1.1159238
2.8259223 -0.34075105 1.1158702
2.8251083 -0.29107261 1.1158166
2.824295 -0.24141546 1.1157632
2.823482 -0.19178225 1.1157097
2.8226688 -0.14217015 1.1156561
2.8218565 -0.092582121 1.1156027
2.8210447 -0.043015078 1.1155493
2.8202329 0.0065279007 1.115496
2.8194218 0.056049928 1.1154426
2.8186107 0.10554796 1.1153895
2.8178 0.15502498 1.1153361
2.8169904 0.20447809 1.1152827
2.8161805 0.25391024 1.1152295
2.8153727 0.30047333 1.1208075
2.8144836 0.35266554 1.1249707
2.8136749 0.40202755 1.1249152
2.8127053 0.46123332 1.1248486
2.8118975 0.51054758 1.1247934
2.8110898 0.559838 1.1247382
2.8102825 0.60910761 1.1246828
2.8094759 0.65835345 1.1246274
2.8086696 0.70757836 1.1245722
2.8078637 0.75677961 1.1245171
2.8070579 0.80596006 1.1244619
2.8062527 0.85511672 1.1244067
2.8054476 0.90425271 1.1243515
2.8046432 0.95336497 1.1242964
2.8036783 1.0122712 1.1242303
2.8028746 1.0613362 1.1241751
2.8020711 1.1103773 1.1241202
2.8012681 1.1593978 1.1240649
2.8004653 1.2083948 1.1240101
2.7996628 1.2573711 1.123955
2.798861 1.3063239 1.1239001
2.7980595 1.3552558 1.123845
2.7972581 1.4041643 1.1237901
2.7964568 1.453052 1.1237352
2.7956562 1.5019165 1.1236802
2.7946961 1.5605253 1.1236143
2.7938964 1.6093428 1.1235597
2.793097 1.6581366 1.1235049
2.7922978 1.70691 1.1234503
2.7914994 1.7556599 1.1233954
2.7907009 1.8043894 1.1233407
2.7900624 1.8433564 1.1232969
2.8408957 -1.2789047 1.1664799
2.8402388 -1.2388235 1.1664276
2.8394184 -1.1887431 1.1663624
2.8385983 -1.1386843 1.1662971
2.8377788 -1.0886496 1.1662319
2.8369594 -1.0386362 1.1661667
2.8361406 -0.98864752 1.1661016
2.8353221 -0.93867987 1.1660364
2.8345041 -0.88873667 1.1659714
2.8336864 -0.83881456 1.1659062
2.8328688 -0.78891677 1.1658412
2.8320515 -0.73904026 1.1657761
2.8312349 -0.68918794 1.1657112
2.8304188 -0.63935685 1.1656462
2.8291976 -0.56964523 1.1754414
2.829684 -0.59353077 1.1636091
2.8287876 -0.53976429 1.1655164
2.8279724 -0.49000263 1.1654514
2.8271577 -0.44026226 1.1653867
2.8263433 -0.39054596 1.1653218
2.8255291 -0.34085083 1.1652572
2.8247154 -0.29117978 1.1651924
2.8239021 -0.24152975 1.1651275
2.8230894 -0.19190387 1.1650629
2.8222768 -0.14229904 1.1649983
2.8214643 -0.092718259 1.1649336
2.8206525 -0.043158457 1.1648688
2.8197417 0.0088308305 1.1721954
2.8189516 0.055860534 1.1745969
2.8181412 0.10534985 1.1745303
2.8173308 0.15481824 1.1744635
2.8165212 0.20426267 1.1743969
2.8157117 0.25368616 1.1743301
2.8149025 0.30308574 1.1742635
2.8140931 0.35246444 1.1741968
2.8132851 0.40181923 1.1741304
2.8123155 0.46101636 1.1740505
2.8115077 0.51032346 1.1739841
2.8107002 0.55960673 1.1739177
2.8098936 0.60886919 1.1738511
2.809087 0.65810782 1.1737849
2.8082809 0.70732558 1.1737185
2.8074751 0.75651968 1.1736519
2.8066695 0.80569309 1.1735857
2.8058643 0.85484266 1.1735195
2.8050599 0.90397137 1.1734531
2.8042552 0.95307654 1.1733869
2.8032906 1.0119745 1.1733074
2.8024871 1.0610321 1.1732414
2.8016839 1.1100663 1.1731752
2.8008809 1.1590797 1.1731089
2.8000784 1.2080696 1.1730431
2.7992764 1.2570388 1.172977
2.7984746 1.3059845 1.1729108
2.7976732 1.3549094 1.172845
2.7968721 1.4038106 1.172779
2.7960713 1.4526914 1.1727129
2.7952709 1.5015488 1.1726469
2.7943108 1.5601492 1.1725681
2.7935114 1.6089596 1.172502
2.7927125 1.6577464 1.1724364
2.7919133 1.7065128 1.1723704
2.7911148 1.7552559 1.1723047
2.7903168 1.8039781 1.1722389
2.7896786 1.8429395 1.1721864
2.8404982 -1.2788661 1.2160631
2.8398421 -1.2387909 1.2160017
2.8390217 -1.1887181 1.2159252
2.8382018 -1.1386664 1.2158486
2.8373823 -1.0886394 1.215772
2.8365636 -1.0386335 1.2156956
2.8357449 -0.98865193 1.2156192
2.8349261 -0.93869191 1.2155427
2.8341084 -0.88875586 1.2154663
2.8332911 -0.83884114 1.2153898
2.832474 -0.78895074 1.2153136
2.8316569 -0.73908156 1.2152374
2.8308403 -0.68923646 1.2151611
2.8300242 -0.63941276 1.2150848
2.8290474 -0.5829829 1.2215881
2.8295314 -0.6028738 1.2018496
2.8283935 -0.53983486 1.2149326
2.8275783 -0.49008054 1.2148564
2.8267641 -0.44034749 1.2147804
2.8259499 -0.39063841 1.2147045
2.8251359 -0.34095055 1.2146285
2.8243225 -0.29128677 1.2145524
2.8235097 -0.2416441 1.2144766
2.8226969 -0.19202547 1.2144006
2.8218842 -0.14242785 1.2143246
2.8210723 -0.092854276 1.2142488
2.8202605 -0.043301746 1.2141731
2.8194509 0.0033796579 1.2197341
2.8185604 0.055702716 1.2238767
2.81775 0.10518482 1.2237986
2.8169398 0.15464598 1.2237208
2.8161304 0.2040832 1.2236432
2.8153207 0.25349951 1.2235652
2.8145118 0.30289188 1.2234874
2.8137033 0.35226336 1.2234098
2.8128951 0.40161097 1.2233319
2.8119254 0.46079952 1.2232388
2.8111181 0.51009941 1.2231612
2.8103108 0.55937552 1.2230837
2.8095045 0.60863078 1.223006
2.8086982 0.65786231 1.2229284
2.8078921 0.70707297 1.2228509
2.807086 0.75625992 1.2227736
2.8062813 0.80542606 1.2226961
2.8054762 0.85456848 1.2226187
2.8046718 0.90369022 1.2225415
2.8038673 0.95278823 1.2224641
2.8029032 1.0116774 1.2223715
2.8020999 1.0607282 1.2222941
2.8012967 1.1097552 1.222217
2.8004937 1.1587615 1.2221396
2.7996919 1.2077442 1.2220627
2.7988901 1.2567062 1.2219855
2.7980886 1.3056451 1.2219086
2.7972872 1.3545629 1.2218314
2.7964866 1.4034573 1.2217544
2.7956858 1.4523312 1.2216773
2.7948854 1.5011811 1.2216002
2.7939255 1.5597733 1.2215081
2.7931263 1.6085765 1.2214311
2.7923274 1.6573565 1.2213541
2.7915287 1.7061157 1.2212776
2.7907305 1.7548516 1.2212008
2.7899327 1.8035671 1.2211241
2.7892947 1.842523 1.2210627
3.5470243 -0.63191473 -1.2892089
3.4233572 -0.62867171 -1.2874502
3.875087 -0.62198508 -1.2842801
3.2353704 -0.60848147 -1.2768769
3.2696011 -0.59376186 -1.2692789
3.3266103 -0.61822516 -1.2819797
3.3814065 -0.59555 -1.2702764
3.4819553 -0.60537148 -1.2754259
3.5425379 -0.58128202 -1.2629942
3.5888898 -0.61594379 -1.2809681
3.6318505 -0.59955543 -1.2725116
3.6759493 -0.58273298 -1.2638314
3.7261064 -0.6188404 -1.2825561
3.7727253 -0.60180861 -1.273769
3.820632 -0.58430654 -1.2647393
3.9258502 -0.60425752 -1.2751354
3.9780772 -0.58601892 -1.2657273
4.0318317 -0.56724679 -1.2560439
4.0928965 -0.60692924 -1.2766266
4.1500521 -0.58788931 -1.2668065
4.2089572 -0.56826633 -1.256686
3.1799657 -0.56243306 -1.2530025
3.2315211 -0.56263983 -1.2531427
3.2656834 -0.54739577 -1.2452731
3.3225796 -0.57098091 -1.2575196
3.3772631 -0.54746658 -1.2453817
3.4191296 -0.57993984 -1.2622198
3.4776044 -0.55574262 -1.2497309
3.5843139 -0.56467062 -1.2544216
3.6271811 -0.54762518 -1.2456251
3.6711831 -0.53012872 -1.2365956
3.7212319 -0.56545883 -1.2549179
3.7677472 -0.54771447 -1.245762
3.8155456 -0.52948058 -1.2363534
3.8698797 -0.56631452 -1.2554568
3.920526 -0.54781151 -1.2459106
3.9726317 -0.52877545 -1.2360897
4.087182 -0.54791737 -1.246073
4.1442003 -0.5280053 -1.2358017
3.5380583 -0.53072619 -1.2368191
4.2029629 -0.5074842 -1.2252159
3.1263072 -0.51783574 -1.2298805
3.1762233 -0.51744586 -1.2297108
3.2276776 -0.5168612 -1.2294416
3.2812116 -0.51644295 -1.2292594
3.3364561 -0.51581532 -1.2289701
3.373126 -0.49945241 -1.2205229
3.4149082 -0.53127897 -1.2370259
3.4732599 -0.50618732 -1.224074
3.5797443 -0.51347619 -1.227916
3.6225185 -0.49577582 -1.2187804
3.6664248 -0.47760731 -1.2094033
3.7163658 -0.51216263 -1.2273241
3.7627769 -0.49370807 -1.2178004
3.8104677 -0.4747448 -1.2080141
3.864681 -0.51073658 -1.2266816
3.915211 -0.49146074 -1.2167352
3.9671953 -0.47163028 -1.2065029
4.0262594 -0.50918317 -1.2259815
4.0814791 -0.48900968 -1.2155739
4.1383595 -0.46822882 -1.2048523
3.0747161 -0.4749577 -1.2076495
3.1226664 -0.47367507 -1.2070166
3.1724856 -0.47251928 -1.2064506
3.223839 -0.47114539 -1.2057725
3.277267 -0.46990591 -1.2051653
3.3324006 -0.46843088 -1.2044373
3.3689947 -0.45150757 -1.1956998
3.4299419 -0.47409993 -1.207435
3.4886539 -0.44790119 -1.19391
3.5335855 -0.48024696 -1.2106841
3.5751822 -0.46236032 -1.2014512
3.6178637 -0.44400704 -1.1919775
3.7115073 -0.45895165 -1.1997745
3.7578149 -0.43978912 -1.1898842
3.8594916 -0.4552514 -1.1979544
3.9099047 -0.4352054 -1.1876092
4.0206976 -0.45122063 -1.1959716
4.0757852 -0.43020618 -1.1851283
4.1969795 -0.44681281 -1.1938033
3.0880706 -0.44540161 -1.1923571
3.1868212 -0.44191855 -1.1906182
3.2926919 -0.43818414 -1.1887531
2.9923494 -0.40650231 -1.1721567
3.0246952 -0.43338454 -1.1860946
3.0693851 -0.40980524 -1.1739168
3.1190293 -0.42957264 -1.1841825
3.1668706 -0.40511149 -1.1715503
3.2200055 -0.42549223 -1.1821357
3.2713413 -0.4000811 -1.169014
3.3283503 -0.42111379 -1.1799394
3.3648691 -0.40363151 -1.1709124
3.4256921 -0.42528707 -1.1821625
3.4842808 -0.39819199 -1.1681734
3.5291195 -0.42984438 -1.1845883
3.5706272 -0.41132295 -1.1750269
3.6132159 -0.39231861 -1.1652161
3.6616733 -0.42516869 -1.1822534
3.7066565 -0.40582561 -1.1722689
3.752861 -0.38595742 -1.1620131
3.805398 -0.42009878 -1.1797214
3.8543103 -0.39985859 -1.169275
3.9046078 -0.37904501 -1.1585325
3.9617684 -0.41458303 -1.176967
4.0151443 -0.39335889 -1.1660138
4.0701008 -0.37150633 -1.1547366
4.1325293 -0.40855956 -1.1739588
4.1910067 -0.38625181 -1.162448
2.9297965 -0.35451418 -1.145202
2.9748404 -0.37230939 -1.1544439
3.0212426 -0.39078593 -1.1640391
3.0658469 -0.36652291 -1.1515074
3.1153967 -0.38552862 -1.1613789
3.1631441 -0.3603363 -1.1483679
3.2161763 -0.37990153 -1.1585313
3.2674084 -0.35370642 -1.1450036
3.3243055 -0.373864 -1.1554761
3.3607497 -0.35582441 -1.1461607
3.4214489 -0.37654567 -1.156927
3.4799144 -0.34855711 -1.1424755
3.5246603 -0.37951791 -1.1585323
3.5660787 -0.36036372 -1.1486431
3.6085753 -0.34071064 -1.1384964
3.6569297 -0.37281251 -1.1551462
3.7018135 -0.3527844 -1.144807
3.8003371 -0.36554265 -1.1514753
3.8491375 -0.34455794 -1.1406434
3.9563508 -0.35763353 -1.1474816
4.0096016 -0.33559769 -1.1361083
4.1267099 -0.34899718 -1.1431204
3.0177944 -0.34824169 -1.142012
3.1117692 -0.34154302 -1.1386052
3.3980834 -0.33734423 -1.1366179
3.7479148 -0.33221292 -1.1341871
3.8993194 -0.32297945 -1.1295047
4.0644274 -0.31291014 -1.1243985
4.1850452 -0.32580113 -1.1311498
2.9130299 -0.32137054 -1.1280328
2.9714782 -0.33047646 -1.132785
3.0143509 -0.30575204 -1.1200132
3.0623131 -0.32329696 -1.1291271
3.1257229 -0.31100374 -1.1228043
3.1755462 -0.30685115 -1.1206869
3.212352 -0.33437335 -1.1349589
3.2634816 -0.30739659 -1.1210265
3.3202651 -0.32668114 -1.1310471
3.3566344 -0.3080858 -1.1214439
3.4151156 -0.3037219 -1.119223
3.4755545 -0.29899621 -1.1168158
3.5202084 -0.32926768 -1.1325157
3.5615373 -0.30948257 -1.1222999
3.6039419 -0.28918266 -1.1118181
3.6521933 -0.32053894 -1.1280818
3.6969783 -0.29982775 -1.1173891
3.7429767 -0.27855527 -1.1064061
3.7952838 -0.31107581 -1.1232753
3.8439739 -0.28934926 -1.1120594
3.9509423 -0.30078149 -1.1180465
4.0040679 -0.277937 -1.1062545
4.1209006 -0.28954148 -1.1123374
4.1790943 -0.26546025 -1.0999084
2.8571389 -0.27808863 -1.10912
2.9097793 -0.28048468 -1.1068642
2.9623239 -0.27763867 -1.1054251
3.0109112 -0.26331675 -1.0980422
3.058784 -0.28012729 -1.1067762
3.1220717 -0.26686472 -1.0999513
3.171798 -0.26195049 -1.0974395
3.2066262 -0.26620579 -1.0996652
3.2595596 -0.26115119 -1.097083
3.3162308 -0.27956527 -1.1066526
3.3711145 -0.25060755 -1.0916971
3.4320679 -0.269517 -1.101526
3.471199 -0.24950905 -1.0911934
3.5157626 -0.27909327 -1.1065381
3.557003 -0.25867933 -1.0959967
3.6474648 -0.26834744 -1.10106
3.6921506 -0.24695547 -1.0900147
3.7902391 -0.25669819 -1.0951216
3.8940401 -0.2670083 -1.100526
3.9455431 -0.24402671 -1.0886619
4.058764 -0.2544173 -1.0941139
4.23909 -0.24063371 -1.0870949
2.8453581 -0.23195301 -1.0996289
2.8930955 -0.24806033 -1.0900673
3.0402625 -0.24590863 -1.0890492
2.8447149 -0.18241851 -1.1000264
2.8440707 -0.13284299 -1.1004239
2.8434258 -0.083220422 -1.1008219
2.8427808 -0.033556685 -1.1012203
2.842135 0.016154194 -1.1016189
2.8414886 0.065906338 -1.102018
2.8408415 0.11570574 -1.1024175
2.8401942 0.16554654 -1.1028173
2.839546 0.21543469 -1.1032175
2.8388972 0.26536435 -1.1036178
2.838248 0.31534153 -1.1040189
2.8375983 0.36536032 -1.1044201
2.8369477 0.41542673 -1.1048216
2.8362968 0.46553487 -1.1052237
2.8356454 0.5156908 -1.105626
2.8349931 0.56588852 -1.1060286
2.8343406 0.61613417 -1.1064316
2.8336873 0.66642183 -1.106835
2.8330328 0.71675742 -1.1072388
2.8323789 0.76713508 -1.1076429
2.8317237 0.81756079 -1.1080472
2.8310683 0.86802894 -1.1084522
2.8304121 0.91854513 -1.1088574
2.8297553 0.96910369 -1.1092629
2.8290982 1.0197105 -1.109669
2.8284397 1.0703599 -1.1100754
2.8277814 1.121058 -1.1104819
2.8271222 1.1717983 -1.1108888
2.8264625 1.2225875 -1.1112964
2.8258023 1.2734193 -1.1117041
2.8252733 1.3141186 -1.1120304
2.8246117 1.3650358 -1.1124389
2.8239496 1.4159957 -1.1128478
2.823287 1.4670048 -1.1132568
2.822624 1.5180565 -1.1136663
2.82196 1.5691575 -1.1140761
2.8212957 1.6203014 -1.1144866
2.820631 1.6714946 -1.1148971
2.8199129 1.7227081 -1.1051975
2.8193803 1.7637317 -1.1055229
2.8188469 1.804785 -1.1058486
3.5993159 -0.2377346 -1.0851811
3.7380464 -0.22498412 -1.0786699
3.8388183 -0.23423223 -1.0835226
3.998544 -0.22037618 -1.0764524
4.1151018 -0.23019202 -1.0816094
2.8635986 -0.22436292 -1.07778
2.9049242 -0.21935908 -1.0752164
2.9631052 -0.22623791 -1.0788156
3.0221238 -0.21200772 -1.0714871
3.0702565 -0.22811897 -1.0798591
3.1184254 -0.22278444 -1.0771288
3.1680551 -0.21711065 -1.0742238
3.2196584 -0.21139596 -1.071299
3.2728822 -0.20531125 -1.0681835
3.3122015 -0.23251627 -1.0822928
3.3669727 -0.20272319 -1.0669049
3.4278014 -0.22069879 -1.0762503
3.4668503 -0.20009574 -1.0656095
3.5113215 -0.22899447 -1.0805993
3.5524738 -0.20795362 -1.0697334
3.5946949 -0.18636601 -1.0585849
3.6650369 -0.20520262 -1.0683823
3.7852027 -0.20240961 -1.0670139
3.8336711 -0.1792067 -1.0550334
3.8887696 -0.21113153 -1.0715958
3.9401531 -0.18736883 -1.0593275
4.0531106 -0.19602732 -1.0638827
4.109313 -0.17094871 -1.0509361
4.1731539 -0.205229 -1.0687236
4.2330022 -0.17949392 -1.0554395
2.8541644 -0.17689647 -1.0610263
2.9167025 -0.19024745 -1.0601532
2.9638567 -0.17462136 -1.0520945
3.0186653 -0.16945753 -1.0494566
3.0667076 -0.18483275 -1.0574476
3.1193867 -0.16821291 -1.048878
3.1643171 -0.17233147 -1.0510395
3.2158184 -0.16582911 -1.0477065
3.2689366 -0.15893228 -1.0441707
3.3081784 -0.18553397 -1.0579679
3.3628364 -0.15490797 -1.0421485
3.4235411 -0.17195231 -1.0510117
3.4625082 -0.15075602 -1.0400637
3.5068877 -0.17897138 -1.0546997
3.5479517 -0.15730546 -1.0435101
3.6380279 -0.16421007 -1.0471431
3.6825166 -0.14146304 -1.0353961
3.7331243 -0.17149949 -1.0509785
3.7801743 -0.14820981 -1.0389521
3.883508 -0.15534875 -1.0427145
3.9930303 -0.16291519 -1.0467023
4.0474672 -0.13774009 -1.0337045
4.1672249 -0.14510696 -1.0375956
2.8438663 -0.13294129 -1.0606425
2.913439 -0.14930767 -1.0389568
2.8432214 -0.083318591 -1.0610229
2.8425763 -0.033654682 -1.0614035
2.8419302 0.016056342 -1.0617845
2.841284 0.065808654 -1.0621659
2.8406367 0.11560821 -1.0625474
2.8399892 0.16544917 -1.0629295
2.8393412 0.21533749 -1.0633121
2.8386922 0.26526731 -1.0636947
2.8380427 0.31524462 -1.0640779
2.837393 0.36526358 -1.0644611
2.8367424 0.41533017 -1.064845
2.8360915 0.46543849 -1.0652291
2.8354397 0.51559454 -1.0656136
2.8347874 0.56579244 -1.0659983
2.8341346 0.6160382 -1.0663834
2.8334813 0.66632599 -1.0667688
2.832768 0.71952921 -1.0628812
2.8321216 0.76701581 -1.0575153
2.8314664 0.81744176 -1.0578973
2.8308105 0.86791003 -1.0582796
2.8301542 0.91842657 -1.0586624
2.8294976 0.96898514 -1.0590454
2.8288398 1.0195924 -1.0594289
2.8281817 1.070242 -1.0598127
2.8275232 1.1209402 -1.0601968
2.8268635 1.1716808 -1.0605811
2.8262038 1.2224699 -1.060966
2.8255432 1.2733018 -1.0613509
2.8250146 1.3140018 -1.0616595
2.8243527 1.3649191 -1.0620451
2.8236909 1.4158791 -1.0624313
2.8230281 1.4668883 -1.0628177
2.8223646 1.5179402 -1.0632045
2.8217008 1.5690417 -1.0635916
2.8210363 1.6201859 -1.0639789
2.8203712 1.6713793 -1.0643669
2.8196535 1.7225928 -1.0546445
2.8191204 1.7636167 -1.0549517
2.8185868 1.8046701 -1.055259
3.5900812 -0.13507704 -1.0320299
3.8285332 -0.12427241 -1.0265914
3.9347725 -0.13080765 -1.0300431
4.1035347 -0.11181113 -1.0203178
4.2269263 -0.11846672 -1.0238427
2.8614373 -0.13123909 -1.031415
2.9101794 -0.10841852 -1.0177865
2.954731 -0.12209968 -1.0248982
3.0152111 -0.12696198 -1.0274547
3.061394 -0.12001653 -1.0238891
3.1093152 -0.11271375 -1.0201396
3.1605842 -0.12761271 -1.0278862
3.2119842 -0.12032491 -1.0241468
3.2649963 -0.11261825 -1.0201916
3.302155 -0.11519364 -1.0215489
3.3587065 -0.10716178 -1.0174278
3.4192874 -0.12327759 -1.0258101
3.4581723 -0.10148977 -1.0145562
3.5024602 -0.12902367 -1.0288391
3.5434361 -0.10673472 -1.0173267
3.6093969 -0.098065674 -1.0128819
3.6777098 -0.088842571 -1.0081514
3.7282085 -0.11810096 -1.0233312
3.7751527 -0.094098523 -1.0109358
3.8782554 -0.099659771 -1.0138818
3.9294004 -0.074343041 -1.0008087
3.9875255 -0.1055537 -1.0170033
4.0418334 -0.079555288 -1.0035794
4.1613064 -0.085093886 -1.0065237
4.2208614 -0.057551913 -0.99230421
2.8500257 -0.081437379 -1.0165925
2.9069242 -0.067579843 -0.99664247
2.9513938 -0.080581322 -1.003402
3.0057681 -0.07366468 -0.99985659
3.0560892 -0.055312961 -0.99038887
3.1056855 -0.068838358 -0.99742329
3.1568563 -0.082954332 -1.0047644
3.2081549 -0.074883208 -1.0006192
3.2610617 -0.066368975 -0.99624586
3.3545825 -0.059484407 -0.99274254
3.4150398 -0.074674383 -1.0006459
3.4538431 -0.052296773 -0.98908627
3.4980392 -0.079151273 -1.0030174
3.5389273 -0.056241192 -0.99118364
3.6286182 -0.060399152 -0.99339449
3.7233 -0.064788468 -0.99572837
3.8234015 -0.069429047 -0.99819613
3.8730104 -0.044064328 -0.98509717
3.9820302 -0.048291475 -0.98735607
4.0977669 -0.052779049 -0.98975384
2.8423207 -0.033777207 -1.0116321
2.841675 0.01593402 -1.011991
2.8410277 0.065686531 -1.0123502
2.8403809 0.11548629 -1.0127099
2.8397331 0.16532744 -1.0130695
2.8390849 0.21521597 -1.0134296
2.8384359 0.26514599 -1.0137901
2.8377867 0.3151235 -1.0141509
2.8371367 0.3651427 -1.0145121
2.8364856 0.41520953 -1.0148736
2.8358345 0.46531802 -1.0152353
2.8351831 0.51547426 -1.0155976
2.8345304 0.56567234 -1.01596
2.8338776 0.6159184 -1.0163227
2.8332243 0.66620636 -1.0166857
2.8325901 0.71401834 -1.0145253
2.8318639 0.76689655 -1.0073873
2.8312089 0.81732285 -1.0077467
2.8305528 0.86779118 -1.0081068
2.8298965 0.91830796 -1.008467
2.8292394 0.96886688 -1.0088276
2.8285816 1.0194743 -1.0091884
2.8279235 1.070124 -1.0095496
2.8272648 1.1208223 -1.0099112
2.8266053 1.1715631 -1.010273
2.8259454 1.2223526 -1.010635
2.8252845 1.2731847 -1.0109977
2.8247559 1.3138846 -1.0112878
2.8240941 1.3648022 -1.0116508
2.823432 1.4157627 -1.0120143
2.8227692 1.466772 -1.0123781
2.8221054 1.5178244 -1.012742
2.8214417 1.5689257 -1.0131065
2.8207767 1.62007 -1.0134711
2.8201115 1.6712637 -1.0138361
2.8194456 1.7225006 -1.0142016
2.8189127 1.7635247 -1.0144941
2.8183789 1.8045781 -1.014787
3.2961431 -0.044986002 -0.98519874
3.5808749 -0.032737091 -0.97904289
3.6729109 -0.036305726 -0.98095024
3.7701383 -0.0400756 -0.98296499
3.9240365 -0.017974563 -0.97162366
4.0362096 -0.021472633 -0.97350717
4.1553984 -0.025189519 -0.97550833
2.8662364 -0.025060177 -0.97460353
2.917264 -0.01716245 -0.97054815
2.9480612 -0.039115004 -0.98193288
3.0066104 -0.021078713 -0.9726336
3.0525589 -0.012252208 -0.96809435
3.1020613 -0.025021158 -0.97473669
3.1531334 -0.038356267 -0.9816736
3.2092471 -0.018332861 -0.97134399
3.2571328 -0.020184353 -0.97233379
3.3121047 -0.010679517 -0.96744895
3.3688626 -0.00066168234 -0.9622997
3.4107983 -0.026142575 -0.97551823
3.4495199 -0.0031769387 -0.96365428
3.4936252 -0.02935411 -0.9772346
3.5553539 0.0062447637 -0.9588455
3.6239245 -0.0086156987 -0.96658349
3.6681194 0.01614771 -0.9537921
3.7183995 -0.011561871 -0.96817005
3.7651329 0.013859089 -0.9550401
3.8182781 -0.014676541 -0.96984744
3.8677731 0.01143774 -0.95636046
3.9765432 0.0088717677 -0.95775962
4.0305948 0.036508095 -0.94348752
4.0920091 0.0061478391 -0.95924449
4.1495013 0.034606501 -0.94454902
4.2148075 0.003250923 -0.96082342
2.846807 0.022305917 -0.96097791
2.913991 0.023782248 -0.94934905
2.9586108 0.012131866 -0.95540953
3.0031714 0.021226743 -0.95073009
3.0490329 0.030752435 -0.94582862
3.0984411 0.018738018 -0.95208043
3.1494155 0.0061816722 -0.95861387
3.1819465 0.027616898 -0.94753838
3.2532089 0.025935765 -0.94845498
3.3080702 0.036276571 -0.94313729
3.3647125 0.047157124 -0.93754131
3.4065635 0.022318015 -0.95042765
3.4452033 0.045869902 -0.93826008
3.5095744 0.032441534 -0.94525367
3.6192379 0.043086674 -0.93981433
3.7135069 0.041579083 -0.94065601
3.8131628 0.039985329 -0.94154584
3.9186807 0.038297877 -0.94248813
2.8407722 0.065564416 -0.96253383
2.8401246 0.11536437 -0.96287131
2.8394771 0.16520573 -0.96320891
2.8388288 0.21509446 -0.96354687
2.8381796 0.26502469 -0.96388519
2.8375301 0.31500244 -0.96422374
2.8368802 0.36502182 -0.96456254
2.8362291 0.41508877 -0.9649018
2.835578 0.46519744 -0.96524107
2.8349261 0.51535398 -0.96558094
2.8342736 0.56555229 -0.96592104
2.8336205 0.61579853 -0.96626151
2.8329668 0.66608667 -0.96660209
2.8323126 0.71642292 -0.96694303
2.8316061 0.76677722 -0.9572587
2.8309512 0.81720382 -0.95759559
2.8302951 0.86767238 -0.95793319
2.8296382 0.91818923 -0.95827091
2.8289816 0.96874839 -0.95860898
2.8283236 1.019356 -0.9589473
2.8276653 1.0700058 -0.95928609
2.8270066 1.1207044 -0.95962501
2.8263466 1.1714454 -0.95996428
2.8256869 1.2222352 -0.96030378
2.8250258 1.2730675 -0.96064353
2.824497 1.3137677 -0.96091557
2.8238351 1.3646855 -0.96125615
2.8231728 1.4156461 -0.96159685
2.82251 1.4666556 -0.96193779
2.8218462 1.5177081 -0.96227908
2.8211823 1.5688097 -0.96262062
2.8205173 1.6199545 -0.96296263
2.8198519 1.6711483 -0.96330488
2.819186 1.7223853 -0.96364748
2.8186526 1.7634094 -0.96392179
2.818119 1.8044631 -0.96419621
3.0793364 0.051720988 -0.93499291
3.1457028 0.050659619 -0.9355855
3.215229 0.049547739 -0.93620628
3.571697 0.069286719 -0.92621958
3.6633358 0.068517916 -0.92667729
3.7601357 0.067705803 -0.92716068
3.8625443 0.066846654 -0.92767215
3.9710646 0.065936215 -0.92821407
4.0862603 0.064969808 -0.92878932
4.208765 0.063942045 -0.9294005
2.8498263 0.068721823 -0.92942697
2.9051292 0.074874692 -0.92289305
2.9535868 0.074465796 -0.92313612
3.0039783 0.074045017 -0.92338675
3.0606341 0.084415302 -0.91805494
3.110316 0.073157445 -0.92391551
3.1600819 0.083832942 -0.91842115
3.2113857 0.095023409 -0.91266137
3.2492909 0.071991526 -0.92460948
3.3040414 0.083165959 -0.91886026
3.360568 0.094906747 -0.91281891
3.4023345 0.070707574 -0.92537373
3.4408929 0.094843954 -0.91290361
3.5051296 0.082396701 -0.91938937
3.6145589 0.09470813 -0.91308683
3.6585598 0.12080508 -0.89960533
3.7086222 0.094634593 -0.91318619
3.7551458 0.12146475 -0.89932662
3.8080561 0.094556808 -0.9132911
3.8573244 0.12216263 -0.89903182
3.9133344 0.09447448 -0.9134022
3.9655957 0.12290212 -0.89871943
4.0249877 0.094387174 -0.91352016
4.0805206 0.12368707 -0.89838785
4.1436133 0.094294392 -0.91364533
4.2027326 0.12452177 -0.89803523
2.8429136 0.11776306 -0.91663963
2.9058399 0.12581328 -0.8965227
2.9485719 0.13669515 -0.89091706
2.9945798 0.12686989 -0.89603347
3.0570881 0.1275374 -0.89572847
3.1066756 0.11703571 -0.90119755
3.1563444 0.1284671 -0.89531183
3.2075469 0.14043646 -0.88914865
3.2453783 0.11798304 -0.90079731
3.3000183 0.12998873 -0.89461762
3.3564301 0.1425873 -0.88813215
3.3981118 0.11902621 -0.90035659
3.4365892 0.14374533 -0.88758475
3.5006921 0.1322763 -0.89356393
3.5671186 0.12018054 -0.89986908
3.6098869 0.14624888 -0.88640141
3.7037454 0.14760482 -0.88576055
3.802958 0.14903808 -0.88508308
3.9079969 0.15055555 -0.8843658
4.0193911 0.1521648 -0.88360518
4.1377354 0.15387447 -0.88279724
2.839221 0.16508403 -0.91334784
2.8385723 0.21497294 -0.91366351
2.8379233 0.26490337 -0.91397959
2.8372738 0.31488132 -0.91429585
2.8366234 0.36490089 -0.91461241
2.8359723 0.41496807 -0.91492933
2.8353214 0.46507698 -0.91524649
2.8346691 0.5152337 -0.915564
2.8340166 0.56543225 -0.91588169
2.8333633 0.61567867 -0.91619974
2.8327098 0.66596699 -0.91651791
2.8320556 0.71630335 -0.91683668
2.8313491 0.76665801 -0.90712959
2.8306937 0.81708473 -0.9074443
2.8300376 0.86755341 -0.90775919
2.8293808 0.91807061 -0.90807444
2.8287234 0.96862996 -0.90838999
2.8280656 1.0192378 -0.90870577
2.8274074 1.0698879 -0.90902197
2.8267481 1.1205866 -0.90933836
2.8260884 1.1713278 -0.90965492
2.8254282 1.2221178 -0.90997183
2.8247674 1.2729503 -0.91028905
2.8242383 1.3136505 -0.91054302
2.8235762 1.3645687 -0.91086072
2.8229139 1.4155295 -0.91117877
2.8222506 1.466539 -0.911497
2.8215868 1.517592 -0.91181564
2.8209229 1.5686938 -0.91213459
2.8202577 1.6198386 -0.91245377
2.8195925 1.6710327 -0.91277319
2.8189266 1.7222698 -0.91309291
2.818393 1.7632945 -0.91334891
2.8178592 1.8043482 -0.91360503
3.6537912 0.1730094 -0.87257618
3.7501647 0.17513613 -0.87153798
3.8521132 0.17738591 -0.87043953
3.9601357 0.17976969 -0.86927575
4.074791 0.18229987 -0.8680405
4.1967096 0.18499033 -0.86672699
2.849992 0.16523813 -0.87731731
2.902581 0.16658106 -0.87541527
2.9452338 0.17811185 -0.86947352
2.9911571 0.16898593 -0.874228
3.0535467 0.17060316 -0.87343132
3.1030397 0.16085561 -0.8785097
3.1526117 0.17304088 -0.87223375
3.2037134 0.18578698 -0.86566848
3.2414711 0.16391046 -0.87701827
3.2960012 0.17674504 -0.87040943
3.3522975 0.19019894 -0.8634811
3.3938954 0.1672741 -0.87537622
3.4322922 0.19257423 -0.86230338
3.4962609 0.18208049 -0.86777759
3.5625479 0.17099586 -0.8735593
3.6052225 0.19770911 -0.8597576
3.6988761 0.20049 -0.85837895
3.7978678 0.20342939 -0.85692155
3.9026685 0.20654127 -0.85537875
4.0138044 0.20984125 -0.85374278
4.1318674 0.21334694 -0.85200471
2.8434341 0.21792728 -0.86128342
2.90326 0.21773505 -0.8489334
2.957634 0.20969474 -0.85313135
3.0021079 0.22218335 -0.84669501
3.0500102 0.21361265 -0.85116315
3.0994091 0.20461729 -0.85585219
3.1488845 0.21755439 -0.8491869
3.1998854 0.23107509 -0.84222043
3.2548974 0.22205065 -0.84692812
3.3117537 0.21254274 -0.85188729
3.3481715 0.2377418 -0.83886564
3.3896852 0.21545142 -0.85043222
3.4498279 0.2299208 -0.84298068
3.5120194 0.24510813 -0.83515871
3.5579832 0.2217329 -0.84728992
3.6490297 0.22513106 -0.84558994
3.7451911 0.22872016 -0.84379447
3.8469107 0.23251669 -0.84189516
3.9546854 0.23653923 -0.83988285
4.0690718 0.24080852 -0.8377471
4.1906967 0.24534802 -0.8354761
2.8376672 0.26478207 -0.86407363
2.8370173 0.31476021 -0.8643676
2.8363671 0.36478001 -0.86466187
2.8357158 0.41484731 -0.86495644
2.8350642 0.46495646 -0.86525124
2.8344126 0.51511347 -0.86554635
2.8337595 0.56531209 -0.86584175
2.8331065 0.61555874 -0.86613739
2.8324525 0.6658473 -0.86643332
2.8317978 0.7161839 -0.8667295
2.8310859 0.7685644 -0.86102164
2.830436 0.81696558 -0.85729218
2.8297796 0.86743462 -0.85758471
2.8291228 0.91795194 -0.85787743
2.8284652 0.96851158 -0.85817039
2.8278074 1.0191196 -0.85846364
2.8271489 1.0697699 -0.8587572
2.8264897 1.1204689 -0.85905111
2.82583 1.1712103 -0.8593452
2.8251696 1.2220006 -0.85963941
2.8245084 1.2728331 -0.85993397
2.8239796 1.3135335 -0.86016977
2.8233168 1.3644518 -0.86046475
2.822655 1.4154128 -0.86076033
2.8219914 1.4664232 -0.86105579
2.8213279 1.5174756 -0.86135167
2.8206635 1.5685778 -0.86164778
2.8199983 1.6197227 -0.8619442
2.8193328 1.6709174 -0.86224079
2.8186669 1.7221545 -0.86253774
2.8181331 1.7631792 -0.86277544
2.8175993 1.8042334 -0.86301333
2.9699812 0.24170394 -0.83656842
3.0314727 0.24493827 -0.834934
3.095783 0.24832083 -0.83322459
3.1631107 0.25186211 -0.83143508
3.2336731 0.25557354 -0.82955968
3.3077087 0.25946763 -0.82759184
3.6005652 0.249089 -0.83315533
3.6940145 0.2532903 -0.83104116
3.7927866 0.25773096 -0.82880658
3.8973494 0.26243192 -0.82644087
4.0082273 0.26741681 -0.82393253
4.1260099 0.27271211 -0.82126772
2.8422 0.26835048 -0.82906193
2.894439 0.26838812 -0.82270485
2.9525845 0.27211556 -0.820813
2.998666 0.26440948 -0.8248325
3.0447292 0.2779012 -0.81787783
3.0921621 0.29196641 -0.8106271
3.1432862 0.28434092 -0.8146081
3.1960628 0.27630097 -0.81880474
3.2490203 0.2909798 -0.81124002
3.3036695 0.30632567 -0.80333102
3.3440509 0.28521603 -0.8142857
3.3833818 0.28757656 -0.81308919
3.4454982 0.27893794 -0.81760186
3.5075586 0.295066 -0.80929279
3.553426 0.2723918 -0.8210609
3.5959153 0.30038875 -0.80659467
3.6442764 0.2771703 -0.81864631
3.6891611 0.30600601 -0.8037473
3.7402258 0.28221703 -0.81609601
3.7877135 0.31194299 -0.80073792
3.8417172 0.28755525 -0.81339848
3.8920393 0.31822771 -0.79755229
3.949244 0.29321092 -0.8105405
4.0026598 0.32489169 -0.79417437
4.0633621 0.29921323 -0.80750746
4.120163 0.33197027 -0.79058623
4.1846962 0.30559516 -0.80428249
2.8382096 0.31726819 -0.81742084
2.8911946 0.30897957 -0.80168867
2.9492326 0.3135885 -0.79934049
2.9952285 0.30658144 -0.80299795
3.041204 0.32077086 -0.79568213
3.0885456 0.33555406 -0.78805965
3.1235304 0.31627381 -0.79806376
3.1922448 0.32146472 -0.79542118
3.2642972 0.32690775 -0.79265016
3.3399365 0.33262181 -0.78974122
3.4411747 0.32788217 -0.79226077
3.5488758 0.32297277 -0.79487246
3.6395302 0.32912731 -0.79174531
3.7352686 0.33562702 -0.78844273
3.8365321 0.34250176 -0.7849496
2.8361099 0.36465907 -0.81471068
2.8354592 0.41472661 -0.81498301
2.8348076 0.464836 -0.81525558
2.8341556 0.51499313 -0.81552833
2.8335025 0.56519204 -0.81580144
2.832849 0.61543888 -0.81607461
2.8321953 0.66572762 -0.8163482
2.8315408 0.71606445 -0.81662196
2.8308911 0.76441771 -0.81287426
2.8301783 0.81684649 -0.80713964
2.8295219 0.86731577 -0.8074097
2.8288651 0.91783327 -0.80767995
2.8282077 0.96839315 -0.80795044
2.8275492 1.0190012 -0.80822116
2.8268905 1.0696518 -0.80849212
2.8262312 1.1203511 -0.80876338
2.8255715 1.1710927 -0.80903482
2.8249111 1.2218831 -0.8093065
2.82425 1.272716 -0.80957842
2.8237207 1.3134166 -0.80979615
2.8230584 1.3643351 -0.81006861
2.8223958 1.4152962 -0.81034118
2.8217323 1.4663064 -0.81061411
2.8210685 1.5173595 -0.81088722
2.8204043 1.568462 -0.81116068
2.8197389 1.6196071 -0.81143415
2.8190732 1.6708018 -0.81170797
2.8184071 1.7220393 -0.81198215
2.8178735 1.7630641 -0.81220156
2.8173394 1.8041184 -0.8124212
2.8745902 0.33804971 -0.78662843
2.9319243 0.34325927 -0.78396881
2.9917955 0.34869933 -0.78119147
3.155612 0.34113407 -0.78521448
3.2258966 0.34698176 -0.78223282
3.2996361 0.35311699 -0.77910477
3.3770914 0.35956132 -0.77581894
3.5031044 0.34494799 -0.7834661
3.5912724 0.35160851 -0.78007537
3.6843154 0.35863727 -0.77649719
3.7826493 0.36606574 -0.77271551
3.8867378 0.3739289 -0.76871252
3.9438126 0.34978509 -0.78124875
4.008234 0.38311291 -0.76686084
4.057663 0.35751438 -0.7773214
4.1787062 0.36573201 -0.77314591
2.8409748 0.36506897 -0.77634281
2.9007547 0.37120539 -0.77468705
2.9673622 0.37802947 -0.77415925
3.0430806 0.37493396 -0.77517796
3.1117361 0.381742 -0.7731269
3.1198523 0.36033499 -0.77525103
3.1900499 0.37808752 -0.77260458
3.2721097 0.38586462 -0.77198029
3.3588409 0.39408451 -0.77132058
3.4532862 0.39063698 -0.7712025
3.5493474 0.38664013 -0.77004027
3.6528177 0.39565277 -0.76925832
3.7629354 0.40524447 -0.76842642
3.880363 0.41547287 -0.76753908
4.0066471 0.41197604 -0.76668084
4.1419296 0.40822798 -0.76576144
2.8353233 0.41463804 -0.77502584
2.8981655 0.4222796 -0.77434909
2.9652729 0.41991276 -0.77389663
3.0352757 0.42815995 -0.7733534
3.1095057 0.42582124 -0.77285081
3.1877422 0.42335844 -0.77232105
3.2697196 0.43238652 -0.77168918
3.3563626 0.44192839 -0.77102131
3.448081 0.45202917 -0.77031434
3.5466719 0.43737936 -0.76972306
3.6500323 0.4479686 -0.76893175
3.7600315 0.45923793 -0.76808935
3.8780887 0.45731342 -0.76727813
4.0042677 0.45525455 -0.76641107
4.1386051 0.46798623 -0.7653892
2.8346021 0.46473956 -0.77525866
2.8956327 0.47333544 -0.774028
2.9626608 0.47224164 -0.77356803
3.033119 0.47109365 -0.7730844
3.1067197 0.48089665 -0.77250582
3.184859 0.479918 -0.77196693
3.2673304 0.4788872 -0.77139813
3.3538852 0.48974979 -0.77072203
3.4455087 0.50124854 -0.77000654
3.5439973 0.48809344 -0.76940614
3.6472483 0.50025767 -0.76860505
3.757129 0.51320291 -0.76775253
3.8758152 0.49913496 -0.76701719
4.0010967 0.512932 -0.76605147
4.1361132 0.51278317 -0.76511019
2.83395 0.51489687 -0.77551353
2.8931019 0.52436399 -0.77370739
2.9600489 0.52454537 -0.77323943
3.0304224 0.5247342 -0.77274758
3.1044912 0.52493477 -0.77222985
3.181977 0.5364483 -0.77161288
3.2649422 0.52536678 -0.77110726
3.3514087 0.53754884 -0.77042305
3.4429381 0.5504443 -0.76969898
3.5413244 0.53878242 -0.7690894
3.6444652 0.55251998 -0.76827866
3.7549531 0.55365884 -0.76749986
3.8727856 0.55487162 -0.76666951
3.9979274 0.57057697 -0.76569206
4.1336212 0.5575583 -0.76483119
2.8332968 0.5650959 -0.77576876
2.8905716 0.5753687 -0.77338666
2.9574385 0.57682049 -0.77291089
3.0277269 0.57834834 -0.77241087
3.1017048 0.57995445 -0.7718845
3.1796727 0.58164918 -0.77132976
3.2619586 0.58343542 -0.77074379
3.3489332 0.58532554 -0.77012414
3.4403682 0.59961629 -0.76939148
3.5386527 0.58944625 -0.76877278
3.6416843 0.60475564 -0.76795238
3.7527781 0.59409702 -0.76724738
3.8697574 0.610578 -0.76632196
3.9955516 0.61379033 -0.7654227
4.1303015 0.61722934 -0.76445949
2.8326435 0.61534297 -0.77602416
2.8885481 0.61615342 -0.77313036
2.9548297 0.62907058 -0.77258259
3.0255711 0.62121856 -0.77214164
3.0989203 0.63494635 -0.77153921
3.1773674 0.62682974 -0.77104622
3.258976 0.64147311 -0.77038026
3.3464594 0.63308007 -0.76982546
3.4377999 0.64876467 -0.76908416
3.5359821 0.64008504 -0.76845628
3.6389048 0.6569646 -0.76762623
3.7498796 0.64799088 -0.76691115
3.8667307 0.66625398 -0.76597458
3.9931772 0.65698349 -0.76515347
4.1278129 0.66196084 -0.76418078
2.8319893 0.66563189 -0.77627963
2.8860204 0.66711062 -0.77281004
2.9527433 0.67085063 -0.77232015
3.0228779 0.67478001 -0.77180517
3.0966935 0.67891765 -0.77126318
3.1750631 0.67199022 -0.77076286
3.2565889 0.68787831 -0.77008909
3.3439863 0.680812 -0.76952666
3.4352331 0.69788939 -0.76877689
3.5333133 0.69069862 -0.76814002
3.6361263 0.7091468 -0.76730037
3.7469826 0.70185637 -0.76657486
3.8644617 0.70799202 -0.76571423
3.9900124 0.71454728 -0.76479465
4.1253247 0.70667064 -0.76390231
2.8313346 0.71596885 -0.77653551
2.8834941 0.71804386 -0.77248996
2.9501364 0.72305065 -0.77199209
3.0201862 0.72831523 -0.77146894
3.0944676 0.72287005 -0.77098721
3.1721835 0.72841173 -0.77040875
3.2542033 0.73426241 -0.7697981
3.341512 0.72852129 -0.76922756
3.4326661 0.74699026 -0.76846963
3.5306451 0.74128723 -0.76782382
3.6340432 0.74826682 -0.76705593
3.744087 0.75569338 -0.76623869
3.8621938 0.7497111 -0.76545393
3.9876401 0.75769979 -0.76452553
4.1220098 0.76625466 -0.76353109
2.8306794 0.76634794 -0.77679151
2.8809688 0.76894993 -0.77217001
2.9475312 0.7752257 -0.77166438
3.0180342 0.7711224 -0.77120006
3.0916867 0.7777828 -0.77064246
3.1693063 0.78480387 -0.77005488
3.2518191 0.78062534 -0.76950735
3.3390398 0.77620834 -0.76892865
3.4300988 0.79606724 -0.76816213
3.5279782 0.79185051 -0.76750761
3.6319609 0.7873702 -0.76681161
3.7411926 0.80950207 -0.76590276
3.8591712 0.8053112 -0.7651071
3.9852691 0.80083215 -0.76425678
4.119525 0.81092107 -0.76325285
2.8300235 0.81677508 -0.77704787
2.8784447 0.81983232 -0.77185017
2.9454482 0.81694579 -0.77140224
3.0153449 0.82460499 -0.77086413
3.0889068 0.83266783 -0.77029788
3.1670055 0.82989442 -0.76977181
3.2494354 0.82696718 -0.76921666
3.3359497 0.83578438 -0.7685551
3.4275327 0.84512055 -0.76785475
3.5253105 0.84238845 -0.76719123
3.6291864 0.83948582 -0.76648611
3.7390232 0.84984082 -0.76565105
3.8561504 0.86088121 -0.76476043
3.9821084 0.85831481 -0.76389831
4.1170406 0.85556561 -0.76297474
2.8293672 0.86724454 -0.77730441
2.8759222 0.87068748 -0.77153051
2.9428453 0.86907095 -0.77107465
3.0126572 0.87806141 -0.77052838
3.0866845 0.87655383 -0.77002233
3.1647058 0.87496483 -0.76948899
3.2464578 0.8848635 -0.76885337
3.3328619 0.89532787 -0.76818174
3.4249682 0.89415014 -0.76754743
3.5226438 0.89290118 -0.76687479
3.6264107 0.8915745 -0.76616025
3.7368543 0.89016187 -0.76539934
3.8531313 0.91642088 -0.76441401
3.9789498 0.91576517 -0.76354015
4.1137304 0.9150629 -0.76260412
2.8287103 0.91776204 -0.77756113
2.8734007 0.92151904 -0.77121103
2.9402435 0.92117125 -0.77074736
3.0105081 0.92080563 -0.77025986
3.0844629 0.92042094 -0.7697469
3.1618323 0.93127388 -0.76913559
3.2434816 0.94272929 -0.76849049
3.3303928 0.94293666 -0.76788324
3.4224045 0.94315618 -0.76724035
3.5199788 0.94338888 -0.76655859
3.6236355 0.94363612 -0.76583433
3.7339625 0.94389927 -0.76506352
3.850868 0.95805675 -0.76415426
3.9765821 0.95883274 -0.76327169
4.1104221 0.97452545 -0.76223367
2.8280525 0.96832198 -0.77781814
2.8708804 0.97232336 -0.77089167
2.9376435 0.973243 -0.77042019
3.0078225 0.97420961 -0.76992452
3.0816875 0.97522712 -0.76940286
3.1589608 0.98755378 -0.76878238
3.2411017 0.98899734 -0.76820022
3.3279254 0.99052322 -0.76758486
3.4198422 0.99213845 -0.76693332
3.5173147 0.99385148 -0.76624256
3.6208622 0.99567121 -0.76550859
3.7310708 0.99760801 -0.76472747
3.8486047 0.99967355 -0.76389444
3.9742153 1.00188 -0.76300329
4.1079421 1.0191005 -0.76195598
2.8273945 1.0189302 -0.77807528
2.8683615 1.0231041 -0.77057248
2.9350445 1.0252898 -0.77009308
3.0051391 1.0275875 -0.76958925
3.0789132 1.0300058 -0.76905894
3.1566641 1.0325544 -0.76849997
3.2387233 1.0352442 -0.76791012
3.3254588 1.0380874 -0.7672866
3.4172809 1.0410972 -0.76662654
3.514652 1.044289 -0.7659266
3.6180902 1.0476797 -0.76518309
3.7281804 1.0512882 -0.7643916
3.8455863 1.0551367 -0.76354766
3.9710612 1.0592496 -0.76264554
4.105463 1.0636541 -0.7616784
2.826736 1.069581 -0.77833277
2.8658438 1.0738577 -0.77025342
2.9329669 1.0669075 -0.7698316
3.0029931 1.0702688 -0.76932114
3.076695 1.0738066 -0.76878399
3.1543691 1.0775352 -0.76821762
3.236346 1.0814703 -0.76762015
3.322993 1.0856293 -0.76698852
3.414721 1.0900323 -0.76631981
3.5119908 1.0947016 -0.76561087
3.615319 1.0996615 -0.76485753
3.7252917 1.1049403 -0.76405603
3.8425694 1.1105698 -0.76320112
3.9679055 1.1165861 -0.7622875
4.1021595 1.1230301 -0.76130861
2.8260763 1.1202803 -0.77859044
2.8633273 1.1245877 -0.76993454
2.9303703 1.1189046 -0.7695049
3.0003119 1.1235945 -0.76898623
3.0739236 1.1285303 -0.76844031
3.1520751 1.122496 -0.76793551
3.2339694 1.1276751 -0.76733029
3.320529 1.133149 -0.76669055
3.4121625 1.138944 -0.76601332
3.5093305 1.1450889 -0.76529521
3.6125503 1.1516167 -0.76453239
3.7224038 1.1585637 -0.76372045
3.8395543 1.1659726 -0.76285481
3.9655399 1.1595681 -0.76201892
4.0996819 1.1675402 -0.76103103
2.8254166 1.1710221 -0.77884823
2.861315 1.1651525 -0.76967949
2.9277747 1.1708769 -0.76917827
2.9976318 1.1768938 -0.76865143
3.0711534 1.1832263 -0.76809698
3.1492088 1.1786679 -0.76758289
3.2315943 1.1738589 -0.76704055
3.3180654 1.1806464 -0.76639277
3.409605 1.1878322 -0.76570696
3.5066719 1.1954514 -0.76497984
3.6097822 1.2035453 -0.7642073
3.7195182 1.2121593 -0.76338518
3.8372936 1.2075057 -0.76259506
3.9631751 1.2025299 -0.76175058
4.0972033 1.212028 -0.76075321
2.8247559 1.2218126 -0.7791065
2.8588006 1.2158355 -0.76936102
2.9251807 1.2228209 -0.76885188
2.9954891 1.2195125 -0.76838374
3.0689387 1.2269611 -0.76782233
3.1463437 1.2348108 -0.76723063
3.228627 1.2315582 -0.76667857
3.3156037 1.2281219 -0.7660951
3.4070489 1.2366966 -0.76540077
3.5040145 1.2457892 -0.76466447
3.6070158 1.2554475 -0.7638824
3.717355 1.2523381 -0.76313394
3.8350346 1.2490201 -0.7623356
3.9600236 1.2597854 -0.76139283
4.0939007 1.2713164 -0.76038313
2.8240948 1.2726458 -0.77936476
2.8562877 1.2664946 -0.76904249
2.9225883 1.2747401 -0.76852566
2.9928117 1.2727597 -0.7680493
3.0667248 1.2706773 -0.76754785
3.1440532 1.2797022 -0.76694888
3.2256608 1.2892268 -0.76631695
3.3131428 1.2755749 -0.76579756
3.4044938 1.2855377 -0.76509464
3.5013585 1.2961017 -0.76434934
3.6042507 1.3073229 -0.76355779
3.7151923 1.2924992 -0.76288265
3.8320234 1.3043474 -0.76198965
3.9568744 1.3170087 -0.76103532
4.0914249 1.3157611 -0.76010567
2.8235655 1.3133463 -0.77957165
2.8537762 1.3171266 -0.76872432
2.9205155 1.3162558 -0.76826483
2.9901359 1.3259809 -0.7677151
3.0639589 1.3252947 -0.76720494
3.1417637 1.3245738 -0.76666731
3.223289 1.3353372 -0.76602757
3.3100686 1.334859 -0.76542586
3.4019401 1.3343551 -0.76478869
3.4987037 1.3463893 -0.76403445
3.6021779 1.3462131 -0.76331425
3.712311 1.346024 -0.76254779
3.8290138 1.3596444 -0.76164389
3.9545133 1.359906 -0.76076734
4.0889502 1.3601841 -0.75982827
2.8229032 1.3642651 -0.77983046
2.8512654 1.3677353 -0.76840621
2.9179256 1.3681252 -0.76793891
2.9879961 1.3685369 -0.76744771
3.0611939 1.3798852 -0.76686215
3.1389029 1.380634 -0.76631546
3.2209191 1.3814267 -0.76573861
3.3069956 1.3941107 -0.7650544
3.3993881 1.3831494 -0.76448303
3.4960504 1.396652 -0.76371968
3.6001058 1.3850867 -0.76307088
3.70943 1.3995204 -0.76221305
3.8260064 1.4149115 -0.76129842
3.952153 1.4027833 -0.76049936
4.0856524 1.4193858 -0.75945872
2.8222404 1.4152262 -0.7800895
2.8487563 1.418317 -0.76808822
2.9153364 1.41997 -0.76761305
2.985323 1.4217061 -0.76711375
3.0589833 1.4235351 -0.76658809
3.1360443 1.4366654 -0.76596385
3.2185495 1.4274952 -0.76544958
3.3045387 1.4414862 -0.76475739
3.3968368 1.4319199 -0.76417738
3.4933982 1.4468901 -0.76340497
3.5973439 1.4368961 -0.76274663
3.7065513 1.4529886 -0.76187861
3.8237517 1.4563429 -0.76103938
3.9490077 1.4599258 -0.76014233
4.0831804 1.4637659 -0.75918168
2.8215771 1.4662366 -0.78034878
2.8462486 1.4688751 -0.76777053
2.9127491 1.4717869 -0.76728761
2.9826508 1.4748493 -0.76677996
3.0562215 1.4780705 -0.76624572
3.1337576 1.4814675 -0.76568276
3.2138402 1.4901191 -0.75887585
3.263941 1.5074939 -0.75467294
3.3074071 1.4953076 -0.75791103
3.3742762 1.5090976 -0.74683022
3.3942864 1.480667 -0.76387185
3.4325452 1.5099835 -0.7489208
3.4914281 1.5016756 -0.75486207
3.5556891 1.5118555 -0.75333977
3.6032631 1.4967064 -0.75578308
3.6936672 1.5068829 -0.75032586
3.7586982 1.5148567 -0.74693149
3.8214974 1.4977555 -0.76078045
3.8317525 1.5158786 -0.73530108
3.9083016 1.5171278 -0.75172848
3.94665 1.5027629 -0.75987476
3.9876521 1.5182414 -0.73970437
4.0709372 1.5195962 -0.75694329
4.0815334 1.4933407 -0.75899696
4.1574345 1.5208144 -0.74449962
2.8208094 1.5172437 -0.76042211
2.8466365 1.5002151 -0.75798696
2.8890996 1.5018507 -0.75016016
2.9596729 1.5029269 -0.75323176
3.0185499 1.5038249 -0.75579417
3.0643399 1.5044545 -0.74674767
3.1117826 1.5051768 -0.74863178
3.160809 1.5059234 -0.75057799
2.8201449 1.568346 -0.76067269
2.8194797 1.6194916 -0.76092362
2.8188136 1.6706862 -0.76117468
2.8181472 1.7219241 -0.76142597
2.8176134 1.762949 -0.76162708
2.8170793 1.8040035 -0.76182842
3.210856 1.5063962 -0.70616382
3.2632794 1.5071895 -0.70744473
3.3175445 1.5080106 -0.7087695
3.3735757 1.5087824 -0.6979146
3.4320035 1.5097426 -0.71156496
3.4922311 1.5105748 -0.70035923
3.5551143 1.5116055 -0.71457177
3.6200283 1.5125057 -0.70299214
3.6876912 1.5135279 -0.7043857
3.7580652 1.5145911 -0.70583606
3.8313155 1.5156978 -0.70734471
3.9076233 1.5168505 -0.70891738
3.9869499 1.5179584 -0.69598418
4.0702095 1.5193069 -0.71226716
4.1566792 1.5205185 -0.69883251
2.82055 1.5171273 -0.70995659
2.8480043 1.5009694 -0.70751703
2.8885624 1.5015841 -0.70866209
2.9476161 1.502479 -0.71033025
3.0179715 1.5035453 -0.71231759
3.0638945 1.5042413 -0.71361417
3.1111732 1.5048878 -0.70372921
3.1603391 1.5057029 -0.71633804
2.8198855 1.5682299 -0.71018445
2.8192201 1.6193757 -0.7104125
2.8185542 1.6705707 -0.71064079
2.8178873 1.7218088 -0.71086925
2.8173537 1.7628338 -0.71105218
2.8168194 1.8038886 -0.71123523
3.1595569 1.5053357 -0.65928644
3.2102129 1.5060974 -0.65974873
3.2624526 1.5068092 -0.64842546
3.316864 1.507701 -0.66072327
3.372875 1.5084672 -0.64901268
3.4312823 1.5094216 -0.66176909
3.4914877 1.5102478 -0.64964342
3.5543473 1.5112718 -0.66289371
3.6192374 1.5121654 -0.65032262
3.687078 1.5132676 -0.66410673
3.7572205 1.514237 -0.65105635
3.8306608 1.5154268 -0.66541898
3.9067199 1.5164815 -0.6518513
3.9862475 1.5176753 -0.6522736
4.0692387 1.5189211 -0.65271538
4.1559238 1.5202225 -0.65317571
2.8202908 1.5170112 -0.65949041
2.8473492 1.5006415 -0.65643263
2.8878911 1.501251 -0.65680367
2.9555409 1.5022682 -0.65742165
3.0172484 1.503196 -0.65798521
3.0631526 1.5038865 -0.65840536
3.1105638 1.5045991 -0.65883809
2.8196263 1.568114 -0.65969563
2.8189607 1.6192601 -0.65990084
2.8182943 1.6704551 -0.6601063
2.8176277 1.7216934 -0.660312
2.8170936 1.7627186 -0.66047662
2.8165596 1.8037735 -0.66064137
3.1587746 1.5049686 -0.60225195
3.2095699 1.5057986 -0.61334586
3.2617915 1.5065055 -0.60122484
3.316184 1.5073915 -0.61269039
3.3721752 1.5081521 -0.60012424
3.4305613 1.5091007 -0.61198717
3.4907453 1.5099208 -0.5989421
3.5535812 1.5109385 -0.61123079
3.6184466 1.5118256 -0.59766883
3.6862619 1.5129209 -0.61041504
3.756377 1.5138832 -0.59629357
3.8297882 1.5150652 -0.60953265
3.9058166 1.5161124 -0.59480363
3.9855456 1.5173925 -0.60857505
4.068511 1.5186321 -0.60806441
4.1551685 1.5199268 -0.60753214
2.8200316 1.5168949 -0.60902381
2.8468251 1.5003791 -0.61557621
2.8872199 1.5009181 -0.60495949
2.9506037 1.5018963 -0.60959178
3.0166702 1.5029167 -0.61453193
3.0624108 1.5035313 -0.60321271
3.1099544 1.5043104 -0.61395836
2.8193669 1.5679981 -0.6092062
2.818701 1.6191442 -0.60938865
