# .PCD v0.7 - Point Cloud Data file format
VERSION 0.7
FIELDS x y z
SIZE 4 4 4
TYPE F F F
COUNT 1 1 1
WIDTH 1458
HEIGHT 1
VIEWPOINT 0 0 0 1 0 0 0
POINTS 1458
DATA ascii
3.0801396 -0.043522 -1.1087362
2.9410574 -2.2042544 -1.0001763
2.9432449 -2.1702588 -1.0016959
2.9468932 -2.1135645 -1.0042301
2.9505439 -2.0568295 -1.0067663
2.9534662 -2.011409 -1.0087966
2.9563911 -1.9659603 -1.010828
2.9593172 -1.9204838 -1.0128609
2.9629772 -1.8635972 -1.0154036
2.9666407 -1.8066695 -1.0179484
2.9695728 -1.7610948 -1.0199856
2.9725075 -1.715492 -1.0220239
2.9754434 -1.6698611 -1.0240637
2.9783816 -1.6242018 -1.0261047
2.9820566 -1.5670862 -1.0286577
2.9857345 -1.5099304 -1.0312126
2.9886792 -1.4641724 -1.033258
2.9916251 -1.418386 -1.0353047
2.9945734 -1.3725715 -1.0373526
2.9982605 -1.3152616 -1.0399143
3.0019512 -1.2579107 -1.042478
3.0049057 -1.2119968 -1.0445303
3.0078616 -1.1660545 -1.0465839
3.0108199 -1.1200838 -1.0486388
3.0137796 -1.0740844 -1.0506949
3.017482 -1.0165437 -1.053267
3.0211875 -0.95896137 -1.055841
3.0241539 -0.91286218 -1.0579017
3.0271223 -0.86673439 -1.0599636
3.030092 -0.82057792 -1.0620269
3.0330639 -0.77439284 -1.0640913
3.0367815 -0.71661961 -1.0666738
3.0405016 -0.65880454 -1.0692581
3.0434799 -0.61251885 -1.071327
3.0464599 -0.56620443 -1.0733972
3.0492694 -0.5215193 -1.0586932
3.0502045 -0.50874066 -1.0879037
3.0523908 -0.47257033 -1.0537144
3.0524433 -0.47394884 -1.0894617
3.0551198 -0.42991203 -1.0516369
3.0556662 -0.42337042 -1.083763
3.058342 -0.37935451 -1.0459311
3.0593514 -0.36554456 -1.0772487
3.0628636 -0.31054345 -1.0728803
3.0658553 -0.2640537 -1.0749547
3.0688484 -0.21753496 -1.0770302
3.0716846 -0.17316498 -1.0742257
3.0748167 -0.12404391 -1.0692377
3.0778151 -0.077450618 -1.0713129
3.0815654 -0.019166529 -1.0739089
3.0852919 0.039482713 -1.0645525
2.941107 -2.2006018 -0.95318174
2.9432919 -2.166641 -0.95468891
2.9466422 -2.1147151 -0.95935059
2.9501472 -2.0599558 -0.95706654
2.9535022 -2.007956 -0.96173143
2.956424 -1.9625552 -0.96374631
2.959347 -1.9171259 -0.9657625
2.9622717 -1.8716683 -0.96777976
2.9659305 -1.814806 -0.9703033
2.9695916 -1.7579029 -0.97282863
2.9725232 -1.7123477 -0.97485042
2.975456 -1.6667643 -0.9768734
2.9783912 -1.6211526 -0.97889769
2.9820623 -1.5640974 -0.98142982
2.9857361 -1.5070009 -0.98396373
2.9886775 -1.4612906 -0.98599231
2.9916208 -1.4155524 -0.98802233
2.9945655 -1.369786 -0.99005342
2.9975123 -1.3239911 -0.99208581
3.0011983 -1.2667062 -0.99462807
3.0048869 -1.2093799 -0.99717224
3.0078399 -1.1634859 -0.99920905
3.0107944 -1.1175635 -1.0012472
3.0137515 -1.0716126 -1.0032864
3.0174501 -1.0141325 -1.0058374
3.0212936 -0.95395893 -1.0013869
3.0241046 -0.9099859 -0.99858809
3.0270691 -0.86391908 -1.0006291
3.0300348 -0.81782359 -1.002671
3.0330029 -0.77169949 -1.0047144
3.0359724 -0.72554672 -1.006759
3.0396874 -0.66781408 -1.0093164
3.0434046 -0.61003959 -1.0118759
3.0463808 -0.56378651 -1.013925
3.0493419 -0.51703393 -1.0040894
3.052321 -0.4707357 -1.0061367
3.0553019 -0.42440867 -1.0081853
3.0590308 -0.36645788 -1.0107477
3.0627623 -0.30846509 -1.0133123
3.0654929 -0.26577416 -1.0112268
3.0665178 -0.25082621 -1.0277805
3.0687172 -0.21519004 -1.0055146
3.0687604 -0.21597072 -1.0293245
3.0717299 -0.16909462 -1.0194752
3.0747228 -0.12257999 -1.0215322
3.0777175 -0.076036364 -1.0235903
3.0814638 -0.017814577 -1.0261649
3.0852125 0.040449589 -1.0287414
3.0874641 0.075429946 -1.0302882
2.9411559 -2.1969564 -0.90628695
2.9433389 -2.1630313 -0.9077816
2.9462504 -2.1177745 -0.90977573
2.9498932 -2.0611632 -0.91227007
2.9535384 -2.0045109 -0.91476619
2.9564567 -1.959157 -0.9167645
2.9593768 -1.9137747 -0.91876411
2.9622984 -1.868365 -0.92076492
2.9659531 -1.8115616 -0.9232676
2.9696107 -1.7547178 -0.92577219
2.9725394 -1.7092099 -0.92777741
2.9754686 -1.6636741 -0.92978358
2.9784007 -1.6181102 -0.93179131
2.9820683 -1.5611145 -0.93430257
2.985738 -1.5040777 -0.93681562
2.9886761 -1.4584155 -0.93882763
2.9916153 -1.4120193 -0.9290663
2.994556 -1.3663127 -0.93107653
2.9974983 -1.3205776 -0.93308783
3.0011799 -1.263368 -0.93560421
3.0048633 -1.206117 -0.93812215
3.0078125 -1.1602833 -0.94013798
3.0107632 -1.1144211 -0.94215512
3.0137167 -1.0685307 -0.94417334
3.0166707 -1.0226117 -0.94619286
3.0201793 -0.96789926 -0.94563746
3.0240555 -0.90711689 -0.93942261
3.0270154 -0.86111069 -0.94144249
3.0299776 -0.81507587 -0.94346333
3.0329416 -0.76901275 -0.94548571
3.0359073 -0.72292101 -0.94750929
3.0396171 -0.66526461 -0.95004046
3.0433295 -0.60756654 -0.95257354
3.0463014 -0.56137466 -0.95460129
3.0492754 -0.51515412 -0.95663047
3.0522513 -0.46890497 -0.95866084
3.0552289 -0.42262706 -0.96069252
3.0589538 -0.36473781 -0.96323395
3.0626812 -0.30680656 -0.96577728
3.0656655 -0.26042801 -0.96781325
3.0686514 -0.21402061 -0.96985054
3.0716388 -0.16758436 -0.97188926
3.0746284 -0.12111923 -0.97392905
3.0775964 -0.074272752 -0.96407807
3.0776446 -0.074977607 -0.98786247
3.0798404 -0.039393455 -0.96560657
3.0816672 -0.011879891 -0.981107
3.0851076 0.041736513 -0.98107874
3.0873556 0.076679498 -0.98261273
3.8438675 -2.7651012 -0.9037267
3.6097677 -2.6379037 -0.86899614
3.7098837 -2.6446865 -0.86859751
2.9412048 -2.1933193 -0.85949141
2.9433851 -2.1594291 -0.86097378
2.9462945 -2.1142192 -0.86295152
2.9499333 -2.0576665 -0.86542517
2.9537251 -1.9982953 -0.8609817
2.9564977 -1.9549198 -0.85818267
2.959414 -1.9095964 -0.8601616
2.9623315 -1.8642457 -0.86214179
2.9657977 -1.8105545 -0.86742347
2.9693229 -1.7553842 -0.86353779
2.9725583 -1.7052975 -0.86908174
2.9754846 -1.6598213 -0.87106746
2.9784124 -1.6143167 -0.87305427
2.9813418 -1.568784 -0.87504238
2.985007 -1.5118275 -0.8775292
2.9886742 -1.4548302 -0.880018
2.9916091 -1.4084949 -0.87025672
2.9945462 -1.362848 -0.87224627
2.9974849 -1.317173 -0.87423682
3.0011611 -1.2600381 -0.87672698
3.0048399 -1.2028623 -0.87921894
3.0077853 -1.1570885 -0.88121402
3.0107322 -1.1112864 -0.88321006
3.0136809 -1.0654563 -0.88520759
3.0166316 -1.0195978 -0.8872062
3.0203226 -0.96223325 -0.88970625
3.0240159 -0.90482742 -0.89220828
3.026973 -0.85886967 -0.89421123
3.0299323 -0.81288332 -0.89621544
3.0328929 -0.76686883 -0.89822102
3.0358548 -0.72082555 -0.90022767
3.039561 -0.66323012 -0.90273786
3.0432694 -0.60559297 -0.90524995
3.0462382 -0.55944997 -0.90726101
3.0492094 -0.51327837 -0.90927327
3.0521817 -0.46707815 -0.91128683
3.0551562 -0.42084929 -0.91330159
3.0588768 -0.36302137 -0.91582191
3.0626004 -0.30515161 -0.91834402
3.0655813 -0.25882232 -0.92036331
3.0685642 -0.21246421 -0.92238379
3.0715485 -0.16607727 -0.92440546
3.0745349 -0.1196616 -0.9264282
3.0775237 -0.073217034 -0.92845273
3.0812616 -0.015119314 -0.93098474
3.0850024 0.043020695 -0.93351853
3.0872211 0.078237832 -0.92315936
3.087275 0.077615082 -0.94692016
3.8155775 -2.6518466 -0.86817658
3.4916499 -2.528933 -0.83712548
3.585201 -2.5326297 -0.83590704
3.6837788 -2.5365248 -0.83462292
3.7877986 -2.5406346 -0.83326793
3.8977249 -2.5449781 -0.83183593
3.2978692 -2.4261527 -0.80918175
3.3812702 -2.4270999 -0.80734289
3.4688878 -2.4280944 -0.80541086
2.9412901 -2.1869719 -0.7778343
2.9412534 -2.1896894 -0.81279492
2.9427409 -2.1644216 -0.77880812
2.9435842 -2.1530404 -0.80736852
2.9463487 -2.109786 -0.80456549
2.9492555 -2.0646067 -0.80652386
2.9527118 -2.0107062 -0.80593187
2.9565384 -1.9506931 -0.79974568
2.9594507 -1.9054286 -0.80170405
2.9623649 -1.8601365 -0.80366373
2.9652808 -1.8148165 -0.80562443
2.9689281 -1.758126 -0.80807722
2.9725783 -1.701395 -0.81053168
2.9755006 -1.6559775 -0.81249672
2.9784243 -1.6105325 -0.8144629
2.9813502 -1.5650592 -0.81643039
2.9850097 -1.5081768 -0.81889141
2.9886727 -1.4512537 -0.82135421
2.9916046 -1.4056826 -0.82332581
2.9945385 -1.3600836 -0.82529879
2.9974742 -1.314456 -0.82727289
3.0011463 -1.257381 -0.82974237
3.0048211 -1.2002648 -0.8322134
3.0077634 -1.1545391 -0.83419186
3.0107071 -1.1087852 -0.83617139
3.013653 -1.0630029 -0.83815223
3.0166004 -1.0171925 -0.84013426
3.0202873 -0.95988828 -0.84261352
3.023977 -0.90254289 -0.84509462
3.0269308 -0.85663337 -0.84708095
3.0298865 -0.81069553 -0.8490684
3.0328441 -0.76472938 -0.85105717
3.0358031 -0.71873474 -0.85304713
3.0395052 -0.66119999 -0.85553658
3.0432096 -0.60362369 -0.85802752
3.0461752 -0.55752945 -0.86002183
3.0491433 -0.51140666 -0.86201745
3.0521121 -0.46525526 -0.86401415
3.0550835 -0.41907531 -0.86601216
3.0588005 -0.36130863 -0.86851162
3.0625198 -0.30350021 -0.87101263
3.0654976 -0.25722 -0.87301499
3.0684767 -0.21091111 -0.87501854
3.0714586 -0.16457349 -0.87702334
3.0744417 -0.11820705 -0.87902945
3.0774269 -0.0718119 -0.88103682
3.081161 -0.013775945 -0.88354772
3.0848975 0.044302136 -0.88606048
3.087141 0.079170614 -0.88756913
3.5610507 -2.4291403 -0.8033787
3.6581271 -2.4302452 -0.80123937
3.7605155 -2.4314106 -0.79898322
3.8686643 -2.4326415 -0.79659998
3.1994791 -2.3330276 -0.78188097
3.2778881 -2.3317206 -0.77944839
3.3601339 -2.3303502 -0.77689689
3.4465039 -2.3289106 -0.77421725
3.5373173 -2.3273971 -0.77139986
3.6329255 -2.3258035 -0.76843363
3.0364008 -2.2486393 -0.75904012
3.1069939 -2.2454922 -0.75621879
3.1808553 -2.2421994 -0.75326693
2.9413145 -2.1851628 -0.75456005
3.2582159 -2.2387505 -0.75017512
2.9437394 -2.1469991 -0.74842411
2.9531891 -2.1678863 -0.73531222
3.0198984 -2.1630573 -0.73205197
2.9464028 -2.1053636 -0.74632376
2.9493155 -2.0593712 -0.73662555
2.9492955 -2.0611143 -0.75989765
2.9522197 -2.0142348 -0.73856062
2.9532959 -1.9985852 -0.75674832
2.9565711 -1.94732 -0.75311148
2.9594803 -1.9021029 -0.75505358
2.9623914 -1.8568573 -0.75699687
2.9653039 -1.8115845 -0.75894117
2.9689479 -1.7549529 -0.7613734
2.9725935 -1.6982806 -0.7638073
2.9755132 -1.6529105 -0.76575601
2.9784338 -1.6075125 -0.76770574
2.9813561 -1.5620868 -0.76965684
2.9850125 -1.5052636 -0.77209723
2.9886711 -1.4483998 -0.77453947
2.9916 -1.4028761 -0.77649462
2.9945309 -1.3573244 -0.77845114
2.9974632 -1.3117449 -0.78040862
3.0003977 -1.2661371 -0.78236747
3.0040686 -1.2090865 -0.7848177
3.0077412 -1.1519949 -0.78726971
3.0106823 -1.1062889 -0.78923273
3.0136247 -1.0605549 -0.79119706
3.0165687 -1.0147924 -0.79316247
3.0202525 -0.95754832 -0.79562104
3.0239377 -0.90026307 -0.7980814
3.0268886 -0.85440189 -0.80005109
3.0298412 -0.80851233 -0.80202198
3.0327954 -0.76259452 -0.80399406
3.0357513 -0.71664834 -0.80596745
3.0394492 -0.65917414 -0.80843592
3.0431497 -0.60165858 -0.81090605
3.0461128 -0.55561298 -0.81288385
3.0490768 -0.50953889 -0.81486255
3.0520432 -0.46343625 -0.81684256
3.0550113 -0.41730511 -0.81882393
3.0587239 -0.35959956 -0.82130224
3.0624387 -0.30185232 -0.82378232
3.065414 -0.25562117 -0.82576799
3.0683899 -0.20936131 -0.82775486
3.0713685 -0.16307288 -0.82974291
3.0743484 -0.11675566 -0.83173221
3.0777726 -0.063386098 -0.83165765
3.0813634 -0.0078642666 -0.83877563
3.0847929 0.045580775 -0.83870423
3.087034 0.080412149 -0.84020019
3.7337186 -2.3241234 -0.76530647
3.8401332 -2.3223512 -0.76200581
3.3393326 -2.2351344 -0.7469334
3.4244838 -2.2313383 -0.74353039
3.513979 -2.2273486 -0.73995364
3.6081588 -2.2231498 -0.73618972
3.7074015 -2.2187254 -0.73222345
3.0896032 -2.1580114 -0.72864538
3.1625106 -2.1527336 -0.72508228
3.2388463 -2.147208 -0.7213515
2.94716 -2.0914476 -0.71193373
3.3188581 -2.1414158 -0.71744114
3.4028187 -2.1353383 -0.71333802
2.9493356 -2.0576301 -0.71337819
3.0036306 -2.0786943 -0.70544827
3.0724657 -2.0718045 -0.70147336
3.1444395 -2.0646005 -0.69731724
2.9522479 -2.0116587 -0.70368958
2.9558773 -1.9552412 -0.70609474
2.959517 -1.8979549 -0.69687605
2.9595022 -1.8996124 -0.72012728
2.9624243 -1.8527682 -0.69879884
2.9624107 -1.8544025 -0.72205824
2.9653273 -1.8083594 -0.71235663
2.9686749 -1.7564709 -0.71690375
2.972173 -1.7018108 -0.7145642
2.9755256 -1.6498499 -0.71911442
2.9784429 -1.6044991 -0.7210477
2.9813628 -1.5591204 -0.72298229
2.9847221 -1.5070431 -0.72754133
2.9882312 -1.4522257 -0.72520077
2.9915957 -1.4000754 -0.72976291
2.9945228 -1.3545713 -0.7317028
2.9974523 -1.3090394 -0.73364395
3.0003839 -1.2634791 -0.73558646
3.004051 -1.2064883 -0.73801607
3.0077198 -1.1494563 -0.7404474
3.0106573 -1.1037984 -0.74239397
3.013597 -1.0581119 -0.74434167
3.0165379 -1.0123973 -0.74629062
3.0202172 -0.95521331 -0.74872863
3.0238988 -0.89798814 -0.75116825
3.0268466 -0.85217512 -0.75312138
3.0297959 -0.80633384 -0.75507575
3.0327468 -0.76046419 -0.7570312
3.0357001 -0.71456635 -0.75898802
3.0741963 -0.684232 -0.73544967
3.0393939 -0.65715265 -0.76143575
3.0903687 -0.65135777 -0.74083406
3.0430901 -0.59969771 -0.76388514
3.1121676 -0.6070466 -0.74809158
3.1956244 -0.6166898 -0.74689132
3.0469036 -0.55379999 -0.76609302
3.1286957 -0.5734489 -0.75359428
3.2130244 -0.58222961 -0.75253737
3.2247291 -0.5590483 -0.75633526
3.3144009 -0.56770217 -0.75532168
3.0490108 -0.50767505 -0.76780844
3.0519738 -0.46162114 -0.76977175
3.0549388 -0.41553873 -0.77173644
3.0586474 -0.35789412 -0.77419388
3.0623593 -0.30020797 -0.77665329
3.0653303 -0.25402576 -0.77862209
3.0683036 -0.20781492 -0.78059232
3.0712786 -0.16157544 -0.78256357
3.0742552 -0.11530745 -0.78453606
3.0779788 -0.057430521 -0.78700358
3.0817049 0.00048822165 -0.78947264
3.0846879 0.046856701 -0.79144943
3.0876729 0.093253911 -0.79342747
3.8121266 -2.2140567 -0.72803807
3.9228008 -2.2091227 -0.72361493
3.4910259 -2.128953 -0.70902705
3.5838122 -2.1222365 -0.70449245
3.6815429 -2.1151619 -0.69971621
3.2197719 -2.0570602 -0.69296712
3.2987039 -2.0491602 -0.68840927
3.7846234 -2.1077001 -0.69467837
2.9875934 -1.9955246 -0.67922091
3.0555758 -1.9868441 -0.6746943
3.3814995 -2.0408731 -0.68362832
3.4684496 -2.0321701 -0.67860729
3.559875 -2.0230196 -0.67332804
2.9566276 -1.9414344 -0.67173576
3.1266353 -1.9777703 -0.66996288
3.2009859 -1.9682767 -0.66501224
3.2788613 -1.9583328 -0.65982687
2.9597785 -1.8919868 -0.6660741
2.9717813 -1.9135227 -0.6533618
3.0389285 -1.9031029 -0.64829957
2.9624441 -1.8503201 -0.66395885
2.9653504 -1.8051407 -0.66587067
2.9680181 -1.7634392 -0.66375279
2.9689815 -1.7494178 -0.67987639
2.9719007 -1.7026074 -0.65855831
2.9718928 -1.7041624 -0.681795
2.9755378 -1.6467955 -0.67257142
2.9784524 -1.6014919 -0.67448843
2.9813693 -1.5561604 -0.6764068
2.9842873 -1.5108008 -0.67832625
2.9879379 -1.4540613 -0.68072742
2.991591 -1.3972809 -0.68313015
2.9945154 -1.3518243 -0.68505371
2.9974418 -1.3063395 -0.68697852
3.00037 -1.2608269 -0.68890452
3.0040329 -1.2038954 -0.69131374
3.0076981 -1.1469231 -0.69372451
3.0165253 -1.1003655 -0.69025159
3.0209906 -1.0597746 -0.69246531
3.0666864 -1.0453118 -0.67704153
3.0165069 -1.0100076 -0.69951844
3.088263 -1.0037103 -0.68386006
3.1765521 -1.0132368 -0.68269944
3.0234556 -0.95368057 -0.70281982
3.1046226 -0.97216803 -0.68902981
3.1156247 -0.95095539 -0.69250661
3.1996138 -0.96998578 -0.6897909
3.2112753 -0.948116 -0.69337678
3.3005877 -0.96766615 -0.69059992
3.3129714 -0.94509721 -0.69430196
3.0378315 -0.89891684 -0.70813274
3.137872 -0.90806067 -0.69953698
3.2289271 -0.9150126 -0.6988045
3.3317206 -0.91092557 -0.69990706
3.0268149 -0.85050797 -0.71798658
3.0731316 -0.8592881 -0.70714378
3.1660533 -0.85372561 -0.70844257
3.2527313 -0.87036937 -0.70612437
3.3506467 -0.87643182 -0.70556504
3.3633835 -0.85321832 -0.7093727
3.4479442 -0.89474297 -0.70302296
3.46141 -0.87091547 -0.70693302
3.0297618 -0.80470276 -0.71992844
3.1002119 -0.80565542 -0.71593094
3.1889522 -0.80957526 -0.71567869
3.276865 -0.82510859 -0.71354544
3.3826714 -0.81806648 -0.71513873
3.4818075 -0.83482367 -0.71285564
3.6087978 -0.81514031 -0.71658379
3.0371547 -0.75966382 -0.72311401
3.1277087 -0.75119787 -0.72485334
3.2063198 -0.77608967 -0.72116709
3.2180028 -0.753564 -0.72485894
3.3013351 -0.7792176 -0.72106975
3.3199012 -0.744398 -0.72677886
3.402143 -0.78257835 -0.72095978
3.4152486 -0.7586925 -0.72487766
3.5024056 -0.7983765 -0.71883667
3.5162733 -0.7738381 -0.72286332
3.6309042 -0.77720279 -0.72281218
3.0581977 -0.71675336 -0.73012316
3.1500468 -0.7069571 -0.7321018
3.2356868 -0.71946788 -0.73044729
3.3386855 -0.70916986 -0.73255491
3.4350975 -0.72251749 -0.73081148
3.5372822 -0.73666424 -0.72896367
3.6532373 -0.73887575 -0.72910452
3.6682801 -0.71306103 -0.73334277
3.7850916 -0.72789645 -0.73144627
3.172683 -0.66212511 -0.73944712
3.2595358 -0.67348599 -0.73798382
3.3576472 -0.67360967 -0.73838556
3.3704076 -0.64967847 -0.74230933
3.4551389 -0.68599147 -0.73680282
3.4686301 -0.66140354 -0.74083591
3.558501 -0.69911879 -0.73512483
3.572789 -0.6738373 -0.73927349
3.6910775 -0.6739369 -0.73976582
3.8093288 -0.68760014 -0.7380653
3.2837141 -0.62686813 -0.74562436
3.3897305 -0.6134398 -0.74825114
3.4890652 -0.62416005 -0.74694502
3.5944371 -0.6355319 -0.74555945
3.7141128 -0.63440502 -0.74625611
3.8420806 -0.63314664 -0.74700958
3.979162 -0.63185573 -0.74780756
3.0467424 -0.54077518 -0.73111802
3.3020582 -0.59150016 -0.75142121
3.4092381 -0.57685459 -0.75424969
3.509701 -0.58654988 -0.7531141
3.6163051 -0.59683788 -0.75190914
3.7296309 -0.6077745 -0.75062817
3.0489457 -0.50581533 -0.72085464
3.0519052 -0.4598099 -0.72280139
3.0548666 -0.41377607 -0.72474939
3.0585716 -0.35619238 -0.7271862
3.0622792 -0.29856712 -0.72962475
3.0652475 -0.25243372 -0.73157704
3.0682173 -0.2062718 -0.73353046
3.0711887 -0.1600813 -0.73548508
3.0741625 -0.11386226 -0.73744088
3.0778818 -0.056046695 -0.73988748
3.081604 0.0018106103 -0.7423358
3.0845838 0.048129827 -0.74429584
3.0875657 0.094477862 -0.74625713
3.8935065 -2.099818 -0.68935704
3.6561298 -2.0133851 -0.66776979
3.3605185 -1.947906 -0.6543898
3.7576077 -2.0032279 -0.66190988
3.8647456 -1.9925044 -0.65572315
3.1090927 -1.8922143 -0.64300972
3.4462399 -1.9369605 -0.64868218
3.5363362 -1.9254563 -0.64268303
3.6311514 -1.9133494 -0.63636982
2.9631894 -1.8365927 -0.62964261
3.1824818 -1.8808255 -0.63747692
3.2593236 -1.868901 -0.63168359
3.3398681 -1.8564022 -0.62561148
2.9653683 -1.8027313 -0.63106769
3.0225186 -1.8205547 -0.6222809
3.0918055 -1.8079047 -0.61644942
3.1642537 -1.794678 -0.61035186
3.4243884 -1.843286 -0.61923933
2.9682791 -1.7567689 -0.62137973
3.0063403 -1.7391748 -0.59663033
2.9719133 -1.7002785 -0.62375247
2.9755504 -1.6437478 -0.62612689
2.9782197 -1.6020145 -0.62400126
2.979188 -1.58792 -0.64010704
2.9813769 -1.5524688 -0.61832285
2.9813735 -1.5539441 -0.64153683
2.993402 -1.503366 -0.62262702
2.9935608 -1.4532886 -0.63059777
3.0378439 -1.4465261 -0.61205304
3.1405017 -1.4387448 -0.61375231
2.9915867 -1.3944921 -0.63659614
3.059155 -1.4076858 -0.61842406
3.1575038 -1.4086607 -0.61868918
2.996304 -1.3497717 -0.63895369
3.0806983 -1.3684225 -0.62486434
3.0915878 -1.3485763 -0.62811977
3.180429 -1.3680966 -0.62534583
3.1978166 -1.3373296 -0.6303947
3.2867696 -1.3677845 -0.6258533
3.2991066 -1.3466117 -0.62932932
3.0129113 -1.3021941 -0.64214861
3.1136067 -1.3084457 -0.63470227
3.2154021 -1.3062124 -0.63550091
3.3177865 -1.3145545 -0.63459229
3.0149934 -1.2596725 -0.64997697
3.0548909 -1.2414007 -0.64528912
3.1358695 -1.2678707 -0.64135772
3.1471248 -1.2473578 -0.6447224
3.2391188 -1.264248 -0.64238727
3.336643 -1.2821951 -0.63990498
3.3493323 -1.2604177 -0.6434803
3.4604814 -1.2675967 -0.64279747
3.0040195 -1.2019544 -0.65634888
3.0709734 -1.2112393 -0.65023446
3.1641586 -1.2163129 -0.64981467
3.2631629 -1.2217031 -0.64936888
3.3685479 -1.2274407 -0.64889425
3.4809525 -1.2335604 -0.64838809
3.0139494 -1.1469913 -0.66037625
3.0871961 -1.1808155 -0.65522277
3.1035964 -1.1500576 -0.66026586
3.1871262 -1.1744537 -0.65668082
3.2045467 -1.1427045 -0.6618886
3.2875419 -1.1785654 -0.65644777
3.3060393 -1.1458349 -0.66181874
3.3879483 -1.1941482 -0.65436006
3.4075811 -1.160455 -0.65989161
3.5155804 -1.1759877 -0.65784478
3.6380537 -1.18065 -0.65761745
3.6530406 -1.1565382 -0.66157997
3.0295846 -1.1168461 -0.66531712
3.1257055 -1.1085949 -0.66706425
3.2221653 -1.1105943 -0.66715562
3.3247547 -1.1127205 -0.6672529
3.4340761 -1.1149862 -0.66735649
3.5436978 -1.1292393 -0.66552341
3.5579331 -1.1055721 -0.66941082
3.6681437 -1.1322393 -0.66557336
3.1424704 -1.0771532 -0.67221951
3.1537466 -1.056006 -0.67568684
3.2459254 -1.0672901 -0.67425883
3.3436456 -1.0792936 -0.67273825
3.3563588 -1.0567981 -0.67642975
3.4609587 -1.0688516 -0.67493069
3.5795014 -1.0697124 -0.67530113
3.691035 -1.0954111 -0.67162585
3.834393 -1.0845146 -0.67400372
3.2700145 -1.023387 -0.68146014
3.3756104 -1.0227334 -0.68201971
3.4882386 -1.0220363 -0.68261659
3.6012886 -1.0334888 -0.68125105
3.6159618 -1.0090935 -0.68525815
3.7219567 -1.0456622 -0.67980164
3.8509743 -1.058732 -0.67824322
3.8676913 -1.0327387 -0.68251741
3.2882905 -0.99007845 -0.68692374
3.3950462 -0.98834294 -0.6876632
3.4081275 -0.96519572 -0.69146156
3.5159233 -0.97452527 -0.69041669
3.6381969 -0.97212523 -0.69133037
3.7454541 -1.0078585 -0.68601441
3.7612848 -0.98238897 -0.69020009
3.8930428 -0.99332041 -0.68899918
3.4279397 -0.93013948 -0.69721437
3.5440228 -0.92630261 -0.69833368
3.6682265 -0.92219734 -0.69953132
3.7852843 -0.94377702 -0.69654566
3.9273121 -0.94003558 -0.69776106
3.5725465 -0.87735254 -0.70637006
3.6910412 -0.88426548 -0.70576185
3.817714 -0.89160234 -0.70512021
3.9533715 -0.89951646 -0.7044239
3.9709387 -0.8722018 -0.70891535
3.5942092 -0.84017617 -0.71247351
3.7064097 -0.85871381 -0.70995891
3.7218988 -0.83296138 -0.71418881
3.8506708 -0.83857948 -0.71383405
3.9886529 -0.84465718 -0.71344459
3.7453778 -0.7939254 -0.72060072
3.8841679 -0.7846877 -0.72269082
4.0065184 -0.81687969 -0.71801221
3.7691052 -0.75447589 -0.72708058
3.9096353 -0.74371386 -0.72942454
3.9354551 -0.70217323 -0.73625147
3.9615624 -0.66017044 -0.74315417
3.0490174 -0.50138628 -0.667081
3.0518191 -0.45755145 -0.66423428
3.0547769 -0.4115783 -0.66616166
3.0584764 -0.35407043 -0.66857266
3.0621796 -0.29652122 -0.67098534
3.0651436 -0.25044864 -0.67291689
3.068109 -0.20434766 -0.67484957
3.0710769 -0.15821822 -0.6767835
3.0740469 -0.11206028 -0.67871857
3.0777609 -0.054321185 -0.68113923
3.0814779 0.0034595132 -0.6835615
3.0844538 0.049717337 -0.68550086
3.0874317 0.09600392 -0.68744129
3.7310662 -1.9005911 -0.62971693
3.8365042 -1.8871284 -0.6226964
3.9479346 -1.8728995 -0.61527693
3.5131869 -1.8295062 -0.61254472
3.6065969 -1.8150103 -0.60550243
3.2400842 -1.7808332 -0.60396957
3.3195395 -1.7663267 -0.59728229
3.4028864 -1.7511098 -0.59026754
3.7049878 -1.799742 -0.59808469
2.9726524 -1.6866601 -0.58946729
3.0747683 -1.7248144 -0.5902732
3.1462948 -1.7098038 -0.58362794
3.2211354 -1.6940978 -0.57667494
3.4904172 -1.7351291 -0.58290058
2.9755592 -1.6414659 -0.59135473
3.0156758 -1.6596158 -0.57750732
3.0314248 -1.6317503 -0.58208019
3.1170895 -1.6589661 -0.57804692
3.2195415 -1.6681592 -0.57699925
3.2314382 -1.6483834 -0.580248
3.322614 -1.6881082 -0.57421517
3.3416243 -1.6575267 -0.57924151
3.4595194 -1.6673498 -0.57815832
2.9784689 -1.5962443 -0.59324348
3.047344 -1.6035826 -0.58670253
3.1451888 -1.6107504 -0.58596355
3.255506 -1.6083736 -0.5868206
3.367275 -1.6162648 -0.58602339
3.4731848 -1.6461051 -0.58165216
3.4938858 -1.6139216 -0.58694482
2.9806521 -1.5623109 -0.59466076
2.9858077 -1.5413632 -0.59649694
3.0688002 -1.5656171 -0.59293264
3.0850687 -1.5368314 -0.59765637
3.1737301 -1.5617754 -0.59400481
3.2798533 -1.5678992 -0.59346962
3.2921691 -1.547426 -0.59683287
3.3932955 -1.5744069 -0.59290332
3.521832 -1.5704744 -0.59408987
3.6528144 -1.5776131 -0.59349668
2.9960825 -1.5226378 -0.59956861
3.1015153 -1.5077291 -0.60243207
3.2027876 -1.511909 -0.60219163
3.3108158 -1.5164273 -0.60192513
3.4196954 -1.5319405 -0.5998832
3.4397359 -1.4997025 -0.60518193
3.5502 -1.5263712 -0.60134274
3.6756232 -1.5433893 -0.59912843
3.6986706 -1.5088072 -0.60481906
3.1236875 -1.4684963 -0.60887015
3.2263517 -1.4714694 -0.60883093
3.2382693 -1.4510179 -0.61218852
3.3296385 -1.485136 -0.60706532
3.3486829 -1.4534731 -0.61226606
3.4600217 -1.4670691 -0.61054552
3.5789998 -1.4815977 -0.60870606
3.7220218 -1.4737689 -0.61058468
3.2623792 -1.4096415 -0.61898148
3.3743782 -1.4107511 -0.61928344
3.4805079 -1.4341149 -0.61596197
3.4943006 -1.4119279 -0.6196087
3.6082404 -1.4361377 -0.61618203
3.7535703 -1.4264307 -0.61837435
3.885314 -1.4530511 -0.61463428
3.9023867 -1.4283626 -0.61869955
3.4004452 -1.3674128 -0.62640202
3.515193 -1.3783154 -0.6251328
3.6304524 -1.4016054 -0.6218611
3.6454134 -1.3783462 -0.62568617
3.7775476 -1.3904529 -0.62429458
3.7937038 -1.3662105 -0.62828374
3.9282811 -1.3909178 -0.62486523
3.4268906 -1.3234441 -0.63362408
3.536294 -1.3443666 -0.63071191
3.5505028 -1.321507 -0.63446873
3.6757245 -1.3312223 -0.63343585
3.8182008 -1.3294542 -0.63433224
3.9632902 -1.3402917 -0.63320124
3.4469664 -1.2900662 -0.63910675
3.5720313 -1.2868707 -0.64016092
3.7142069 -1.2713897 -0.6432749
3.842963 -1.2922983 -0.64044625
3.8596511 -1.2672579 -0.64456683
3.989917 -1.3017876 -0.63954145
3.5937781 -1.2518831 -0.64591092
3.6084235 -1.2283202 -0.64978313
3.7376609 -1.2349217 -0.64927143
3.8764768 -1.2420118 -0.64872122
3.6231823 -1.2045766 -0.65368533
3.7614262 -1.1979693 -0.65534782
3.893441 -1.2165575 -0.65290976
3.9105449 -1.190892 -0.65713304
3.7854452 -1.1606222 -0.66148895
3.8016295 -1.135457 -0.665627
3.9364836 -1.1519651 -0.66353774
3.8179452 -1.1100888 -0.66979849
3.9715545 -1.0993357 -0.67219716
3.9982274 -1.0593078 -0.67878318
3.0486438 -0.50375581 -0.61081427
3.0517333 -0.45529866 -0.60581261
3.0546875 -0.40938592 -0.60771948
3.0583825 -0.35195377 -0.61010474
3.0620797 -0.29448035 -0.61249161
3.0650394 -0.24846849 -0.61440247
3.0680017 -0.20242833 -0.61631471
3.0709653 -0.15635972 -0.61822796
3.0739307 -0.11026274 -0.62014234
3.0776405 -0.052599981 -0.62253726
3.0813522 0.0051042438 -0.62493372
3.0843246 0.051300943 -0.62685227
3.0872982 0.097526193 -0.62877208
3.8087678 -1.783637 -0.59026062
3.9183924 -1.7666249 -0.58199584
3.5824556 -1.7183251 -0.57515419
3.7064047 -1.7117672 -0.57203382
3.4459543 -1.6884389 -0.57469016
3.578717 -1.6887949 -0.57520133
3.5933099 -1.6668987 -0.57880449
3.7220249 -1.6891792 -0.57575321
3.7377698 -1.6664116 -0.57950222
3.8687351 -1.7013538 -0.57441318
3.8942266 -1.6658838 -0.58025777
3.6154237 -1.6337173 -0.58426458
3.7616382 -1.6318953 -0.58518565
3.9200728 -1.629921 -0.58618373
3.6377656 -1.6001935 -0.58978105
3.7938917 -1.5852549 -0.59286553
3.9550164 -1.5812986 -0.59419549
3.8266695 -1.5378556 -0.60067034
3.9815938 -1.5443182 -0.60028911
3.8599846 -1.4896796 -0.60860306
3.0487161 -0.49933714 -0.55730182
3.0516653 -0.45350087 -0.55919123
3.054616 -0.4076364 -0.56108165
3.0583067 -0.35026464 -0.5634464
3.062 -0.29285169 -0.56581283
3.0649569 -0.24688835 -0.56770736
3.0679157 -0.20089668 -0.56960309
3.0708764 -0.15487666 -0.57149988
3.0738385 -0.10882832 -0.57339787
3.077544 -0.051226482 -0.57577217
3.0848553 0.0066981018 -0.57895231
3.1919627 -0.007981956 -0.56633097
3.0912428 0.049245209 -0.5854103
3.1165376 0.067407906 -0.57590407
3.2159166 0.041582435 -0.57279122
3.087218 0.098437607 -0.59364557
3.1336455 0.10399392 -0.58067137
3.2402086 0.09184742 -0.57934278
3.0602896 -0.48702836 -0.51347709
3.186054 -0.49688846 -0.50312853
3.0618467 -0.45653057 -0.51851737
3.0935237 -0.44286445 -0.50990093
3.2040386 -0.46218675 -0.50765395
3.0545623 -0.40632656 -0.52616525
3.1104946 -0.4089323 -0.51432508
3.2283037 -0.41537163 -0.51375961
3.3555129 -0.42232469 -0.51314908
3.05825 -0.34900004 -0.52851462
3.1333814 -0.3631714 -0.52029133
3.150744 -0.32845613 -0.52481741
3.2529151 -0.36788863 -0.5199523
3.3820567 -0.37298501 -0.51958609
3.0619402 -0.29163235 -0.53086573
3.1683075 -0.29333916 -0.52939594
3.2778802 -0.31972334 -0.52623403
3.408998 -0.32290763 -0.52611941
3.077033 -0.24579243 -0.53533453
3.191998 -0.24597101 -0.53557181
3.2968297 -0.28316486 -0.53100199
3.3095844 -0.25855702 -0.5342114
3.4363453 -0.27207592 -0.53275114
3.5808079 -0.27339414 -0.53290796
3.0937669 -0.21116647 -0.53984767
3.1050241 -0.18787357 -0.54288369
3.216022 -0.19793618 -0.54183447
3.3289025 -0.22128618 -0.53907228
3.464107 -0.22047265 -0.53948355
3.6109035 -0.21958929 -0.53993022
3.1220636 -0.15261595 -0.54747927
3.240387 -0.1492205 -0.548186
3.3484097 -0.1836513 -0.5439806
3.3615413 -0.15831538 -0.54728484
3.4922945 -0.16808017 -0.54631895
3.6414795 -0.16492607 -0.54706448
3.1450431 -0.10506724 -0.55367672
3.2650993 -0.099809363 -0.55462825
3.3814344 -0.11993633 -0.55229032
3.5209155 -0.11488019 -0.55325961
3.6647174 -0.1233808 -0.55248666
3.1683404 -0.056860551 -0.55996007
3.2901671 -0.049687803 -0.56116301
3.4015243 -0.081176788 -0.55734539
3.4150505 -0.055080026 -0.56074888
3.5499814 -0.060853988 -0.56030822
3.6882687 -0.081276059 -0.55798191
3.8465223 -0.088739082 -0.55737573
3.3091941 -0.011644214 -0.56612313
3.4355438 -0.015542567 -0.56590545
3.5720644 -0.019807279 -0.56566334
3.7200966 -0.024374545 -0.56540829
3.8724122 -0.044300318 -0.56317782
3.3284516 0.026860505 -0.57114333
3.4562428 0.024392724 -0.57111371
3.4701822 0.051285177 -0.57462108
3.5944364 0.021777302 -0.57108867
3.744293 0.018883497 -0.5710541
3.898597 0.00064375997 -0.56904602
3.9162533 0.030948699 -0.57300282
3.3544419 0.078826666 -0.57791859
3.4842269 0.078382254 -0.57815504
3.6246603 0.077955514 -0.57841796
3.7606006 0.048038304 -0.57485914
3.7770429 0.077433854 -0.5786956
3.9340611 0.061514497 -0.5769937
3.4983792 0.10568634 -0.58171606
3.3099821 -0.50696456 -0.5021075
3.4510348 -0.50541675 -0.50262743
3.597178 -0.51674044 -0.50149554
3.7564018 -0.52907759 -0.50026238
3.9305453 -0.54257059 -0.49891356
3.3293591 -0.47094306 -0.50680655
3.4791007 -0.45523512 -0.50917619
3.6276202 -0.46448225 -0.50831813
3.7811897 -0.48830569 -0.5055877
3.7978992 -0.46082196 -0.50917739
3.9667742 -0.48559821 -0.50635844
3.5004196 -0.4171173 -0.51415068
3.6507571 -0.42476523 -0.51350331
3.8147485 -0.43310779 -0.51279712
3.9943428 -0.44224411 -0.51202381
3.5220132 -0.37850803 -0.5191893
3.6742051 -0.38451388 -0.5187583
3.8317399 -0.4051604 -0.51644737
3.848875 -0.37697667 -0.52012855
4.0223179 -0.39825082 -0.51777256
3.5438325 -0.33949891 -0.52428043
3.5585303 -0.31322223 -0.52770984
3.7058935 -0.33011767 -0.52586007
3.8748693 -0.33422107 -0.52571297
3.7381041 -0.27482936 -0.53307867
3.9011602 -0.29097763 -0.5313611
3.7625947 -0.23279347 -0.53856713
3.9278305 -0.24711259 -0.5370906
3.7874241 -0.19017544 -0.54413152
3.9639084 -0.18777816 -0.54484111
3.8209927 -0.13255821 -0.55165434
3.9913607 -0.14262904 -0.55073857
4.019217 -0.096816525 -0.55672276
4.0474019 -0.050462767 -0.5627777
3.1162109 0.043702155 0.23719886
3.0824213 0.074555248 0.23438939
3.0853364 0.11988017 0.23276809
3.0889826 0.17657647 0.23074001
3.2933278 0.17886299 0.2162849
3.3406568 0.16032377 0.21889824
3.1008465 0.23814869 0.22132844
3.1594121 0.23131651 0.20889077
3.2027633 0.21433651 0.21128443
3.2473834 0.19685942 0.2137481
3.0955806 0.27848297 0.21580482
3.1140645 -0.36717945 0.2988649
3.1564312 -0.39259478 0.30252787
3.0627208 -0.31948361 0.29375833
3.060539 -0.26294369 0.29138771
3.2918684 -0.25498724 0.28139535
3.3393965 -0.28018412 0.28500712
3.0634379 -0.21787047 0.28978902
3.2009437 -0.20678405 0.27448577
3.2457376 -0.23053131 0.27788982
3.0663383 -0.17277007 0.28818929
3.1151402 -0.16129592 0.26796541
3.157429 -0.18371513 0.27117908
3.0706286 -0.12796192 0.27543968
3.4913278 -0.12913013 0.26179799
3.5450053 -0.1538617 0.26531807
3.0728929 -0.071534678 0.27335861
3.3400295 -0.059420571 0.25187626
3.3889146 -0.081943959 0.25508204
3.4393234 -0.10516937 0.25838768
3.0765264 -0.015030891 0.27135023
3.246562 -0.0163562 0.24574691
3.2926002 -0.037567794 0.24876595
3.0794356 0.030204028 0.26974237
3.1584229 0.024253309 0.23996699
3.2018557 0.0042420924 0.2428152
3.71664 0.013049215 0.23965836
3.7777193 -0.010875851 0.24303085
3.0823464 0.075466275 0.26813349
3.5451629 0.080217808 0.23019013
3.6004579 0.058558494 0.23324329
3.6575863 0.036181092 0.23639762
3.085691 0.12760943 0.26853147
3.4397309 0.1215162 0.22436863
3.4916143 0.10119307 0.22723341
3.0891993 0.18188506 0.26209947
3.3894355 0.14121705 0.22159159
4.0432687 0.15230048 0.21759531
3.0925481 0.23410022 0.26249492
3.8402846 0.21786433 0.20848033
3.9055498 0.19678366 0.21141109
3.9731679 0.17494294 0.21444747
3.0954671 0.279486 0.26088166
3.7163379 0.25789934 0.20291451
3.7772515 0.23822409 0.20564985
3.0705669 -0.75102055 0.35662052
3.0316029 -0.71015978 0.35194734
3.3381217 -0.7247963 0.35173178
3.0344806 -0.66540325 0.35037324
3.244077 -0.6617862 0.3426114
3.2903941 -0.692819 0.34710324
3.0373604 -0.62061989 0.34879825
3.1554284 -0.6023916 0.33401433
3.1991074 -0.63165665 0.33825031
3.0409629 -0.56460148 0.3468281
3.0717247 -0.54631007 0.32589674
3.1129847 -0.57395422 0.32989815
3.4384902 -0.5618012 0.32691455
3.4907348 -0.59314251 0.33143157
3.0445828 -0.50899774 0.33368915
3.3878567 -0.53142625 0.32253674
3.0474696 -0.46410847 0.3321071
3.2911332 -0.47340202 0.31417409
3.3387606 -0.50197363 0.31829193
3.7171943 -0.48047134 0.31371674
3.0503583 -0.41919217 0.330524
3.2224681 -0.43221033 0.3082374
3.6004064 -0.41855705 0.30484179
3.6578271 -0.44899839 0.30920535
3.0532484 -0.37424877 0.32894
3.5448375 -0.38909745 0.30061904
3.0568638 -0.31803006 0.3269586
3.4389079 -0.33293945 0.29256922
3.4910324 -0.36057287 0.29653022
3.9752355 -0.3520869 0.29353145
3.0604815 -0.26177174 0.32497585
3.3883867 -0.30615607 0.28872997
3.8415618 -0.29049775 0.28476545
3.9072087 -0.32074407 0.2890704
3.0633781 -0.21673349 0.32338849
3.7169249 -0.23307224 0.27659208
3.7781715 -0.26129138 0.28060851
3.0662758 -0.17166799 0.32180017
3.6004381 -0.17940193 0.2689532
3.6577137 -0.2057911 0.27270916
3.069176 -0.12657532 0.32021093
3.072803 -0.070169747 0.31822291
3.9742055 -0.087840438 0.25387996
4.0445237 -0.1153843 0.25776261
3.0761986 -0.017596781 0.31262958
3.8409295 -0.035635591 0.24652106
3.9063845 -0.061274588 0.25013518
3.0793629 0.03114903 0.30342805
3.0822716 0.076376081 0.30183062
3.0859096 0.13294992 0.29983246
3.0888221 0.17823628 0.29823297
4.1159906 0.12881112 0.22086087
3.0974078 0.23971212 0.31141263
3.1329937 0.22962904 0.29929024
3.2081065 0.21793637 0.3283962
3.237144 0.22142646 0.30693746
3.0953538 0.28048694 0.30586424
3.097542 0.31450802 0.30466524
3.0294118 -0.74216902 0.38652405
3.3873239 -0.75776201 0.35650346
3.8427913 -0.80434 0.36187014
3.0315564 -0.70813996 0.39647225
3.7174649 -0.72915697 0.35103452
3.7790451 -0.76609874 0.35635865
3.034431 -0.66342938 0.39491323
3.6579418 -0.69344932 0.34588817
3.0373213 -0.61917341 0.38222608
3.5446684 -0.62549722 0.33609465
3.6003747 -0.65891504 0.34091094
4.0469995 -0.65531588 0.33877939
3.040921 -0.56319809 0.38027003
3.9080122 -0.58163249 0.32821739
3.9762423 -0.61780453 0.3334024
3.0445232 -0.50718349 0.37831262
3.8421748 -0.54672927 0.32321429
3.0471611 -0.46593219 0.38059255
3.0481436 -0.45156488 0.36520475
3.7786074 -0.51302928 0.31838369
3.0495546 -0.42825824 0.38672057
3.0503085 -0.41790026 0.36402583
3.0531967 -0.37299156 0.36245319
3.0568092 -0.31681627 0.36048594
4.045774 -0.38458693 0.29815716
3.0604246 -0.26060146 0.35851732
3.0625949 -0.2268523 0.35733545
3.0744174 -0.067711234 0.39668795
3.0762708 -0.011444598 0.39455736
3.2042449 -0.014935017 0.38419971
3.092653 0.038379371 0.38658804
3.1472933 0.027293354 0.37718877
3.1754975 0.0063805282 0.3806608
3.3752425 0.04496336 0.373
3.0848629 0.078757495 0.38048831
3.3118389 0.088258982 0.36583668
3.3432219 0.066828787 0.36938235
3.0857301 0.13496462 0.37827766
3.2213297 0.15006417 0.35561112
3.2509105 0.12986454 0.35895312
3.281074 0.10926685 0.36236098
3.5301387 0.1341874 0.35681686
3.0893643 0.19147569 0.3763113
3.163851 0.18931431 0.34911722
3.1923149 0.16987711 0.35233304
3.4606256 0.17759827 0.34966436
3.4950171 0.15612119 0.35320303
3.0923004 0.23645532 0.36353439
3.1359224 0.20838654 0.34596181
3.3175488 0.20911282 0.337266
3.4269431 0.19863307 0.34619856
3.0952122 0.281735 0.36195552
3.0974267 0.31547153 0.34956533
3.0508981 -0.40326464 0.45271564
3.0713859 -0.42718786 0.45607862
3.0530598 -0.36964896 0.45155856
3.1992121 -0.36609676 0.44488785
3.0566649 -0.3135891 0.44962892
3.1283755 -0.30521828 0.43472436
3.1704447 -0.34137341 0.44076031
3.0605259 -0.25400546 0.44014829
3.0873501 -0.26996067 0.42883804
3.291507 -0.2621558 0.42647204
3.3383143 -0.29961681 0.43271011
3.0629325 -0.21657592 0.4388589
3.0639224 -0.20209582 0.42349562
3.2311213 -0.21382743 0.4184244
3.4902525 -0.22700204 0.41940853
3.0660498 -0.16764128 0.44460517
3.0660911 -0.16837168 0.42232981
3.1588001 -0.15594709 0.40878609
3.1872842 -0.17874327 0.4125821
3.4389615 -0.188971 0.41309443
3.6956379 -0.17382132 0.40919778
3.0745068 -0.1117588 0.42722487
3.1308529 -0.13358013 0.40506151
3.3408511 -0.11622469 0.40101656
3.3890705 -0.15197822 0.40695253
3.6379397 -0.13442197 0.40267918
3.0733047 -0.05551447 0.42958692
3.2634339 -0.058821946 0.39148614
3.2939086 -0.081418201 0.39523771
3.5456221 -0.071382031 0.3922492
3.5819092 -0.096160963 0.39634886
3.0762014 -0.010470212 0.42803314
3.2335515 -0.036665156 0.38780752
3.4927158 -0.035254598 0.38627198
3.0791001 0.034601182 0.42647833
3.4079199 0.022649229 0.37669182
3.4412749 -0.00012755394 0.38046023
3.082 0.079699785 0.42492262
3.640132 0.065496892 0.36813453
3.6784244 0.041583538 0.37207463
3.0856273 0.13611266 0.42297658
3.5660155 0.11178252 0.36050841
3.6026716 0.088891029 0.36428013
3.0892582 0.19256523 0.42102918
3.0921638 0.23775905 0.41947016
3.0950716 0.28298014 0.41791016
3.0972826 0.31667304 0.40555367
3.4854898 -0.61212909 0.48596278
3.0410666 -0.55397356 0.49344036
3.0555325 -0.58332348 0.48313001
3.2260981 -0.56932998 0.4798623
3.4172626 -0.55349326 0.47617361
3.4510188 -0.58250451 0.48101696
3.0443749 -0.50266439 0.48946646
3.1679773 -0.51593155 0.47092751
3.3841977 -0.52507651 0.4714295
3.6333773 -0.53576362 0.47203353
3.0472512 -0.45793617 0.48793682
3.0983193 -0.45193315 0.46021906
3.1257615 -0.47714543 0.46443766
3.3359313 -0.48359555 0.46450421
3.5409365 -0.46178079 0.45971382
3.5772703 -0.49085963 0.4645561
3.0501292 -0.4131811 0.4864063
3.2736964 -0.4301098 0.45557481
3.505374 -0.43331915 0.45497432
3.7532201 -0.42198557 0.451781
3.7942474 -0.45240629 0.4568316
3.0530088 -0.36839914 0.48487487
3.2285407 -0.39130211 0.44909593
3.4364665 -0.37817076 0.44579098
3.4705586 -0.40545538 0.4503344
3.7131164 -0.39224964 0.44684404
3.0566111 -0.31238249 0.48295912
3.3867209 -0.33835787 0.43916133
3.6355574 -0.33474174 0.43729618
3.6739049 -0.36317563 0.44201699
3.0602157 -0.25632653 0.48104224
3.5613401 -0.27971143 0.42815971
3.5980444 -0.306927 0.43267822
3.0631015 -0.21145037 0.47950754
3.5254173 -0.2530759 0.42373744
3.0659885 -0.16654721 0.47797188
3.735261 -0.20087852 0.41367432
3.0696006 -0.11037883 0.47605109
3.0729666 -0.057808921 0.47796541
3.073961 -0.043257594 0.46261951
3.0760858 -0.0088493526 0.48371774
3.0761318 -0.0094971657 0.46146253
3.079004 0.035851598 0.47105035
3.0819011 0.08090359 0.46950966
3.0855253 0.1372582 0.46758237
3.0891516 0.19365245 0.46565393
3.0920546 0.23879945 0.46410996
3.0949595 0.28397375 0.462565
3.0978665 0.32917535 0.46101931
3.0021241 -1.1549822 0.58900946
3.1028605 -1.1418155 0.58101279
3.0407264 -0.55667955 0.53565902
3.6911583 -0.58200717 0.47973403
3.7308424 -0.61376739 0.48502275
3.0435977 -0.5120284 0.5341453
3.0471888 -0.45618087 0.53225201
3.0500641 -0.41147166 0.53073639
3.0529406 -0.36673564 0.52921981
3.0565393 -0.31077644 0.52732283
3.0601399 -0.25477803 0.52542442
3.0630229 -0.20994794 0.52390462
3.0659072 -0.16509095 0.52238405
3.0695155 -0.10898036 0.52048182
3.0731261 -0.052830458 0.51857835
3.0760167 -0.007878989 0.51705444
3.0789089 0.037099481 0.51552969
3.0815537 0.078452468 0.5178355
3.0825512 0.093062609 0.50250947
3.0853977 0.13868695 0.52321225
3.0854483 0.13811597 0.50097877
3.0890458 0.19473737 0.51018572
3.0919459 0.23983783 0.50865686
3.0948474 0.2849654 0.50712687
3.0977514 0.33012021 0.50559622
2.9984062 -1.5364683 0.64926386
2.9801338 -1.4942713 0.64434105
3.0941873 -1.4871342 0.64032549
2.982964 -1.4502633 0.64287204
3.067435 -1.4526119 0.6345315
2.9956582 -1.3992999 0.63535416
3.041172 -1.4187205 0.62884355
3.1676965 -1.3993902 0.62490386
3.1962957 -1.4345412 0.63079661
2.989105 -1.3590324 0.63254535
3.1396363 -1.364902 0.61912227
3.3053787 -1.3783555 0.62061691
3.4557719 -1.3553827 0.61593562
2.9921737 -1.3077083 0.62712902
3.0985878 -1.3144498 0.61066437
3.2446966 -1.3074794 0.60875005
3.2747393 -1.3425686 0.6146251
3.4221864 -1.3181987 0.6097185
2.9957209 -1.2525423 0.62528348
3.0455203 -1.2492251 0.59973001
3.2152343 -1.2730675 0.60298842
3.3892846 -1.2817719 0.60362792
3.5837419 -1.291497 0.60434246
3.000232 -1.2070589 0.61740005
3.1579833 -1.2061988 0.59179258
3.1863351 -1.2393136 0.59733701
3.3254519 -1.2111003 0.59181172
3.3570466 -1.2460799 0.5976603
3.5121412 -1.2165647 0.59183306
3.5475595 -1.2536311 0.59802109
3.7215614 -1.2226942 0.59185708
3.0021133 -1.153136 0.62195784
3.1301634 -1.1737053 0.58635211
3.2944818 -1.1768124 0.58607876
3.4774628 -1.1802723 0.58577436
3.6824763 -1.184149 0.5854333
3.0298316 -1.1164831 0.62487781
3.0351632 -1.1199318 0.59252667
3.1266162 -1.1243107 0.60664523
3.2259085 -1.1301967 0.61021769
3.264118 -1.1431954 0.58045799
3.3318789 -1.136479 0.6140241
3.3363693 -1.1390514 0.59022927
3.4500968 -1.1458764 0.59345561
3.5720346 -1.1531917 0.59694004
3.7060065 -1.1625149 0.58740973
3.0469201 -0.73452687 0.62198317
3.0313389 -0.69810379 0.6177659
3.034188 -0.65361923 0.61627895
3.1388848 -0.67004991 0.61167419
3.0370495 -0.60910988 0.61479312
3.0959272 -0.60638541 0.60200989
3.1129458 -0.63160717 0.60583854
3.2459092 -0.6146512 0.6027106
3.040292 -0.55969954 0.59657782
3.0791104 -0.58146191 0.59822655
3.043525 -0.50976813 0.58938253
3.0471117 -0.4539921 0.58751237
3.049983 -0.40934002 0.58601528
3.052856 -0.36466125 0.58451718
3.0564499 -0.30877373 0.58264333
3.0600457 -0.25284708 0.58076817
3.0629246 -0.20807448 0.57926697
3.0658052 -0.163275 0.57776487
3.0694089 -0.10723649 0.57588589
3.073015 -0.051158771 0.57400572
3.0759015 -0.0062651336 0.57250047
3.0787899 0.038655519 0.57099432
3.0816805 0.083603084 0.56948715
3.0852957 0.13982695 0.5676021
3.0889137 0.19609037 0.56571567
3.0916545 0.23898214 0.56872052
3.0925889 0.25188494 0.54162949
3.0944474 0.28261161 0.57022333
3.0947635 0.28570789 0.54049039
3.0968823 0.32002097 0.56156802
3.0978873 0.33474374 0.54625124
3.0153587 -1.9095399 0.71321452
2.9773619 -1.8534536 0.70377457
3.0854971 -1.8332703 0.69977891
3.1127028 -1.8717372 0.70624769
2.9604006 -1.7984879 0.6982196
3.0587938 -1.7955132 0.69342959
3.1874425 -1.7920592 0.69220448
2.9632156 -1.7547061 0.69677114
3.0325787 -1.7584467 0.68719625
3.1588931 -1.753458 0.68571925
3.2963612 -1.748029 0.68411195
2.9777226 -1.7016373 0.68820387
3.1308825 -1.7155859 0.67935658
3.2657714 -1.7085547 0.6774869
3.4129927 -1.700881 0.67544627
2.9702563 -1.6458769 0.68223405
3.0899076 -1.6601849 0.67004895
3.235779 -1.6698511 0.67099118
3.3801415 -1.6605039 0.66867739
2.9730783 -1.6019931 0.68077886
3.049937 -1.606142 0.66096938
3.1919413 -1.6132805 0.66149688
3.3479538 -1.6209426 0.66204524
3.5028205 -1.6089625 0.65922809
3.5381877 -1.6502712 0.66614437
2.9759014 -1.5580835 0.6793229
3.023937 -1.5709884 0.65506339
3.1492133 -1.5581424 0.6522429
3.2854898 -1.5441685 0.64917481
3.3164096 -1.5821717 0.65554571
3.4681923 -1.5685182 0.65245634
3.672929 -1.5958054 0.65613419
2.9794331 -1.5031581 0.67750156
3.1214416 -1.5223048 0.64622819
3.2551758 -1.5069096 0.64292872
3.4342818 -1.5289109 0.64582473
3.5974023 -1.5121868 0.6421532
3.6347513 -1.5535376 0.64906698
3.8183546 -1.5370266 0.64533186
2.9829676 -1.4481952 0.67567909
3.2254498 -1.4703741 0.63680375
3.3685231 -1.4521065 0.63296521
3.4010656 -1.4901152 0.6393292
3.5608547 -1.4717238 0.63538778
3.7770245 -1.4937732 0.638111
2.9857967 -1.4041941 0.67422009
3.3366342 -1.4148607 0.62672907
3.5250833 -1.4321198 0.62876606
3.7366254 -1.4514947 0.63105291
3.9308972 -1.429136 0.62626171
3.9757805 -1.4733982 0.63363832
2.9886274 -1.3601668 0.67276007
3.4900634 -1.3933482 0.62228346
3.6584988 -1.3697326 0.61740333
3.6971269 -1.4101579 0.62415206
3.8870676 -1.3859117 0.61905813
2.9921689 -1.3050947 0.67093396
3.620713 -1.3301883 0.61080176
3.8442526 -1.3436887 0.61202145
2.9957125 -1.2499845 0.6691066
3.8024189 -1.3024335 0.60514605
4.0501409 -1.3148222 0.60605633
2.9985492 -1.2058654 0.66764361
3.7615323 -1.2621121 0.59842634
3.9581339 -1.2296181 0.59188408
4.0035825 -1.2717061 0.5988847
3.0013881 -1.1617203 0.66617984
3.8444006 -1.169534 0.60469609
3.9137573 -1.1885222 0.5850485
3.9971378 -1.1787 0.60902905
3.0137255 -1.1135375 0.66843402
3.1170666 -1.1183751 0.66208231
3.2176547 -1.1252699 0.65601873
3.3251772 -1.1326401 0.64953703
3.4403775 -1.1405365 0.64259243
3.5641077 -1.1490177 0.63513356
3.6973522 -1.158151 0.62710118
3.8381026 -1.1664953 0.63215685
3.0084858 -1.0506537 0.67347729
3.1237535 -1.0612373 0.6721307
3.0113294 -1.0064278 0.672014
3.0810323 -0.99177045 0.66156954
3.0979571 -1.0192909 0.66575348
3.2302146 -1.0193417 0.66525233
3.0141749 -0.96217543 0.67054993
3.0560436 -0.95113754 0.65539211
3.1844046 -0.94815934 0.65443826
3.2025476 -0.97635025 0.65872109
3.3342803 -0.95963323 0.65563309
3.3542812 -0.98927462 0.66013253
3.0207644 -0.90347332 0.66030061
3.1576326 -0.90655899 0.64811832
3.2950435 -0.90148264 0.64680582
3.3145361 -0.93037176 0.65119112
3.4560146 -0.91103321 0.64766085
3.0213046 -0.85196722 0.65590852
3.1226518 -0.85220408 0.63986069
3.266295 -0.85887647 0.64033812
3.4242406 -0.8662135 0.64086312
3.5870802 -0.85870773 0.63907754
3.0241566 -0.80761117 0.65443766
3.0885038 -0.79914224 0.63179952
3.2287591 -0.8032465 0.63189346
3.3930218 -0.82217789 0.63418424
3.5640907 -0.82791418 0.63441157
3.0274405 -0.75666946 0.65054762
3.0633965 -0.76012897 0.62587261
3.2011862 -0.76238322 0.6256904
3.362478 -0.7790938 0.62764978
3.530232 -0.78256291 0.62753981
3.7036977 -0.77060676 0.62502843
3.0308633 -0.70316792 0.65317518
3.1741753 -0.72235167 0.61961359
3.3226218 -0.72287446 0.61912304
3.4861033 -0.7234509 0.61858332
3.6791511 -0.73945105 0.62031418
3.0341516 -0.65215659 0.64928275
3.2837741 -0.66807759 0.61081201
3.4431632 -0.66591132 0.60986722
3.6310911 -0.67845047 0.61108387
3.6549513 -0.70873541 0.61566639
3.8548584 -0.70858288 0.61487854
3.0370116 -0.60768133 0.64780807
3.4116666 -0.62370402 0.6034739
3.6075628 -0.64858723 0.60656512
3.0398729 -0.56317949 0.64633238
3.0434523 -0.50751346 0.64448655
3.047034 -0.45180854 0.64263946
3.049902 -0.40721354 0.64116073
3.0527709 -0.36259186 0.6396811
3.0563598 -0.30677581 0.63783026
3.0599515 -0.25092077 0.63597822
3.0628266 -0.20620553 0.6344955
3.0657039 -0.1614635 0.63301194
3.0693026 -0.10549684 0.63115615
3.0729041 -0.049491048 0.62929904
3.0757868 -0.0046550632 0.62781227
3.0786717 0.040207773 0.62632465
3.0815582 0.085097581 0.62483615
3.0851688 0.14124909 0.62297416
3.0887818 0.19744003 0.62111104
3.0916741 0.24242425 0.61961931
3.0947297 0.28954053 0.6114043
3.0980291 0.3407464 0.60804129
3.2076218 -2.193337 0.76098061
3.050132 -2.1392183 0.75246561
3.1785681 -2.1504509 0.75376242
3.0239661 -2.0989623 0.74568474
3.1500683 -2.1083834 0.74668193
3.2873199 -2.1186373 0.74776751
2.9435999 -2.0564287 0.76118165
2.9982746 -2.0594363 0.73902667
3.1221077 -2.067111 0.73973548
3.2567816 -2.0754576 0.74050617
3.403784 -2.0845678 0.74134749
2.9472983 -1.9991965 0.75464422
2.9730453 -2.0206215 0.73248851
3.0812068 -2.0067377 0.72957397
3.1974773 -1.9916043 0.72640514
3.2268398 -2.0331211 0.73338675
3.3388479 -1.9967694 0.72659689
3.3709848 -2.0402207 0.73389691
3.4934947 -2.0024202 0.72680694
3.5288105 -2.0479937 0.73445553
2.950598 -1.9482636 0.74675554
3.0413101 -1.9478464 0.71966195
3.1686773 -1.9508827 0.71955717
3.3073549 -1.9541888 0.71944314
3.4589186 -1.9578016 0.71931839
3.625253 -1.9617667 0.71918166
2.9532676 -1.9064794 0.74974203
2.9540892 -1.8953009 0.72323585
3.140424 -1.9109342 0.71283925
3.2764857 -1.9124515 0.71243101
3.4250593 -1.914108 0.71198523
3.5879548 -1.9159241 0.71149641
3.7673469 -1.9179239 0.71095812
2.9566436 -1.8534422 0.75671846
2.9572544 -1.8457408 0.72705352
3.2462225 -1.8715332 0.70555657
3.3918946 -1.8713105 0.70480251
3.5514581 -1.8710666 0.70397651
3.726999 -1.8707981 0.70306784
3.9210439 -1.8705018 0.70206332
2.9604416 -1.7938349 0.76348191
2.9604208 -1.7961597 0.73087299
3.2165468 -1.8314099 0.69881558
3.3594036 -1.8293822 0.69776559
