# .PCD v0.7 - Point Cloud Data file format
VERSION 0.7
FIELDS x y z
SIZE 4 4 4
TYPE F F F
COUNT 1 1 1
WIDTH 1480
HEIGHT 1
VIEWPOINT 0 0 0 1 0 0 0
POINTS 1480
DATA ascii
3.3547361 0.098259747 -0.84338081
3.3996587 0.070842624 -0.85538936
3.4507475 0.094349682 -0.84390122
3.5033245 0.11869806 -0.83200645
3.5526476 0.090199828 -0.84445351
3.6085415 0.11524004 -0.83219659
3.6609948 0.085787296 -0.84504092
3.7205286 0.11155945 -0.83239895
3.7575362 0.091382384 -0.84118378
3.859715 0.097186089 -0.83715588
3.9262352 0.12464511 -0.82364523
3.9676065 0.10343897 -0.83284533
4.0098786 0.081770837 -0.8422457
4.0600052 0.12094754 -0.8235656
4.1043415 0.098944843 -0.83309209
2.7092597 0.14373118 -0.84911138
2.7530777 0.13423455 -0.83484489
2.8027022 0.14176643 -0.83072132
2.8565922 0.13279837 -0.83412778
2.9028416 0.14565444 -0.82760137
2.9490609 0.13698381 -0.83097315
2.9968066 0.12782103 -0.83455074
3.0479929 0.14126009 -0.82769066
3.0956318 0.14246261 -0.82650393
3.1541667 0.14606595 -0.82406843
3.2091665 0.13638049 -0.82778996
3.2543004 0.15955746 -0.81653267
3.2966137 0.13373286 -0.82784379
3.3592188 0.14872301 -0.82011843
3.4042816 0.12195313 -0.83182758
3.4555349 0.14631021 -0.81994635
3.5577688 0.14374894 -0.81976384
3.6138511 0.16972059 -0.80707616
3.6487074 0.1507169 -0.81535017
3.7052424 0.14956129 -0.81512928
3.7633631 0.14814687 -0.81500643
3.8012669 0.12809938 -0.82371974
3.8460841 0.16572893 -0.8058216
3.8857367 0.14540374 -0.81463945
3.9742036 0.16352695 -0.80512953
4.0166359 0.14246964 -0.81424695
4.1114664 0.16116762 -0.80438811
2.7071755 0.19000685 -0.84606302
2.7066631 0.23921168 -0.84597772
2.7061503 0.2884202 -0.84589225
2.7056377 0.33763313 -0.84580702
2.7051256 0.38684976 -0.8457216
2.7046123 0.43607032 -0.84563613
2.7040999 0.48529518 -0.84555084
2.7035871 0.53452396 -0.84546542
2.7030742 0.58375657 -0.84537995
2.7025614 0.63299334 -0.84529454
2.7020488 0.68223393 -0.84520924
2.7015364 0.73147869 -0.84512371
2.7009206 0.79057777 -0.84502113
2.700407 0.83983088 -0.84493572
2.699894 0.88908863 -0.84485036
2.6993814 0.93835008 -0.84476483
2.6989706 0.97776222 -0.84469646
3.4484751 -2.4330325 -0.81630415
3.5211556 -2.4219804 -0.8091808
3.5971344 -2.4104261 -0.80173415
3.6766422 -2.3983355 -0.79394168
3.7599373 -2.385673 -0.78578007
3.8472996 -2.3723986 -0.77722311
3.9390242 -2.3584614 -0.7682389
4.0354457 -2.3438101 -0.75879455
3.0119872 0.16498899 -0.81725925
3.5082834 0.17153513 -0.80764633
2.7144611 0.19240701 -0.80931896
2.7530785 0.18457586 -0.81169814
2.8060861 0.19064212 -0.80820364
2.8642318 0.18739778 -0.80892175
2.9060254 0.18912089 -0.80757344
2.9491229 0.19100505 -0.80613375
3.001982 0.19533718 -0.80343848
3.0515702 0.18699676 -0.80661368
3.1047781 0.20178688 -0.79910541
3.1580467 0.19347876 -0.80221665
3.2132072 0.18463749 -0.80554801
3.2584774 0.20856965 -0.7939418
3.3009181 0.18335712 -0.80496955
3.3488321 0.20796156 -0.79301918
3.3937616 0.18200189 -0.80435747
3.4603393 0.19845587 -0.79590625
3.5461466 0.20663363 -0.7910046
3.5796709 0.18835604 -0.79896247
3.6541557 0.20590669 -0.78990179
3.6898298 0.18703848 -0.79810262
3.7505782 0.21468401 -0.78458327
3.8072512 0.18563408 -0.79718596
3.8522322 0.22405511 -0.77892184
3.8920295 0.20430553 -0.78747302
3.9326775 0.18413407 -0.79620695
4.0021243 0.21364176 -0.78171551
4.066957 0.18252814 -0.7951588
4.1186204 0.2236557 -0.77556139
2.709137 0.24020231 -0.79789001
2.7530577 0.23488212 -0.7885679
2.7987735 0.23967201 -0.78575736
2.8532131 0.23985648 -0.78494829
2.9092188 0.23271668 -0.78748584
2.9573298 0.24757522 -0.78001392
3.0054336 0.24045336 -0.7826485
3.0551591 0.2328766 -0.78547072
3.1085176 0.24853182 -0.77756256
3.1619394 0.24104548 -0.780294
3.2036829 0.24112082 -0.77970403
3.2467546 0.24136662 -0.77901793
3.3052373 0.23315006 -0.78201765
3.3533001 0.25855869 -0.76969546
3.39837 0.23325181 -0.7807318
3.4493284 0.25941962 -0.768022
3.4971266 0.23335958 -0.77936834
3.55125 0.26033336 -0.7662459
3.6020331 0.23347408 -0.77791995
3.6596243 0.26130497 -0.76435727
3.6954215 0.2429561 -0.77231771
3.7750843 0.26234013 -0.76234519
3.8132589 0.24339581 -0.77054769
3.8983479 0.26344508 -0.7601971
3.9391465 0.24386561 -0.76865679
4.0520859 0.254498 -0.76226538
2.7053137 0.28833199 -0.79676437
2.7279799 0.26656288 -0.77433491
2.7900341 0.26744401 -0.77310413
2.8551221 0.2683683 -0.77181327
2.9234726 0.26933873 -0.77045757
2.995337 0.27035928 -0.7690323
3.0709937 0.27143353 -0.76753181
3.1507502 0.27256608 -0.76595002
3.2349496 0.27376151 -0.76428002
3.3239734 0.27502561 -0.76251435
3.4182489 0.27636421 -0.7606445
3.5182552 0.27778435 -0.75866109
3.6245308 0.27929342 -0.75655329
3.7376838 0.2809 -0.75430906
3.8584051 0.28261423 -0.75191474
3.9874792 0.2844469 -0.74935466
4.1258054 0.28641099 -0.74661124
2.7048016 0.3375473 -0.79667705
2.7042885 0.3867662 -0.79658967
2.7037759 0.4359895 -0.79650235
2.703263 0.48521638 -0.79641491
2.7027502 0.53444767 -0.79632753
2.7022376 0.58368254 -0.79624003
2.7017245 0.63292181 -0.79615259
2.7012117 0.68216491 -0.79606521
2.7006986 0.73141217 -0.79597777
2.700083 0.79051387 -0.79587287
2.6995699 0.8397696 -0.79578543
2.6990571 0.88902974 -0.79569799
2.698544 0.93829346 -0.79561055
2.6981332 0.97770751 -0.79554051
4.1369343 -2.3283889 -0.7488538
3.0373387 -2.3179369 -0.75616068
3.092845 -2.3060539 -0.74877405
3.1505446 -2.2937012 -0.74109542
3.2105715 -2.2808502 -0.73310721
3.2730684 -2.2674706 -0.72479022
2.7067697 0.28896296 -0.76788455
2.7502978 0.29427588 -0.76129574
2.8031392 0.30262691 -0.75675309
2.8461304 0.29677242 -0.75887281
2.8904908 0.29053992 -0.76114839
2.9493458 0.29917604 -0.75639445
3.0224545 0.30105776 -0.75455654
3.046525 0.28636718 -0.76099092
3.1122689 0.29542607 -0.75595099
3.1943252 0.29723382 -0.7540282
3.2668729 0.30708796 -0.74853206
3.2951689 0.29119951 -0.75546104
3.3577828 0.30933076 -0.74629116
3.3877392 0.29299855 -0.75340211
3.4541161 0.31170738 -0.74391681
3.4858828 0.2949059 -0.75121933
3.5563722 0.3142302 -0.74139637
3.5901196 0.29693168 -0.74890101
3.6651139 0.31691301 -0.73871607
3.7010343 0.29908741 -0.74643427
3.8001349 0.31057853 -0.7398321
3.9046915 0.32282352 -0.73281074
3.9456415 0.30384117 -0.74099404
4.037076 0.32608962 -0.72954774
4.0809479 0.30647081 -0.73798472
2.706625 0.34125376 -0.75391531
2.7530959 0.33560717 -0.74225467
2.8060694 0.34480667 -0.73732013
2.8491702 0.33961999 -0.73913133
2.8936458 0.33407605 -0.74108881
2.9526572 0.34365642 -0.73589861
3.0004952 0.33815694 -0.73779076
3.0502355 0.33227754 -0.73983228
3.0908041 0.35704648 -0.7279039
3.1416876 0.32764685 -0.74074465
3.1983268 0.34557652 -0.73174721
3.2550814 0.33964705 -0.73371845
3.2994735 0.34112167 -0.73244983
3.345324 0.34282398 -0.73105723
3.407634 0.33629143 -0.73323154
3.4589207 0.36418164 -0.71972549
3.5070291 0.33952224 -0.73042363
3.5615127 0.36832511 -0.71645552
3.5953732 0.35152185 -0.72373104
3.6502621 0.35355973 -0.72206372
3.7066689 0.35543358 -0.72045159
3.7434464 0.33778369 -0.72807759
3.844974 0.35050607 -0.72087723
3.952163 0.36406207 -0.71321803
3.9941583 0.3452822 -0.72129416
4.0879879 0.36883605 -0.70921588
2.7034519 0.38668263 -0.74745262
2.7558041 0.37711728 -0.72313255
2.7756703 0.3643471 -0.72873992
2.840102 0.36762488 -0.72637558
2.9077468 0.37106609 -0.72389334
2.9788523 0.37468338 -0.72128415
3.0536904 0.37849033 -0.71853793
3.1455364 0.37521827 -0.71882045
3.243207 0.37179852 -0.71909338
3.3327737 0.37588549 -0.71602261
3.4276426 0.3802141 -0.71276999
3.5282993 0.38480699 -0.70931906
3.6352899 0.38968897 -0.70565093
3.7868972 0.37742794 -0.70927131
3.9110613 0.38244259 -0.70531374
4.0439467 0.38780951 -0.70107794
2.7029388 0.43590832 -0.74736315
2.7024262 0.48513794 -0.74727386
2.7019136 0.53437138 -0.7471844
2.7014005 0.58360875 -0.74709493
2.7008874 0.63285041 -0.74700558
2.7003746 0.68209577 -0.74691617
2.6998615 0.7313453 -0.74682665
2.6992457 0.7904501 -0.74671942
2.6987326 0.83970845 -0.74663001
2.6982195 0.88897085 -0.74654049
2.6977065 0.93823695 -0.74645096
2.6972957 0.97765291 -0.74637944
2.7491622 1.0001678 -0.72193807
2.8169754 1.0007596 -0.72064233
2.888376 1.0013828 -0.71927798
2.9636557 1.0020394 -0.71783948
3.0413671 0.99051857 -0.7158637
3.1253102 0.99090111 -0.71424562
3.214216 0.99130619 -0.71253181
3.3085368 0.99173594 -0.71071368
3.408783 0.99219251 -0.7087813
3.5131109 0.9784826 -0.70619953
3.5179534 1.0068755 -0.70724761
3.6294377 0.99319839 -0.70452803
3.7512476 0.9937551 -0.70218086
3.8818102 0.9943521 -0.69966501
4.0221047 0.99499345 -0.69696164
2.7520125 1.0221937 -0.72276884
2.8214879 1.0346788 -0.72191906
2.893141 1.0362021 -0.720586
2.9686947 1.0378077 -0.71918041
3.0484765 1.0395037 -0.71769607
3.1328514 1.0412971 -0.71612626
3.2222276 1.0431969 -0.71446347
3.3149254 1.0318052 -0.71220136
3.3192017 1.0586207 -0.71319705
3.4155958 1.0335243 -0.71031159
3.420155 1.0611874 -0.71133572
3.5252461 1.0496382 -0.70882612
3.6398377 1.0520742 -0.70669413
3.7624049 1.0546803 -0.70441425
3.8938119 1.0574753 -0.70197034
4.035048 1.06048 -0.6993438
2.8260145 1.0687078 -0.72319996
2.8995206 1.0828204 -0.72233731
2.9754422 1.0857028 -0.72097594
3.0556233 1.0887467 -0.71953803
3.1404333 1.0919665 -0.71801728
3.2302842 1.0953774 -0.71640605
3.3256397 1.0989976 -0.71469611
3.4270217 1.1028464 -0.71287793
3.5350201 1.1069466 -0.71094143
3.6476793 1.096464 -0.70832741
3.7708194 1.1006238 -0.70609844
3.9028642 1.1050858 -0.70370919
4.0448122 1.1098828 -0.70114076
2.9043255 1.1179302 -0.7236563
2.9822242 1.1338439 -0.7227807
3.062808 1.1382499 -0.72138983
3.148056 1.1429111 -0.71991843
3.2383859 1.14785 -0.71835935
3.3342655 1.1530924 -0.71670449
3.4339156 1.1446705 -0.71442652
3.542388 1.1501476 -0.71253604
3.6555622 1.1410886 -0.70996928
3.7792816 1.1468196 -0.70779228
3.9089262 1.1369697 -0.70487362
3.9150088 1.1689622 -0.70604205
4.0546336 1.1595765 -0.70294833
2.9873326 1.1701045 -0.72414005
3.0700309 1.1880153 -0.72325128
3.1557209 1.1941336 -0.72183007
3.2465332 1.2006172 -0.72032374
3.3407657 1.193859 -0.71821803
3.4408433 1.1867024 -0.71598268
3.5497935 1.1935703 -0.71413893
3.6634791 1.1859027 -0.71161813
3.6687787 1.2159052 -0.71272194
3.7906263 1.2087519 -0.71006304
3.9211135 1.2010645 -0.70721465
4.0645013 1.2095046 -0.70476449
3.0754714 1.2255042 -0.72465366
3.1614952 1.2327247 -0.72327012
3.1653593 1.2585465 -0.72423387
3.2547259 1.2536813 -0.72229898
3.3472977 1.2348225 -0.71973896
3.4501269 1.2430243 -0.71806794
3.5597184 1.2517655 -0.7162869
3.6740956 1.2460036 -0.71382934
3.7991819 1.2554569 -0.71177566
3.9303131 1.2494379 -0.70898175
4.0744276 1.2597278 -0.70659137
3.1692336 1.2844386 -0.72520006
3.2608998 1.2936662 -0.72378755
3.3560488 1.2897053 -0.72177655
3.459466 1.299684 -0.72016567
3.5672009 1.295637 -0.7179063
3.6821053 1.291344 -0.71549761
3.8077841 1.3024194 -0.71349752
3.9395542 1.2980322 -0.71075684
4.0844026 1.3101903 -0.70842725
3.2671025 1.3338397 -0.72528297
3.3626442 1.3310666 -0.72331226
3.367058 1.3587487 -0.72434002
3.4688611 1.3566844 -0.72227597
3.5747213 1.3397353 -0.71953404
3.6928415 1.3521209 -0.71773374
3.8164248 1.3495901 -0.71522707
3.9488487 1.3469052 -0.71254212
4.0944381 1.3609533 -0.71027422
3.3737044 1.4004326 -0.7258876
3.4759429 1.3996496 -0.7238667
3.5848012 1.3988373 -0.72171569
3.7009368 1.3979478 -0.7194199
3.8251131 1.397022 -0.71696621
3.9581857 1.3960025 -0.71433562
4.1045213 1.4119585 -0.71212995
3.4830604 1.442831 -0.72546524
3.5924003 1.4433949 -0.7233603
3.7063572 1.4286306 -0.72054875
3.7117944 1.4594119 -0.72168124
3.8338401 1.444665 -0.71871299
3.9675763 1.4453826 -0.7161395
4.1112757 1.4461241 -0.71337301
3.4902065 1.4861865 -0.72707051
3.600039 1.4881849 -0.72501361
3.719986 1.5057836 -0.72338742
3.8426161 1.4925735 -0.72046965
3.9770107 1.4949911 -0.71795166
3.6077099 1.5331614 -0.72667372
3.6128447 1.5632708 -0.72778517
3.7282128 1.5523548 -0.72510093
3.854383 1.5568089 -0.72282493
3.9864993 1.5448864 -0.71977437
3.6418653 1.5817113 -0.70719457
3.6859691 1.581847 -0.71634287
3.7311831 1.5819862 -0.72572154
3.779016 1.5832684 -0.70776349
3.8266256 1.5834291 -0.71727878
3.8770421 1.5847657 -0.69872499
3.9272439 1.5849509 -0.70837837
3.9787958 1.5851409 -0.7182914
4.0334706 1.5865571 -0.69898182
4.0879478 1.5867748 -0.70904493
3.3382039 -2.2535348 -0.71612662
3.4061356 -2.239001 -0.70709103
2.8530304 -2.1907225 -0.68643874
3.4770474 -2.2238293 -0.69765908
3.5511401 -2.2079773 -0.68780416
3.6286321 -2.1913981 -0.67749703
2.9016337 -2.1772943 -0.67826116
3.7097633 -2.1740403 -0.66670591
2.7169397 0.40209961 -0.71216291
2.7362294 0.38970006 -0.7176075
2.7988493 0.39347219 -0.71504003
2.8537321 0.40403259 -0.70945424
2.8858731 0.3844161 -0.71804607
2.9445424 0.39506555 -0.71236902
3.0056746 0.40623307 -0.70642084
3.0294869 0.39247501 -0.71242994
3.0945082 0.40387094 -0.70632499
3.1624081 0.4158504 -0.69991356
3.202342 0.39407837 -0.70939296
3.2895589 0.39874184 -0.70608836
3.366796 0.41140318 -0.69923913
3.39694 0.39595199 -0.70594239
3.463743 0.41684341 -0.6954478
3.4957156 0.40097678 -0.70231777
3.6006463 0.40631485 -0.69846737
3.7123251 0.41199613 -0.69436926
3.7492316 0.39488792 -0.7017445
3.851125 0.40924549 -0.69378734
3.9587121 0.42453027 -0.68532813
4.000865 0.40636969 -0.69311726
2.7022696 0.43584347 -0.70804894
2.7480171 0.43457687 -0.7010811
2.8160841 0.44149029 -0.69940358
2.8951881 0.43033242 -0.69954967
2.9622152 0.44510698 -0.69546342
2.9822457 0.4197706 -0.70050818
3.050246 0.43344092 -0.69548947
3.1336064 0.44058883 -0.6930815
3.2198744 0.43559802 -0.69006926
3.2356169 0.44089484 -0.69369417
3.3186047 0.44497991 -0.6885255
3.3371966 0.42657542 -0.69265687
3.4281068 0.44369817 -0.68779308
3.5454307 0.44229865 -0.68701965
3.6513827 0.44844437 -0.68219131
3.6761551 0.42876279 -0.6871413
3.7864938 0.44748151 -0.68135774
3.9180689 0.45700681 -0.67781615
4.0615501 0.45271409 -0.67438406
4.095058 0.43146622 -0.68032485
2.7017567 0.48507476 -0.70795792
2.7483799 0.48509812 -0.70123178
2.8189898 0.49434853 -0.70023006
2.8903394 0.48159814 -0.69832921
2.9689124 0.49126387 -0.69718939
3.0503058 0.48960209 -0.6955393
3.1364863 0.48781598 -0.69379103
3.2299092 0.4985615 -0.69240576
3.3250241 0.48393703 -0.68996745
3.4307144 0.49524868 -0.68836641
3.5436296 0.50733364 -0.68665594
3.6592636 0.49147832 -0.68376881
3.7886362 0.50429058 -0.6817674
3.9247837 0.50258648 -0.67905039
4.0681353 0.48471904 -0.67554325
4.0747428 0.51683712 -0.67670637
2.7012436 0.53431046 -0.70786691
2.7554979 0.53860784 -0.703246
2.8250041 0.53829992 -0.70188105
2.8982828 0.53799832 -0.70044309
2.9756439 0.53765631 -0.69892442
3.0592327 0.54927611 -0.69776571
3.1440687 0.53693771 -0.69561917
3.2379882 0.54924226 -0.694287
3.3336244 0.536129 -0.6918993
3.4399145 0.54920447 -0.69035757
3.5510192 0.54917288 -0.68819493
3.6671782 0.53469455 -0.68535298
3.6724768 0.56362784 -0.68641365
3.7971599 0.54912484 -0.68340474
3.9339793 0.54911149 -0.6807428
4.0813742 0.54906964 -0.67787379
2.7007308 0.58354974 -0.70777583
2.7626553 0.59241283 -0.7052713
2.8310478 0.58246469 -0.70354033
2.9062741 0.5947274 -0.70256966
2.9824097 0.58428681 -0.70066822
3.0664184 0.59730923 -0.6995579
3.1516924 0.58632612 -0.69745725
3.2461128 0.60020709 -0.69617879
3.3422747 0.58862221 -0.69384229
3.4491689 0.60348177 -0.69236046
3.5584462 0.59122658 -0.68974179
3.6804583 0.60721171 -0.68801123
3.8057313 0.59420586 -0.6850512
3.9432166 0.59584892 -0.68244284
4.0913687 0.59764743 -0.6796332
2.7022014 0.63377142 -0.7082473
2.7684131 0.63569522 -0.7069006
2.8386459 0.63798463 -0.70562601
2.9127049 0.64037573 -0.70428103
2.9892116 0.63115728 -0.70242137
3.0736418 0.64559603 -0.70135933
3.1593575 0.63598323 -0.69930536
3.2542832 0.65145779 -0.69808114
3.3509746 0.64141905 -0.69579649
3.4561443 0.64439225 -0.69387019
3.5659037 0.63345325 -0.69129509
3.5708959 0.66172051 -0.69233489
3.6884735 0.65098143 -0.68961567
3.8172228 0.65464556 -0.6872586
3.952507 0.64285386 -0.68415272
4.1014109 0.64645588 -0.68140095
2.7085812 0.68654346 -0.71011055
2.77565 0.69009852 -0.70894849
2.8462868 0.69382083 -0.70772362
2.9175482 0.67475474 -0.7055698
2.9207883 0.69775093 -0.70643198
2.9977658 0.6900984 -0.70462608
3.080905 0.6941402 -0.70317084
3.1670642 0.68591177 -0.70116353
3.2624991 0.70299709 -0.69999427
3.3597255 0.6945225 -0.69776207
3.4631546 0.68550706 -0.69538742
3.5784147 0.70429647 -0.69390088
3.696533 0.69498515 -0.69122887
3.8258889 0.70022607 -0.68892324
3.9649649 0.70588696 -0.68644547
4.1115127 0.69555557 -0.6831792
2.715482 0.73987341 -0.71212178
2.7829273 0.74480498 -0.71100765
2.8524344 0.73874521 -0.70941126
2.9256642 0.73236084 -0.70772952
3.006372 0.74939525 -0.70684421
3.0882072 0.74294233 -0.70499212
3.1748145 0.73611367 -0.70303208
3.2686899 0.74183297 -0.70143569
3.2728329 0.76782131 -0.70240039
3.3663206 0.73454297 -0.69924337
3.3707337 0.76132691 -0.70023465
3.4725482 0.74060142 -0.69742054
3.5859656 0.74704874 -0.69547367
3.707335 0.7539711 -0.69339108
3.8346028 0.7460593 -0.69059712
3.9743624 0.75343359 -0.68817502
2.72242 0.79349375 -0.71414393
2.7887816 0.78881407 -0.71266425
2.8586125 0.78388989 -0.71110725
2.9338312 0.79033518 -0.70990282
3.0132983 0.79711974 -0.70862937
3.0955491 0.79200518 -0.70682311
3.1826079 0.78659189 -0.70491117
3.276988 0.79388332 -0.70336789
3.3773799 0.80165923 -0.70172757
3.4819992 0.79602766 -0.69946599
3.593555 0.79002297 -0.69705433
3.7154801 0.79844773 -0.69502145
3.8462863 0.80751073 -0.69284141
3.9838135 0.80125463 -0.68991441
2.7280006 0.83662391 -0.71577042
2.7946641 0.83303463 -0.71432883
2.864821 0.82925689 -0.71281165
2.9420466 0.84865153 -0.71208906
3.0185158 0.83306801 -0.70997405
3.022006 0.85711658 -0.7108736
3.1029296 0.84133029 -0.70866382
3.1904449 0.83734763 -0.70680058
3.2832456 0.83312476 -0.70482481
3.3862855 0.85569835 -0.7037279
3.4915066 0.851789 -0.70152372
3.6037271 0.84761977 -0.69917297
3.7236691 0.84316373 -0.69666064
3.8550982 0.85385621 -0.694534
3.993309 0.84929729 -0.69166201
2.7336075 0.87995625 -0.71740466
2.8020585 0.88862002 -0.71642119
2.8726261 0.88629222 -0.71495432
2.948658 0.89558089 -0.71384847
3.0272596 0.89331508 -0.7122277
3.1103499 0.89091992 -0.71051443
3.1983247 0.88838387 -0.70870048
3.2916279 0.88569438 -0.70677656
3.3929982 0.89642632 -0.70523572
3.4986732 0.89382088 -0.70307481
3.6139629 0.90557778 -0.70130491
3.734647 0.90310776 -0.69885796
3.8639591 0.90046096 -0.69623601
4.0028591 0.89761829 -0.69341964
2.7406549 0.93441904 -0.71945858
2.8094943 0.94451857 -0.71852529
2.8804765 0.94365704 -0.71710938
2.955303 0.94274879 -0.71561664
3.0342948 0.94178987 -0.71404094
3.1159399 0.92827845 -0.71190858
3.1196802 0.95327377 -0.71284145
3.2062483 0.93970263 -0.71061081
3.3000579 0.93856382 -0.70873952
3.3997443 0.93735397 -0.70675099
3.5058768 0.93606591 -0.70463389
3.6216803 0.94927335 -0.70291233
3.7429247 0.94830859 -0.70051485
3.8728597 0.94727492 -0.69794577
4.012454 0.94616413 -0.69518554
2.7463193 0.97819436 -0.72110939
2.8139775 0.97821975 -0.71979392
2.8852098 0.97824645 -0.7184087
2.9603078 0.97827494 -0.71694857
3.6438758 1.5833583 -0.667319
3.68804 1.5835145 -0.67597854
3.7333171 1.5836749 -0.68485618
3.7812181 1.5849805 -0.66633916
3.8288958 1.5851636 -0.6753267
3.8786044 1.5859377 -0.67037457
3.9296629 1.5867338 -0.66528004
3.9812922 1.5869482 -0.67462146
4.0351901 1.5877793 -0.6694541
4.0906129 1.5886345 -0.66413164
2.9520388 -2.1633728 -0.66978288
3.0043452 -2.1489296 -0.66098642
3.794796 -2.1558475 -0.65539575
3.8840189 -2.1367588 -0.6435284
2.7295029 -2.1330457 -0.6412943
2.7812085 -2.1200199 -0.63781333
2.8312714 -2.1179771 -0.6401965
2.8743861 -2.121417 -0.63011402
2.9284658 -2.1193564 -0.63234806
2.9843476 -2.1171827 -0.63475996
3.0325878 -2.1208096 -0.62399781
3.063153 -2.1253412 -0.64182705
3.1150973 -2.1183481 -0.64236122
3.1750715 -2.114146 -0.63276434
3.2498825 -2.1158049 -0.62532932
3.2904618 -2.1113706 -0.63374716
3.3498294 -2.1152861 -0.62177956
3.3930857 -2.1106997 -0.6304251
3.4795525 -2.1123581 -0.62243563
3.5704305 -2.1141415 -0.61394471
3.6199031 -2.1092172 -0.62308276
3.745662 -2.1083949 -0.61901194
3.8808944 -2.1075108 -0.61463428
3.9777489 -2.1167054 -0.63106143
4.0267129 -2.1065576 -0.60991395
4.0903854 -2.1008401 -0.62022644
3.6458895 1.5850079 -0.62738705
3.6908066 1.585742 -0.62206292
3.7361681 1.5859306 -0.63027036
3.7834234 1.5866954 -0.62485379
3.831929 1.587481 -0.6192863
3.8809516 1.5876997 -0.62778479
3.9320848 1.5885196 -0.62211561
3.984627 1.5893621 -0.61628193
4.0377736 1.5896158 -0.62509269
4.0932817 1.5904973 -0.61914653
2.7279813 -2.1393161 -0.59530896
2.7822578 -2.1412344 -0.58824652
2.8387115 -2.1432548 -0.58084267
2.8691957 -2.1397254 -0.58762819
2.9296727 -2.1417599 -0.57999921
2.978755 -2.1362367 -0.59055281
3.026814 -2.140182 -0.57905525
3.0617392 -2.1363654 -0.58630031
3.1312222 -2.1384664 -0.57808727
3.243257 -2.1366467 -0.57699865
3.2836707 -2.1324925 -0.58476979
3.3427927 -2.1368008 -0.57189804
3.3858674 -2.132513 -0.57985431
3.4489591 -2.1369653 -0.56645763
3.494967 -2.132535 -0.57460684
3.6116929 -2.1325583 -0.56899256
3.662384 -2.1278419 -0.57758701
3.7368743 -2.1325836 -0.56297159
3.7913275 -2.1276941 -0.57179081
3.930115 -2.1275351 -0.56555218
4.0799179 -2.1273634 -0.55881816
4.1453767 -2.121911 -0.56842667
2.7358482 -2.1338031 -0.6167869
2.7710845 -2.131206 -0.61218548
2.8279684 -2.1299911 -0.61231285
2.8813767 -2.1324174 -0.60410529
2.9255993 -2.128696 -0.61068547
2.981647 -2.1267066 -0.61265892
3.0298021 -2.1304927 -0.60152876
3.0900137 -2.1285086 -0.60329217
3.1264958 -2.1244628 -0.6109975
3.179764 -2.1284065 -0.59925622
3.2185221 -2.124234 -0.60714871
3.2666833 -2.1241026 -0.60516149
3.3164315 -2.1239905 -0.60305381
3.3677456 -2.1238508 -0.60093635
3.4208069 -2.1237311 -0.59868836
3.4755943 -2.1235814 -0.59642768
3.5323102 -2.1234536 -0.59402478
3.5909359 -2.1232939 -0.59160572
3.6410124 -2.1184716 -0.60047561
3.6925652 -2.1135077 -0.60960704
3.7145801 -2.1229854 -0.58643657
3.768348 -2.1179826 -0.59555262
3.8356087 -2.1177404 -0.59291446
3.9053407 -2.1174564 -0.59025645
3.9778512 -2.1171951 -0.58741236
4.0531316 -2.1168885 -0.58454269
4.1176877 -2.1113014 -0.59450853
3.6479058 1.5866594 -0.58738405
3.6935778 1.5879734 -0.56803095
3.7390242 1.5881903 -0.57556516
3.7856324 1.5884132 -0.58329201
3.8349686 1.5898027 -0.56312031
3.8840868 1.5900524 -0.57089108
3.9345121 1.5903087 -0.57886863
3.987133 1.5911765 -0.57244235
4.0412245 1.5920687 -0.56582791
4.0959563 1.5923636 -0.57407171
2.7453818 -2.1498508 -0.56989175
2.7781756 -2.1559575 -0.55407649
2.8238022 -2.1554155 -0.55316836
2.8795147 -2.1562753 -0.54850787
2.9251475 -2.1573071 -0.54392606
2.9781003 -2.1524146 -0.55282402
3.0230448 -2.1530499 -0.54920071
3.0746315 -2.1508064 -0.5519796
3.1260538 -2.1551461 -0.53940183
3.181422 -2.152899 -0.54200906
3.2202339 -2.1490364 -0.5491758
3.2792473 -2.1465173 -0.55224544
3.3270004 -2.1538925 -0.53275663
3.3696556 -2.1498549 -0.54014939
3.4134698 -2.1457076 -0.54774296
3.4776652 -2.15046 -0.53359294
3.5244901 -2.1461799 -0.54135305
3.5726485 -2.1417775 -0.54933447
3.6181126 -2.148869 -0.5306173
3.669003 -2.1443815 -0.5386681
3.7059374 -2.1469364 -0.53094488
3.7708898 -2.1472282 -0.52717108
3.8263962 -2.1425149 -0.535528
3.8836288 -2.1376553 -0.54414457
3.9204447 -2.1529238 -0.50675392
3.967947 -2.1429262 -0.52782601
4.0297089 -2.1378832 -0.53665584
4.1208525 -2.1433711 -0.51950622
3.6505964 1.5888638 -0.533952
3.6956582 1.589649 -0.52743393
3.7418842 1.5904536 -0.52074027
3.7885811 1.5907061 -0.52777392
3.8372498 1.5915458 -0.52091688
3.8872263 1.5924087 -0.51386774
3.9377522 1.5926974 -0.52109492
3.9896429 1.592993 -0.52851737
4.043817 1.5939116 -0.52129143
4.0995283 1.5948565 -0.51385164
2.7808862 -2.1713455 -0.51803029
2.8312051 -2.1702788 -0.51812381
2.874347 -2.1745667 -0.50606149
2.921499 -2.1697197 -0.5151282
2.9742258 -2.1704478 -0.51091796
3.0427201 -2.1713886 -0.50545907
3.078048 -2.1679296 -0.51184994
3.1218848 -2.1684604 -0.5085237
3.1670978 -2.1690292 -0.50504297
3.2136674 -2.1695929 -0.50150937
3.2736666 -2.16401 -0.51168191
3.3113101 -2.1707976 -0.49404699
3.3752401 -2.1650569 -0.50440109
3.4415007 -2.159107 -0.51513273
3.4604802 -2.16818 -0.49305272
3.5068269 -2.1641686 -0.50020736
3.5544872 -2.1600437 -0.5075649
3.6244364 -2.1653023 -0.49195975
3.6755207 -2.1610472 -0.49945825
3.7393641 -2.161592 -0.49514621
3.8054919 -2.1621251 -0.49075294
3.8620796 -2.1575954 -0.49862969
3.9454284 -2.163285 -0.48137993
4.0064683 -2.1585979 -0.48941314
4.0695009 -2.1537576 -0.49770856
2.8453507 -2.1279585 -0.48000824
3.4851637 -2.1293168 -0.4714874
3.6526179 1.5905209 -0.49380666
3.6867793 1.593703 -0.48068136
3.7440324 1.5921545 -0.47954673
3.7907956 1.5924289 -0.48605835
3.841615 1.5945325 -0.47890735
3.8895845 1.5941789 -0.47101915
3.9401855 1.5944915 -0.4776814
3.9921541 1.5948119 -0.48452371
4.046 1.6056592 -0.47160912
4.10221 1.5967283 -0.46859598
3.8471801 1.6411428 -0.46539831
4.0472121 1.6569355 -0.46171796
3.8508186 1.7009757 -0.46582949
4.0502715 1.7042186 -0.46205512
4.0533361 1.7515795 -0.46239305
4.056407 1.7990377 -0.46273151
4.0594826 1.8465741 -0.46307054
2.7247479 -2.1393719 -0.45773137
2.7243943 -2.1119289 -0.45374945
2.7237306 -2.0658784 -0.44285929
3.2094932 -2.0753088 -0.45424774
4.0616584 -2.0622325 -0.43707269
2.7231874 -2.0217614 -0.43786085
2.9757748 -2.0295196 -0.4396317
3.6878364 -2.0061469 -0.42040846
2.7239132 -2.1395781 -0.40866381
2.7236066 -2.1101561 -0.408602
2.7230957 -2.0611162 -0.40849903
2.7225842 -2.012073 -0.40839604
2.7751098 -1.9902065 -0.4270826
2.7220409 -1.9679499 -0.40339556
3.3790483 -1.9598185 -0.40664336
2.7214973 -1.9238235 -0.39839482
2.8987501 -1.8877584 -0.38523269
3.1196816 -1.9209052 -0.39508137
3.9170876 -1.8668247 -0.36263099
2.723079 -2.1397843 -0.3595911
2.7227724 -2.1103611 -0.35952815
2.722261 -2.0613189 -0.35942319
2.72175 -2.0122731 -0.3593182
2.7212386 -1.9632227 -0.35921317
2.7207277 -1.9141691 -0.35910818
2.7201998 -1.8675736 -0.35655409
3.56879 -1.8305789 -0.35337144
2.719516 -1.8193709 -0.34581503
3.2792752 -1.8004506 -0.34567469
2.7189615 -1.7768723 -0.33917817
2.8256636 -1.7532454 -0.33361533
3.0348196 -1.7750112 -0.33917576
2.7220776 -2.1400318 -0.3006978
2.7217708 -2.1106069 -0.30063337
2.7212596 -2.0615618 -0.30052599
2.7207484 -2.0125132 -0.30041865
2.7202373 -1.9634602 -0.30031121
2.7197256 -1.9144034 -0.30020386
2.719214 -1.8653426 -0.30009645
2.718703 -1.816278 -0.29998904
2.7181911 -1.7672091 -0.29988167
2.7176335 -1.7201142 -0.2958506
3.7825623 -1.6849823 -0.29335687
2.7170088 -1.6730299 -0.28789145
2.9545093 -1.6369424 -0.28626868
3.1852915 -1.6503307 -0.28824395
3.4572682 -1.6661086 -0.29057178
2.7164252 -1.6298683 -0.27994013
2.7562218 -1.6254394 -0.28457159
2.7128851 -1.2645292 -0.29485199
2.7123942 -1.2201921 -0.29307058
2.7117164 -1.1781375 -0.2789439
2.7212429 -2.1402383 -0.25161493
2.7209363 -2.1108117 -0.25154933
2.7204249 -2.0617647 -0.25143996
2.7199137 -2.0127134 -0.25133058
2.7194018 -1.9636581 -0.25122124
2.7188907 -1.9145991 -0.25111187
2.7183793 -1.8655357 -0.25100246
2.7178676 -1.8164686 -0.25089303
2.7173562 -1.7673974 -0.25078359
2.7168446 -1.7183224 -0.25067416
2.7163334 -1.6692432 -0.25056475
2.7157192 -1.610343 -0.25043342
2.7151861 -1.5645397 -0.24705729
2.7146308 -1.5220175 -0.24041426
2.8783939 -1.5060856 -0.23612523
3.0966079 -1.5086765 -0.234052
3.3525882 -1.511718 -0.23162067
2.7121367 -1.2666445 -0.24966711
2.7116246 -1.2175287 -0.24955758
2.7111127 -1.168409 -0.24944803
2.7105682 -1.1242133 -0.24443677
2.7204084 -2.1404448 -0.20252702
2.7201016 -2.1110168 -0.2024602
2.7195902 -2.0619669 -0.20234883
2.7190788 -2.0129137 -0.20223746
2.7185674 -1.9638559 -0.20212612
2.718056 -1.9147943 -0.20201468
2.7175446 -1.8657289 -0.20190328
2.7170329 -1.8166595 -0.20179191
2.7165213 -1.7675855 -0.20168048
2.7160096 -1.7185082 -0.20156902
2.7154975 -1.6694268 -0.20145762
2.7148836 -1.6105237 -0.20132393
2.7143719 -1.5614336 -0.20121244
2.7138603 -1.5123391 -0.20110101
2.7133024 -1.465219 -0.19706455
2.7126768 -1.4181082 -0.18909827
2.7120926 -1.374922 -0.18114015
2.8061533 -1.3818901 -0.18853429
2.7116082 -1.2962775 -0.20061046
2.7113011 -1.2668085 -0.20054358
2.710789 -1.2176902 -0.20043203
2.7102766 -1.1685683 -0.20032054
2.7097647 -1.119442 -0.20020899
2.7091339 -1.0629498 -0.19762397
2.7084491 -1.0146669 -0.1868681
2.9655108 -0.99609029 -0.17888832
3.5013671 -0.98944509 -0.16551605
3.9895844 -0.98357069 -0.16328636
2.7195735 -2.1406512 -0.15343457
2.7192667 -2.1112218 -0.15336657
2.7187552 -2.0621696 -0.1532532
2.7182436 -2.0131135 -0.15313986
2.7177322 -1.9640535 -0.15302646
2.7172205 -1.9149898 -0.15291309
2.7167094 -1.8659219 -0.15279973
2.7161977 -1.8168499 -0.15268633
2.7156858 -1.7677739 -0.1525729
2.7151742 -1.7186943 -0.1524595
2.7146623 -1.66961 -0.15234601
2.7140484 -1.6107044 -0.15220994
2.7135367 -1.5616119 -0.15209648
2.7130249 -1.5125151 -0.15198299
2.712513 -1.4634147 -0.15186954
2.7120011 -1.41431 -0.15175605
2.711489 -1.3652016 -0.15164259
2.7109773 -1.3160889 -0.1515291
2.7104654 -1.2669724 -0.15141559
2.7099531 -1.2178519 -0.1513021
2.7094405 -1.1687275 -0.15118858
2.7089286 -1.1195989 -0.15107504
2.7083137 -1.0606394 -0.15093878
2.7078016 -1.0115023 -0.15082523
2.8174825 -0.99729943 -0.14794004
2.9601736 -0.99556243 -0.1461798
3.1188757 -0.99363095 -0.1442433
3.2964354 -0.9914695 -0.14205307
3.4939694 -0.98883069 -0.12666133
3.7234049 -0.98627257 -0.13681346
3.9768376 -0.98265111 -0.10403118
3.9832013 -0.98311019 -0.13361427
2.7187381 -2.1408577 -0.10433707
2.7184317 -2.1114268 -0.10426787
2.7179203 -2.0623722 -0.10415251
2.7174089 -2.013314 -0.10403714
2.7168972 -1.9642514 -0.10392178
2.7163858 -1.9151853 -0.1038064
2.7158742 -1.8661147 -0.10369099
2.7153623 -1.8170408 -0.10357559
2.7148509 -1.7679623 -0.1034602
2.7143385 -1.7188802 -0.10334479
2.7138274 -1.6697938 -0.10322934
2.7132127 -1.610885 -0.10309085
2.7127008 -1.5617902 -0.10297539
2.7121894 -1.512691 -0.10285992
2.7116771 -1.4635882 -0.10274447
2.7111652 -1.4144812 -0.102629
2.7106531 -1.3653703 -0.1025135
2.7101409 -1.3162553 -0.10239802
2.7096288 -1.2671365 -0.10228252
2.7091167 -1.2180134 -0.10216702
2.7086048 -1.1688867 -0.1020515
2.7080922 -1.1197556 -0.10193596
2.707478 -1.0607934 -0.1017973
2.7069654 -1.0116538 -0.10168175
2.8094413 -0.9964627 -0.096372627
2.9530838 -0.99486119 -0.1027284
3.1090603 -0.99271131 -0.086917445
3.287677 -0.99069524 -0.093460508
3.4841487 -0.98801494 -0.075080842
3.712276 -0.98540866 -0.081699811
3.9704926 -0.98219341 -0.074536666
2.7179036 -2.1410642 -0.05523508
2.7175968 -2.1116319 -0.055164672
2.7170851 -2.0625751 -0.055047341
2.7165737 -2.0135143 -0.054929964
2.7160618 -1.9644495 -0.054812603
2.7155507 -1.9153808 -0.054695226
2.7150388 -1.866308 -0.054577857
2.7145269 -1.8172314 -0.054460444
2.7140152 -1.7681507 -0.054343037
2.7135034 -1.7190661 -0.054225624
2.712992 -1.6699774 -0.05410821
2.7123775 -1.6110657 -0.053967267
2.7118657 -1.5619684 -0.053849824
2.7113535 -1.512867 -0.053732365
2.7108414 -1.4637618 -0.0536149
2.7103295 -1.4146523 -0.053497419
2.7098172 -1.3655391 -0.053379945
2.709305 -1.3164217 -0.05326245
2.7087929 -1.2673005 -0.053144954
2.7082813 -1.2181752 -0.053027458
2.7077687 -1.1690459 -0.05290994
2.7072561 -1.1199125 -0.052792408
2.7066417 -1.0609474 -0.052651353
2.7061293 -1.0118054 -0.052533798
2.80304 -0.99579662 -0.055319384
2.9442666 -0.99398905 -0.048692212
3.1012504 -0.9919796 -0.041304715
3.2767885 -0.9897325 -0.033047777
3.2811351 -0.99011683 -0.057165354
3.476815 -0.98740578 -0.036563776
3.7012093 -0.98454952 -0.026893117
3.9610131 -0.98150957 -0.030471034
2.7170684 -2.1412706 -0.0061279982
2.7167618 -2.1118369 -0.0060563907
2.7162499 -2.0627775 -0.0059370548
2.7157385 -2.0137146 -0.0058176965
2.7152269 -1.9646473 -0.0056983382
2.7147152 -1.9155765 -0.0055789575
2.7142038 -1.8665012 -0.0054595582
2.7136917 -1.8174223 -0.0053401776
2.7131796 -1.7683392 -0.0052207783
2.7126682 -1.719252 -0.0051013604
2.7121561 -1.670161 -0.0049819313
2.7115419 -1.6112465 -0.0048386194
2.7110302 -1.5621469 -0.0047191642
2.7105179 -1.5130429 -0.0045997128
2.710006 -1.4639354 -0.004480239
2.7094932 -1.4148235 -0.0043607764
2.7089813 -1.3657079 -0.0042412989
2.7084689 -1.3165879 -0.0041218027
2.707957 -1.2674645 -0.0040022954
2.7074447 -1.2183366 -0.0038827956
2.7069328 -1.1692052 -0.0037632696
2.7064202 -1.1200694 -0.0036437251
2.7058053 -1.0611014 -0.003500279
2.7052927 -1.011957 -0.0033807233
2.7950768 -0.99496806 -0.0042516775
2.9354949 -0.99312145 0.0050679669
3.0934765 -0.99125123 0.0040971078
3.2702894 -0.98915792 0.0030104965
3.4695139 -0.98679942 0.001786083
3.6902044 -0.98369515 0.027609147
3.9484384 -0.9806025 0.027991541
2.7162335 -2.1414771 0.042983547
2.7159264 -2.112042 0.043056346
2.715415 -2.0629802 0.043177694
2.7149034 -2.0139148 0.043299049
2.7143915 -1.9648453 0.043420412
2.7138798 -1.915772 0.043541782
2.7133679 -1.8666943 0.043663166
2.7128563 -1.817613 0.043784559
2.7123442 -1.7685274 0.043905959
2.7118325 -1.7194381 0.044027381
2.7113204 -1.6703446 0.044148799
2.710706 -1.6114273 0.044294514
2.7101941 -1.5623252 0.044415966
2.709682 -1.5132189 0.044537418
2.7091696 -1.4641089 0.044658884
2.7086575 -1.4149947 0.044780359
2.7081451 -1.3658767 0.04490184
2.7076333 -1.3167546 0.045023337
2.7071209 -1.2676284 0.045144834
2.7066085 -1.2184985 0.045266349
2.7060964 -1.1693645 0.045387875
2.705584 -1.1202263 0.045509413
2.7049687 -1.0612553 0.045655258
2.7044563 -1.0121087 0.045776818
2.7871525 -0.99414343 0.046568871
2.9285128 -0.99243093 0.047856927
3.0857387 -0.9905262 0.049289517
3.2616594 -0.98839492 0.050892394
3.4598207 -0.98599434 0.05269786
3.6819885 -0.98305726 0.068296969
3.9390609 -0.97992623 0.071621321
2.7153981 -2.1416836 0.092100196
2.7150915 -2.112247 0.092174202
2.7145798 -2.0631828 0.092297539
2.7140679 -2.0141151 0.092420891
2.7135563 -1.9650432 0.092544265
2.7130442 -1.9159676 0.092667624
2.7125323 -1.8668875 0.092791006
2.7120209 -1.8178039 0.09291441
2.711509 -1.7687159 0.093037806
2.7109966 -1.7196242 0.093161218
2.710485 -1.6705282 0.093284644
2.7098701 -1.611608 0.093432754
2.7093585 -1.5625037 0.09355621
2.7088459 -1.5133951 0.093679659
2.7083335 -1.4642825 0.093803123
2.7078214 -1.4151659 0.093926594
2.707309 -1.3660455 0.09405008
2.7067971 -1.316921 0.09417358
2.7062845 -1.2677927 0.094297081
2.7057722 -1.2186601 0.09442059
2.7052603 -1.1695237 0.094544128
2.7047477 -1.1203833 0.094667666
2.7041323 -1.0614095 0.094815917
2.7036197 -1.0122603 0.09493947
2.7792718 -0.99332333 0.097109176
2.9198301 -0.99157202 0.1010714
3.0722811 -0.98926532 0.12788302
3.0780358 -0.98980451 0.094273917
3.2530713 -0.98763567 0.098540857
3.4501774 -0.98519337 0.10334577
3.6710939 -0.98221159 0.12227262
3.6765316 -0.98263359 0.095322073
3.9297311 -0.97925347 0.11503578
2.7145631 -2.14189 0.14122131
2.7142563 -2.112452 0.14129651
2.7137444 -2.0633855 0.14142185
2.7132323 -2.0143154 0.1415472
2.7127204 -1.965241 0.14167255
2.712209 -1.916163 0.14179793
2.7116969 -1.8670806 0.14192331
2.711185 -1.8179945 0.14204872
2.7106731 -1.7689041 0.14217411
2.7101612 -1.7198102 0.14229953
2.7096491 -1.6707119 0.14242496
2.7090342 -1.6117887 0.14257547
2.7085221 -1.562682 0.14270091
2.7080097 -1.513571 0.14282636
2.7074978 -1.4644562 0.14295185
2.7069855 -1.4153372 0.14307731
2.7064731 -1.3662144 0.14320278
2.705961 -1.3170874 0.14332828
2.7054486 -1.2679567 0.14345381
2.7049356 -1.2188218 0.1435793
2.7044232 -1.169683 0.14370483
2.7039111 -1.1205401 0.14383039
2.7032959 -1.0615635 0.14398104
2.7027831 -1.012412 0.1441066
2.7714293 -0.99250722 0.14740615
2.911191 -0.99071759 0.15401614
3.0665488 -0.98872817 0.16136369
3.2423968 -0.98669195 0.15776381
3.4405842 -0.98439664 0.15373188
3.6629694 -0.98158103 0.16255003
3.9173532 -0.97836077 0.17263687
2.7137277 -2.1420968 0.19034752
2.7134209 -2.1126575 0.19042394
2.7129087 -2.0635884 0.19055128
2.7123971 -2.0145159 0.19067863
2.711885 -1.9654392 0.19080597
2.7113731 -1.9163586 0.19093338
2.7108612 -1.8672738 0.19106075
2.7103491 -1.8181853 0.19118816
2.7098374 -1.7690927 0.19131553
2.7093253 -1.7199961 0.19144294
2.708813 -1.6708955 0.19157037
2.7081985 -1.6119697 0.19172329
2.7076864 -1.5628605 0.19185075
2.7071741 -1.5137471 0.19197819
2.7066617 -1.4646299 0.19210565
2.7061493 -1.4155085 0.19223315
2.705637 -1.3663833 0.19236061
2.7051246 -1.3172539 0.19248813
2.7046123 -1.2681208 0.19261563
2.7040994 -1.2189834 0.19274315
2.7035866 -1.1698424 0.19287068
2.7030742 -1.120697 0.19299823
2.7024593 -1.0617175 0.19315127
2.7019465 -1.0125636 0.19327882
2.7636297 -0.99169564 0.19742718
2.9043148 -0.99003744 0.19615769
3.0589342 -0.9880147 0.20583439
3.2317832 -0.98575354 0.21665189
3.4310474 -0.98360467 0.20385861
3.6521862 -0.98074424 0.21600735
3.9050474 -0.97747338 0.22989875
2.7127249 -2.1423445 0.24930513
2.7124181 -2.1129036 0.24938294
2.7119064 -2.0638318 0.2495127
2.7113943 -2.0147562 0.24964246
2.7108824 -1.9656765 0.24977222
2.7103703 -1.9165932 0.24990198
2.7098587 -1.8675057 0.25003177
2.7093463 -1.8184144 0.25016156
2.7088344 -1.7693188 0.25029138
2.708322 -1.7202196 0.25042117
2.7078097 -1.671116 0.25055102
2.707195 -1.6121867 0.25070679
2.7066829 -1.5630746 0.25083667
2.7061708 -1.5139585 0.25096649
2.7056582 -1.4648383 0.25109637
2.7051458 -1.4157139 0.25122625
2.7046335 -1.366586 0.25135615
2.7041206 -1.3174537 0.25148606
2.7036083 -1.2683177 0.25161597
2.7030957 -1.2191776 0.25174588
2.7025828 -1.1700335 0.25187582
2.7020705 -1.1208854 0.25200576
2.7014551 -1.0619024 0.25216168
2.700942 -1.0127456 0.25229165
2.7558672 -0.99088794 0.24720863
2.8974686 -0.98936027 0.23811701
3.0513544 -0.98730457 0.25010204
3.2212436 -0.98482203 0.27518028
3.2254505 -0.98519379 0.25181413
3.4191976 -0.98262072 0.26616323
3.423928 -0.98301351 0.24129266
3.6414628 -0.97991192 0.26917177
3.8958635 -0.97681105 0.27263477
2.8923516 -0.98885423 0.26947317
2.7118897 -2.1425509 0.29844156
2.7115824 -2.1131086 0.29852059
2.7110705 -2.0640345 0.29865235
2.7105589 -2.0149567 0.29878411
2.7100468 -1.9658747 0.29891586
2.7095344 -1.9167888 0.29904759
2.7090225 -1.8676989 0.2991794
2.7085106 -1.8186053 0.29931122
2.707998 -1.7695073 0.29944301
2.7074859 -1.7204055 0.29957482
2.7069738 -1.6712998 0.29970664
2.7063591 -1.6123674 0.29986486
2.7058468 -1.563253 0.2999967
2.7053344 -1.5141344 0.30012855
2.7048223 -1.4650121 0.30026045
2.7043092 -1.4158853 0.3003923
2.7037969 -1.366755 0.3005242
2.7032843 -1.3176203 0.30065611
2.7027717 -1.2684819 0.30078802
2.7022588 -1.2193393 0.30091998
2.7017465 -1.170193 0.30105188
2.7012336 -1.1210424 0.30118382
2.7006183 -1.0620565 0.30134216
2.7001054 -1.0128974 0.30147415
2.7481472 -0.99008459 0.29671836
2.8872535 -0.98834997 0.30071676
3.0419354 -0.98642218 0.3051433
3.2149527 -0.98426604 0.31011695
3.4121265 -0.98203361 0.30334178
3.6307971 -0.97908419 0.32204568
3.8867247 -0.976152 0.31516209
3.6649568 1.4963436 0.34736693
3.6352785 1.5604095 0.34494519
3.6451118 1.5391827 0.34574759
4.0783067 1.5441537 0.35397282
3.6254973 1.5815222 0.34414706
4.0537071 1.5915918 0.35212892
4.0233855 1.6500626 0.34985608
3.9934835 1.7077227 0.34761477
3.969892 1.7532163 0.34584641
3.9523718 1.7870018 0.34453318
2.7110541 -2.1427574 0.34758312
2.7107468 -2.1133139 0.34766334
2.7102346 -2.0642371 0.3477971
2.7097228 -2.0151572 0.34793082
2.7092106 -1.9660728 0.3480646
2.708699 -1.9169847 0.34819838
2.7081866 -1.8678924 0.34833214
2.7076745 -1.8187962 0.34846595
2.7071624 -1.7696958 0.34859976
2.7066498 -1.7205917 0.34873357
2.7061374 -1.6714835 0.34886742
2.705523 -1.6125484 0.34902802
2.7050102 -1.5634315 0.34916186
2.7044981 -1.5143104 0.34929574
2.7039857 -1.4651856 0.34942961
2.7034726 -1.4160566 0.34956348
2.70296 -1.3669238 0.34969735
2.7024479 -1.3177867 0.34983128
2.7019351 -1.268646 0.34996516
2.7014222 -1.219501 0.35009912
2.7009094 -1.1703522 0.35023308
2.7003968 -1.1211994 0.35036698
2.6997814 -1.0622106 0.35052776
2.6992683 -1.0130491 0.35066175
2.7404637 -0.98928511 0.34599212
2.8787987 -0.9875139 0.35256618
3.0325701 -0.98554504 0.35989368
3.2065995 -0.98352766 0.35651267
3.4027379 -0.9812541 0.35270202
3.6175454 -0.97805566 0.38774198
3.6228347 -0.97846621 0.36152083
3.874599 -0.97527748 0.37158898
3.0737379 1.2349629 0.37338066
3.1218045 1.2416097 0.35000107
3.1735466 1.234387 0.36530215
3.227648 1.2352245 0.36728412
3.2704954 1.2364454 0.37193638
3.3145332 1.2377001 0.37671784
3.3558745 1.2366185 0.3687081
3.4177494 1.2464395 0.35612679
3.4704478 1.2374535 0.36771154
3.520251 1.2388029 0.37273452
3.5500007 1.2420149 0.38903975
3.5976498 1.2409185 0.38064182
3.6466122 1.2397845 0.37197131
3.7017925 1.2412417 0.37732768
3.7683375 1.2475797 0.36972055
3.8123224 1.2415928 0.37385273
3.8728187 1.2431489 0.37949398
3.9353185 1.2447566 0.38532209
3.9942265 1.2435699 0.37587294
4.0608425 1.2452369 0.38182887
3.3919964 1.3079013 0.34753066
3.4005334 1.2875177 0.34828368
3.7569132 1.2978418 0.35487056
3.3792758 1.338273 0.34640864
3.7308986 1.3539979 0.35274777
3.3582854 1.3883903 0.34455717
3.7103543 1.3983462 0.35107136
3.6849825 1.453115 0.34900102
3.695087 1.4313037 0.34982553
2.7102182 -2.1429641 0.39672911
2.7099113 -2.1135192 0.39681056
2.7093992 -2.0644398 0.39694625
2.7088873 -2.0153575 0.39708203
2.708375 -1.9662707 0.39721778
2.7078626 -1.9171802 0.39735353
2.7073503 -1.8680855 0.39748934
2.7068381 -1.818987 0.39762518
2.7063262 -1.7698842 0.39776099
2.7058139 -1.7207779 0.3978968
2.7053013 -1.6716672 0.39803261
2.7046866 -1.6127293 0.39819562
2.704174 -1.5636101 0.39833149
2.7036614 -1.5144866 0.39846733
2.7031486 -1.4653594 0.3986032
2.7026362 -1.4162281 0.39873913
2.7021239 -1.3670927 0.39887503
2.7016108 -1.3179533 0.3990109
2.7010982 -1.2688102 0.39914683
2.7005858 -1.2196628 0.39928275
2.700073 -1.1705117 0.39941871
2.6995599 -1.1213562 0.39955467
2.6989443 -1.0623648 0.39971787
2.6985214 -1.0164685 0.39656508
2.7534122 -0.99125457 0.37779835
2.9299145 -1.015998 0.42306885
3.0412297 -1.0091618 0.41665977
3.1617203 -1.0017622 0.4097223
3.2925699 -0.99372637 0.40218842
3.4351742 -0.9849686 0.3939777
4.1095395 -0.99747169 0.43914589
3.0835319 1.2414602 0.40884399
3.1191549 1.2405069 0.40182373
3.1590765 1.2417549 0.40677068
3.2175214 1.2414175 0.40203807
3.2816823 1.2433789 0.40974194
3.3260443 1.2447349 0.41506851
3.3677042 1.2437456 0.40755284
3.4104364 1.2427243 0.39980781
3.4584801 1.2441263 0.40520799
3.5079389 1.2455698 0.4107672
3.5588748 1.2470559 0.41649252
3.6113577 1.2485874 0.42239156
3.6607327 1.2475636 0.41430742
3.711494 1.2465037 0.40595356
3.7687378 1.2480947 0.41194898
3.8278251 1.2497371 0.41813743
3.8888466 1.2514331 0.42452848
3.9518988 1.2531859 0.4311322
4.0056214 1.2492665 0.40682024
4.0726428 1.2510368 0.41332597
2.7093828 -2.1431708 0.4458802
2.7090757 -2.1137242 0.44596288
2.7085633 -2.0646429 0.44610053
2.7080512 -2.0155582 0.44623837
2.7075388 -1.9664689 0.44637609
2.7070267 -1.9173759 0.44651389
2.7065148 -1.8682787 0.4466517
2.706002 -1.819178 0.4467895
2.7054896 -1.7700727 0.44692731
2.7049778 -1.720964 0.44706511
2.7044654 -1.6718509 0.44720298
2.7038503 -1.61291 0.44736835
2.7033374 -1.5637885 0.44750622
2.7028246 -1.5146627 0.44764405
2.702312 -1.4655331 0.44778195
2.7017996 -1.4163992 0.44791985
2.7012873 -1.3672619 0.4480578
2.7007747 -1.31812 0.4481957
2.7002614 -1.2689744 0.44833362
2.6997485 -1.2198246 0.44847155
2.6992359 -1.1706711 0.4486095
2.6987226 -1.1215134 0.44874743
2.698175 -1.0649695 0.44644621
3.1318595 -1.0443082 0.47486496
3.2601326 -1.0381631 0.47017857
2.730916 -1.0282191 0.43452656
2.8267655 -1.0223327 0.42900789
3.3998096 -1.0314717 0.46507555
3.5524814 -1.024158 0.45949778
3.7200491 -1.0161304 0.45337576
3.9048061 -1.0072796 0.44662577
3.5454323 1.452872 0.49509212
3.7878835 1.4574506 0.49960488
4.0734229 1.450835 0.50553262
3.5258849 1.4938395 0.49261796
3.7710955 1.490361 0.497596
4.0475311 1.4980741 0.50261396
3.7324705 1.5660799 0.4929741
3.7489316 1.5338109 0.49494383
4.0219665 1.5447166 0.49973226
4.0029941 1.5793312 0.49759358
2.7085469 -2.1433778 0.49503583
2.7082398 -2.1139293 0.49511963
2.7077274 -2.0648456 0.49525937
2.7072151 -2.0157585 0.49539912
2.7067027 -1.9666671 0.49553886
2.7061906 -1.9175717 0.49567869
2.7056785 -1.8684722 0.4958185
2.7051661 -1.819369 0.49595833
2.7046535 -1.7702614 0.49609804
2.7041411 -1.7211502 0.49623793
2.7036288 -1.6720347 0.49637774
2.7030132 -1.6130911 0.49654555
2.7025008 -1.5639671 0.49668545
2.701988 -1.5148387 0.49682534
2.7014756 -1.4657068 0.4969652
2.700963 -1.4165707 0.49710515
2.7004504 -1.3674307 0.49724501
2.6999376 -1.3182864 0.49738491
2.699425 -1.2691386 0.49752489
2.6989119 -1.2199864 0.49766478
2.6983984 -1.1708305 0.4978047
2.6978858 -1.1216704 0.49794468
2.701247 -1.0764183 0.4954783
2.8030179 -1.0600615 0.48687893
2.9043584 -1.0552067 0.48317659
3.0136473 -1.0499711 0.47918373
3.3651733 -1.0770158 0.53470695
3.5146015 -1.0718762 0.5323931
3.6784444 -1.0662408 0.52985591
3.8588941 -1.0600342 0.52706164
4.05861 -1.053165 0.52396894
2.7608027 0.53807199 0.52772033
2.8831174 0.54907262 0.52956516
3.0241687 0.54153621 0.53270292
3.176404 0.54355061 0.53558224
3.3410878 0.55665302 0.53815079
3.3496337 0.53486466 0.53940672
3.5339339 0.54825294 0.54234487
3.7404032 0.56325197 0.54563653
3.7511516 0.5387913 0.54706907
3.9854488 0.55419135 0.55088526
2.7435646 0.59138238 0.5247196
2.7521539 0.56482005 0.52621478
2.8705406 0.58626974 0.52746069
3.0068741 0.59034407 0.529926
3.1611068 0.5846386 0.53322995
3.3283567 0.58911443 0.53627974
3.5149508 0.59405887 0.53968471
3.7244031 0.59966385 0.54350412
3.9672604 0.59308088 0.54858631
2.7293682 0.63528693 0.52224833
2.8549786 0.63229585 0.52485669
2.9897628 0.63863301 0.52717853
3.1421692 0.63550639 0.53031772
3.3073521 0.64267051 0.53319281
3.4914746 0.6507045 0.53639501
3.7032719 0.64775395 0.5406878
3.937288 0.65716565 0.54479778
3.9492188 0.63165593 0.54630584
2.7125192 0.68739402 0.5193153
2.8365188 0.68689215 0.52176774
2.9728568 0.68633974 0.52446407
3.1234717 0.68572831 0.52744251
3.2865932 0.69559944 0.53014195
3.4729271 0.69545925 0.53379589
3.682379 0.69530177 0.53790319
3.9195349 0.6951232 0.54255378
2.690367 0.7559005 0.51545918
2.6986318 0.73034215 0.5168978
2.818296 0.74078691 0.5187186
2.9561293 0.73354495 0.52177817
3.1049809 0.73539531 0.52459902
3.2701802 0.73744893 0.52772975
3.454576 0.73974097 0.53122425
3.6617203 0.74231589 0.53514987
3.8902767 0.75768042 0.53885549
3.9019241 0.7327776 0.54032773
2.6821589 0.78128588 0.51403034
2.8032823 0.78518856 0.51620632
2.9363096 0.78947365 0.51859581
2.9461823 0.76161373 0.52018106
3.0867224 0.78443921 0.52179128
3.2418427 0.80970109 0.52356511
3.2539296 0.7788825 0.52534151
3.4319172 0.79441571 0.52804905
3.6362138 0.80036306 0.53175044
3.6463706 0.77724791 0.53310406
3.8729444 0.7947396 0.53666466
2.6774745 0.81840575 0.51332408
2.7913902 0.82035792 0.51421636
2.9232433 0.82634485 0.51649785
3.0686629 0.83294761 0.51901412
3.2338378 0.83011162 0.5223887
3.4139798 0.8376981 0.5255354
3.6210909 0.83477926 0.52973485
3.8557487 0.83150578 0.53449118
3.3218198 1.3923795 0.52644223
3.3575981 1.3978624 0.50281179
3.4035342 1.3926303 0.51369333
3.4469061 1.3934557 0.52006322
3.5063365 1.3943551 0.52439177
3.5764368 1.4002159 0.50798011
3.6302564 1.3955176 0.51988244
3.6798174 1.396441 0.52678108
3.7307889 1.3973901 0.533876
3.7820511 1.3976004 0.52687222
3.8266857 1.4029083 0.51389134
3.8902743 1.398829 0.52698046
3.947449 1.3998711 0.5345003
4.0050278 1.400131 0.52708286
4.0657368 1.4012249 0.53483462
3.5552967 1.4321983 0.49634075
3.7991638 1.4353364 0.50095469
2.707711 -2.1435843 0.54419655
2.7074037 -2.1141343 0.54428154
2.7068913 -2.0650487 0.54442328
2.7063792 -2.0159593 0.54456508
2.7058668 -1.9668651 0.54470688
2.7053542 -1.9177673 0.54484862
2.7048419 -1.8686653 0.54499036
2.7043297 -1.8195597 0.54513216
2.7038171 -1.7704499 0.54527402
2.7033048 -1.7213364 0.54541582
2.7027924 -1.6722186 0.54555774
2.7021766 -1.613272 0.54572791
2.7016644 -1.5641456 0.54586977
2.7011516 -1.5150149 0.54601163
2.700639 -1.4658806 0.54615355
2.7001262 -1.416742 0.54629552
2.6996133 -1.3675997 0.54643732
2.6991005 -1.3184531 0.54657924
2.6985874 -1.2693028 0.54672122
2.6980746 -1.2201481 0.54686314
2.6975617 -1.17099 0.54700512
