# .PCD v0.7 - Point Cloud Data file format
VERSION 0.7
FIELDS x y z
SIZE 4 4 4
TYPE F F F
COUNT 1 1 1
WIDTH 1458
HEIGHT 1
VIEWPOINT 0 0 0 1 0 0 0
POINTS 1458
DATA ascii
3.3991265 -1.757414 -1.0424191
3.5158801 -1.75217 -1.0439662
3.6410575 -1.746678 -1.0456893
3.7629981 -1.7641623 -1.0586321
3.8936415 -1.7828945 -1.0724989
4.0632396 -1.7527016 -1.0636097
2.9689279 -1.6775525 -1.0581423
3.7885246 -1.7170926 -1.0363162
3.9209485 -1.7342577 -1.0494728
2.9634767 -1.6325914 -1.0578383
3.9486179 -1.6849741 -1.0261402
2.9567714 -1.577131 -1.0582776
2.9492574 -1.51542 -1.0564615
2.9435401 -1.4691405 -1.0515649
2.9378538 -1.4231167 -1.0466951
2.9320436 -1.3748603 -1.048098
2.925386 -1.3201603 -1.0466195
2.9186158 -1.2633365 -1.0513506
2.9130673 -1.2184379 -1.0465411
2.9075494 -1.1737838 -1.0417577
2.900394 -1.1150154 -1.0400366
2.8940902 -1.0628638 -1.0405273
2.8886752 -1.0190499 -1.0358055
2.8834939 -0.97512937 -1.0416656
2.874136 -0.89942169 -1.0334564
2.8781366 -0.93178499 -1.0369657
2.8701539 -0.86720264 -1.029963
2.8648677 -0.82443476 -1.0253257
2.8583007 -0.77130616 -1.0195649
2.8527684 -0.71859884 -1.0142688
2.8528042 -0.66665113 -1.0113904
2.9059429 -0.6718927 -1.0030209
2.9548979 -0.66572243 -1.0017885
3.0056024 -0.65932924 -1.000512
2.8377681 -0.60324121 -1.0116925
2.8584232 -0.61867768 -1.0076991
2.9135022 -0.61947012 -1.0033222
2.961122 -0.62304831 -1.002032
3.0104098 -0.6267519 -1.0006963
3.0614548 -0.63058746 -0.99931312
3.1160555 -0.62330085 -0.99794245
2.8339305 -0.57219559 -1.0083058
2.8733687 -0.57462776 -1.0048095
2.9195704 -0.57739061 -1.0035641
2.9673648 -0.58024871 -1.0022762
3.0168357 -0.58320713 -1.0009428
3.0680737 -0.58627111 -0.99956191
3.1211734 -0.58944649 -0.9981308
3.1762404 -0.59273952 -0.99664676
3.2352018 -0.58443677 -0.99517071
2.8275676 -0.52072334 -1.0026909
2.8212433 -0.46956417 -0.99711025
3.0019417 -1.7750396 -1.0370502
2.9743052 -1.728593 -1.0236061
3.0183253 -1.7377927 -1.019256
3.1094532 -1.7325698 -1.0199063
3.2063522 -1.7271173 -1.0206476
3.2998366 -1.7418095 -1.0312055
2.9682307 -1.681475 -1.0077271
3.0232921 -1.6838322 -0.99600124
3.0670915 -1.6685702 -0.98925102
3.1358128 -1.6742342 -0.99206185
3.2249813 -1.6870195 -1.0015265
3.31955 -1.7005788 -1.0115639
3.4200258 -1.7149857 -1.0222286
3.5494437 -1.6861023 -1.0125628
3.6649776 -1.7010779 -1.0240412
2.9642901 -1.6284468 -1.0011586
3.0166154 -1.6354421 -0.99089766
3.0721545 -1.6359086 -0.98942888
3.1298418 -1.6363931 -0.98790324
3.1880002 -1.6482247 -0.98625708
3.1916075 -1.625569 -0.98637795
3.2521782 -1.6374209 -0.98466802
3.3190436 -1.6261741 -0.98301256
3.3631263 -1.6426913 -0.98646331
3.4518595 -1.6503586 -0.99147463
3.5721765 -1.6413527 -0.99129212
3.6891942 -1.6549126 -1.0021247
3.8143792 -1.6694188 -1.0137135
2.9600277 -1.5708107 -1.0094495
3.0248189 -1.5818554 -0.99119318
3.0806208 -1.5813036 -0.98972642
3.1368332 -1.5918869 -0.98814332
3.1970301 -1.5915126 -0.98655975
3.2596521 -1.5911232 -0.9849124
3.3248491 -1.5907177 -0.98319745
3.3907762 -1.6023759 -0.98134816
3.3947911 -1.5782146 -0.98147261
3.4636307 -1.5898546 -0.97954679
3.5354223 -1.602005 -0.97753799
3.6126032 -1.6018072 -0.97550511
3.7137127 -1.6081709 -0.97993469
3.8405676 -1.6211292 -0.99081862
3.9766579 -1.6350304 -1.0024952
2.9586186 -1.5210506 -1.0061867
3.033052 -1.5280774 -0.99148965
3.089119 -1.5265008 -0.99002588
3.1420903 -1.558419 -0.98832381
3.1473622 -1.5248628 -0.98850501
3.2042794 -1.5459814 -0.98680246
3.2671514 -1.5446725 -0.98515761
3.3326125 -1.5433098 -0.98344469
3.4008269 -1.5418898 -0.98165977
3.471971 -1.5404088 -0.9797982
3.5419068 -1.5641514 -0.97772789
3.6193395 -1.5631045 -0.97569644
3.7003241 -1.5620095 -0.97357178
3.785111 -1.5608631 -0.97134733
4.0050759 -1.5844139 -0.97853172
2.9426928 -1.4704993 -1.0080547
2.9870543 -1.4765939 -0.99319494
3.0396614 -1.4849012 -0.99172771
3.0959415 -1.4824989 -0.9902662
3.1544108 -1.4800029 -0.98874748
3.2133756 -1.4888524 -0.98710775
3.2746754 -1.4980686 -0.98540342
3.3404016 -1.4957421 -0.98369288
3.4088974 -1.4933178 -0.98190999
3.480341 -1.4907889 -0.98005044
3.5505786 -1.5135287 -0.97798193
3.6283479 -1.5113426 -0.97595251
3.709692 -1.5090563 -0.97382963
3.7948623 -1.5066622 -0.97160685
3.8790498 -1.5319346 -0.96914661
3.9751596 -1.5157686 -0.96676683
2.9398847 -1.4254656 -1.0044984
2.9950953 -1.4234052 -0.99349093
3.0462914 -1.4415928 -0.99196649
3.0512762 -1.4090284 -0.99214602
3.1027865 -1.4383594 -0.99050701
3.1614819 -1.4349999 -0.9889909
3.222508 -1.4315072 -0.98741436
3.2822232 -1.45131 -0.98565006
3.3462605 -1.4599659 -0.98387945
3.3501749 -1.4360614 -0.98400402
3.4169965 -1.4445779 -0.98216116
3.4887404 -1.4409943 -0.98030376
3.5592813 -1.462724 -0.97823691
3.6373901 -1.4593905 -0.97620916
3.7190957 -1.4559038 -0.97408855
3.8021994 -1.4658811 -0.97180235
3.8892307 -1.4763165 -0.96940827
3.9831309 -1.4729929 -0.96696424
4.0790086 -1.4841422 -0.9643302
2.9428539 -1.3759663 -1.0008429
2.9999347 -1.3913958 -0.99366891
3.0031672 -1.3700132 -0.993788
3.0562744 -1.3763806 -0.99232614
3.1113734 -1.3829834 -0.99080944
3.1685753 -1.3898535 -0.98923492
3.2298422 -1.385457 -0.98766065
3.2916975 -1.3926363 -0.9859606
3.3560596 -1.4001235 -0.98419154
3.4251232 -1.3956698 -0.98241305
3.497169 -1.3910238 -0.98055792
3.5680161 -1.4117358 -0.97849274
3.6464658 -1.4072468 -0.97646725
3.7285342 -1.4025505 -0.97434831
3.8095603 -1.424969 -0.97199833
3.8994527 -1.4204786 -0.96967125
3.9911242 -1.4301016 -0.96716237
4.0873528 -1.4401879 -0.9645294
2.9245491 -1.321523 -1.0034966
2.9582343 -1.3217547 -0.99543405
3.0096488 -1.3271403 -0.99402642
3.0629554 -1.3327384 -0.9925667
3.1199918 -1.327405 -0.99111295
3.1756916 -1.3445628 -0.98947978
3.2372003 -1.3392568 -0.98790789
3.3012094 -1.333735 -0.9862721
3.3639297 -1.3520713 -0.98444247
3.4332781 -1.3465922 -0.98266602
3.503509 -1.3534353 -0.98074901
3.5077462 -1.3283172 -0.9808768
3.5767817 -1.3605633 -0.97874928
3.6532927 -1.3680184 -0.97666109
3.657856 -1.3418019 -0.97679067
3.7356358 -1.3624097 -0.97454369
3.8194056 -1.3702435 -0.97226036
3.9097152 -1.3644197 -0.96993494
3.9991446 -1.3870656 -0.96736121
4.0985165 -1.3813792 -0.96479547
2.9181886 -1.2648172 -1.008545
2.9645419 -1.27952 -0.99567115
3.0177751 -1.273387 -0.99432552
3.0696573 -1.2889616 -0.9928081
3.1269116 -1.2827792 -0.99135673
3.1846199 -1.2877377 -0.9897871
3.2445817 -1.2929056 -0.98815596
3.3088479 -1.2864308 -0.98652256
3.3718271 -1.3038561 -0.98469484
3.4414625 -1.2973444 -0.98292005
3.5119905 -1.3031549 -0.98100483
3.5855794 -1.3092058 -0.97900701
3.6647167 -1.3023801 -0.97698557
3.7427592 -1.3221424 -0.97473967
3.8292899 -1.3153062 -0.97252345
3.9174366 -1.3222367 -0.97013342
4.0098743 -1.3294899 -0.96762741
2.9174337 -1.2212292 -1.005859
2.9724541 -1.2265433 -0.99596846
3.0242991 -1.2302322 -0.99456561
3.0780649 -1.2340434 -0.99311078
3.1338539 -1.2380128 -0.99160123
3.1935821 -1.2306999 -0.9900955
3.2519884 -1.2464029 -0.98840487
3.3165126 -1.2389688 -0.98677361
3.3797517 -1.2554767 -0.98494792
3.449676 -1.247926 -0.98317528
3.5183721 -1.2653217 -0.98119724
3.594409 -1.2576621 -0.97926545
3.6738935 -1.249655 -0.97724628
3.7522879 -1.2682829 -0.97500193
3.8392119 -1.2601557 -0.97278762
3.9251842 -1.279914 -0.97033262
4.020648 -1.2716801 -0.96789432
2.9069285 -1.1748083 -1.0097008
2.9301329 -1.1707494 -0.99761772
2.9803929 -1.173382 -0.99626684
3.0324836 -1.1760974 -0.99486685
3.0865026 -1.1789269 -0.99341476
3.1408172 -1.1931053 -0.99184644
3.2007785 -1.1848985 -0.99034321
3.259418 -1.1997477 -0.98865449
3.3242025 -1.1913482 -0.98702562
3.3877025 -1.2069323 -0.98520184
3.4579186 -1.1983354 -0.98343158
3.5269079 -1.2147287 -0.98145521
3.6032705 -1.2059311 -0.97952509
3.6807966 -1.209989 -0.97744238
3.7594566 -1.2277606 -0.97519922
3.7642484 -1.2006774 -0.97533119
3.8466783 -1.2186588 -0.97298634
3.9355488 -1.2232966 -0.97059917
4.0287552 -1.2281753 -0.96809518
2.9000773 -1.1193449 -1.0038687
2.9378695 -1.1183228 -0.99791443
2.9867663 -1.1307049 -0.99650645
3.0406966 -1.1217701 -0.99516916
3.093277 -1.1346743 -0.99365878
3.1495543 -1.1367642 -0.99215412
3.2079978 -1.1389496 -0.99059153
3.2687421 -1.1412054 -0.98896766
3.3319182 -1.143568 -0.98727858
3.3956819 -1.1582224 -0.98545659
3.4661899 -1.148572 -0.98368871
3.5354748 -1.1639556 -0.98171401
3.6121664 -1.1540122 -0.97978604
3.6877217 -1.1701999 -0.9776392
3.7714529 -1.1599491 -0.97552931
3.8541679 -1.1770275 -0.97318578
3.9459538 -1.1664536 -0.97086668
4.0368905 -1.1845226 -0.968297
2.8966646 -1.0649712 -0.999511
2.9440804 -1.0762379 -0.99815261
2.994761 -1.0771719 -0.99680686
3.0472903 -1.0781538 -0.99541152
3.1000724 -1.0902843 -0.99390352
3.1583228 -1.080215 -0.99246299
3.2152414 -1.0928528 -0.99084091
3.278101 -1.0824385 -0.98928213
3.3396597 -1.0956275 -0.98753226
3.405695 -1.0970916 -0.98577631
3.4744902 -1.0986345 -0.9839468
3.5440717 -1.1130013 -0.98197401
3.6210947 -1.101904 -0.9800483
3.6969848 -1.1169834 -0.97790241
3.7810907 -1.1054726 -0.97579455
3.8616776 -1.135288 -0.97338557
3.8666968 -1.1073892 -0.97351933
3.9537845 -1.1236795 -0.97106802
4.0477738 -1.1261206 -0.96856666
2.9027195 -1.0234623 -0.99974775
2.95187 -1.0234506 -0.99845135
3.0027838 -1.0234516 -0.99710834
3.0539045 -1.0344043 -0.99565506
3.1085978 -1.0345954 -0.99421048
3.1653643 -1.0348084 -0.99271107
3.222507 -1.046607 -0.99109101
3.2856174 -1.0352442 -0.98953462
3.3474274 -1.0475261 -0.98778665
3.4157481 -1.0357161 -0.98609734
3.4828191 -1.0485222 -0.98420584
3.5526996 -1.0618649 -0.98223495
3.6300564 -1.0496055 -0.98031139
3.7062836 -1.0635684 -0.97816718
3.788342 -1.0644852 -0.97599411
3.8742452 -1.0654321 -0.97372031
3.9616408 -1.0807629 -0.97127008
4.0559649 -1.0821695 -0.96876979
2.8993406 -0.97330302 -1.004025
2.9596863 -0.9704814 -0.99875128
3.0092244 -0.98032475 -0.99735045
3.062202 -0.97952211 -0.99596059
3.1171536 -0.97870386 -0.99451876
3.1706591 -1.0006633 -0.99289751
3.1741958 -0.97785175 -0.99302208
3.2316246 -0.9885813 -0.99140465
3.2931585 -0.9878943 -0.98978817
3.3552208 -0.99926263 -0.98804212
3.4238229 -0.98641878 -0.98635507
3.4911776 -0.99823421 -0.9844656
3.5613589 -1.0105455 -0.98249674
3.6390505 -0.99711549 -0.98057544
3.7156177 -1.0099536 -0.97843301
3.7956171 -1.0233674 -0.97619474
3.8818135 -1.0233655 -0.9739219
3.9695177 -1.0377316 -0.9714725
3.9747834 -1.0089675 -0.9716078
4.0641837 -1.0380682 -0.96897352
2.873528 -0.90045017 -1.001935
2.8977294 -0.92598754 -1.0028616
2.965961 -0.92795992 -0.99899173
3.0173035 -0.92622674 -0.99765408
3.0705285 -0.92444372 -0.99626696
3.1223035 -0.94506443 -0.99470425
3.1257439 -0.92259145 -0.99482822
3.179513 -0.94356191 -0.99320936
3.2407761 -0.93033612 -0.9917196
3.300724 -0.94038773 -0.99004233
3.3630414 -0.95083654 -0.98829854
3.4319253 -0.93695194 -0.98661375
3.4995651 -0.94776952 -0.98472631
3.5700488 -0.95904183 -0.98275936
3.6458168 -0.95762789 -0.98077428
3.7226391 -0.96961707 -0.97863317
3.7273331 -0.9426589 -0.9787668
3.8053493 -0.96836865 -0.9764632
3.8894067 -0.98116148 -0.97412384
3.9827027 -0.96570575 -0.97181153
4.0751791 -0.97906494 -0.96924615
2.8759704 -0.87974304 -1.0018262
2.9090152 -0.87118405 -1.0010365
2.9738317 -0.87462437 -0.99929357
3.0254111 -0.87193835 -0.99795854
3.0755401 -0.89129525 -0.99645126
3.0788875 -0.869151 -0.99657464
3.1309156 -0.88881165 -0.99501443
3.1884041 -0.88622999 -0.99352252
3.2481251 -0.8835634 -0.99197245
3.3083148 -0.89272386 -0.99029732
3.3708878 -0.90224695 -0.98855579
3.4400563 -0.88731456 -0.98687375
3.5079823 -0.89712727 -0.98498809
3.5787697 -0.90735328 -0.98302305
3.6526041 -0.91801941 -0.98097348
3.7343903 -0.90212029 -0.97896791
3.8151193 -0.91315877 -0.97673273
3.8995662 -0.92470562 -0.97439492
3.990644 -0.92232811 -0.97201574
4.0834546 -0.93466067 -0.96945131
2.8849177 -0.81769389 -1.0021828
2.9317193 -0.82463557 -1.000882
2.9817295 -0.82110405 -0.9995966
3.03192 -0.82835466 -0.99820328
3.08392 -0.83586657 -0.99675965
3.1395612 -0.83233553 -0.99532568
3.1973271 -0.82868445 -0.99383676
3.2554979 -0.83663857 -0.99222624
3.3159308 -0.84490192 -0.99055302
3.3767891 -0.86570209 -0.98874903
3.3807321 -0.84128392 -0.98887837
3.448215 -0.8375057 -0.98713434
3.5164294 -0.84630644 -0.98525071
3.5875225 -0.85547858 -0.98328781
3.6616802 -0.8650462 -0.98124015
3.7414656 -0.86148006 -0.97916961
3.8249273 -0.85773665 -0.97700357
3.9097657 -0.86802775 -0.97466719
3.9986115 -0.87880492 -0.97222066
4.0917583 -0.89010376 -0.96965706
2.8924017 -0.76579654 -1.0024812
2.9394169 -0.77186227 -1.0011829
2.98807 -0.77813935 -0.99983978
3.0384488 -0.78463906 -0.99844873
3.0923319 -0.78022152 -0.99706936
3.1482387 -0.77565259 -0.99563825
3.2044926 -0.78247631 -0.99408913
3.2628956 -0.78956079 -0.99248087
3.3235726 -0.79692113 -0.9908098
3.3866601 -0.80457383 -0.98907256
3.4564013 -0.7875244 -0.98739564
3.5249062 -0.79530621 -0.98551428
3.5963068 -0.80341685 -0.98355329
3.6707907 -0.81187785 -0.98150754
3.7485628 -0.82071233 -0.97937155
3.8323064 -0.81603658 -0.97720718
3.9174409 -0.82537973 -0.97487199
4.0092731 -0.82057899 -0.97249556
4.1028676 -0.83048987 -0.96993244
2.8984089 -0.72413933 -1.0027206
2.9455953 -0.72949952 -1.0014247
2.9960227 -0.72424686 -1.0001445
3.046638 -0.7298013 -0.99875641
3.1007748 -0.72437614 -0.9973799
3.1552057 -0.73013997 -0.99588907
3.2116804 -0.73612022 -0.99434221
3.2703166 -0.74232936 -0.99273622
3.3312397 -0.74878061 -0.99106753
3.3945866 -0.75548863 -0.98933244
3.4646168 -0.73736995 -0.98765802
3.5312824 -0.75694323 -0.98571241
3.535543 -0.73130763 -0.98584497
3.6051226 -0.75116706 -0.98381972
3.679935 -0.75851327 -0.98177612
3.7580557 -0.76618445 -0.97964203
3.8397093 -0.77420247 -0.97741127
3.9251418 -0.78259146 -0.97507775
4.0172958 -0.77676249 -0.97270215
4.1112289 -0.78562534 -0.97013974
2.9502411 -0.69764996 -1.0016065
3.0024037 -0.68100429 -1.0003893
3.0548568 -0.67476928 -0.99906528
3.1075535 -0.67953861 -0.99762964
3.1621952 -0.684484 -0.99614084
3.2188921 -0.68961537 -0.99459624
3.2777615 -0.69494343 -0.99299228
3.338932 -0.70047963 -0.99132586
3.4025402 -0.70623648 -0.98959303
3.4707961 -0.69964534 -0.98785532
3.5419497 -0.69276333 -0.98604405
3.6139703 -0.69872808 -0.98408735
3.6891131 -0.70495141 -0.98204565
3.7675843 -0.7114504 -0.97991335
3.8496122 -0.7182439 -0.97768474
3.9328618 -0.73969042 -0.97528374
3.9380231 -0.71101433 -0.97542155
4.0253463 -0.73279822 -0.97291005
4.1196213 -0.74060595 -0.97034824
3.1126504 -0.64582384 -0.99781728
3.1692066 -0.63868409 -0.99639344
3.2261267 -0.64296114 -0.99485099
3.2852316 -0.64740235 -0.99324942
3.3466501 -0.65201735 -0.99158525
3.4105206 -0.65681672 -0.98985445
3.4769931 -0.66181147 -0.98805332
3.5483713 -0.65412784 -0.98624372
3.6228499 -0.64609897 -0.98435569
3.6983247 -0.65119106 -0.98231614
3.7771497 -0.65650916 -0.98018599
3.8595524 -0.66206867 -0.97795904
3.9457841 -0.66788644 -0.97562873
4.0334191 -0.68871504 -0.97311807
4.0388145 -0.65924674 -0.97325718
4.1308498 -0.68037224 -0.97062755
3.2315669 -0.60787666 -0.99504268
3.292726 -0.59970534 -0.99350739
3.354394 -0.60339308 -0.99184549
3.4185286 -0.60722828 -0.99011695
3.48528 -0.61122 -0.98831809
3.5548115 -0.61537796 -0.98644388
3.62953 -0.60650778 -0.98455763
3.7052546 -0.6107462 -0.98251951
3.7843461 -0.61517304 -0.98039103
3.8670325 -0.6198011 -0.97816551
3.9535666 -0.62464452 -0.97583663
4.0442214 -0.62971854 -0.97339666
4.1393003 -0.63504022 -0.97083771
2.8269773 -0.52175599 -0.97191346
3.5612679 -0.57653618 -0.98664474
3.6339941 -0.58004969 -0.98469257
3.7122064 -0.57017612 -0.98272383
3.7891555 -0.58754587 -0.980528
3.7939744 -0.55986625 -0.98066533
3.8745365 -0.57739669 -0.97837257
3.9613738 -0.58125931 -0.97604489
4.0523534 -0.58530617 -0.97360635
2.8206553 -0.47059733 -0.96643329
3.8820601 -0.53488237 -0.97858036
3.969202 -0.53775901 -0.97625387
4.0632339 -0.52588832 -0.97388673
2.8145728 -0.41944844 -0.97118354
2.808332 -0.36895096 -0.96574104
2.8010907 -0.30845213 -0.96937728
2.8046064 -0.33880913 -0.96249259
2.7961659 -0.26860726 -0.96505678
2.7900462 -0.2190991 -0.95968866
2.7839637 -0.16988635 -0.95435238
2.7779217 -0.12100798 -0.94905257
2.7712369 -0.066549212 -0.94514441
2.7649503 -0.014185637 -0.94743431
2.7590294 0.033710003 -0.9422096
2.7531433 0.081324577 -0.93701541
3.8714385 -1.5735116 -0.96895087
3.9698591 -1.5442092 -0.96663523
4.0706944 -1.5279449 -0.96413183
2.825994 -0.52347678 -0.92062759
2.8198719 -0.47197461 -0.92553747
2.8135967 -0.42117083 -0.92022872
2.8073597 -0.37067407 -0.91495192
2.8001237 -0.31017599 -0.9187839
2.803637 -0.3405326 -0.91180229
2.7952018 -0.27033162 -0.91459417
2.7890863 -0.22082403 -0.9093883
2.7831988 -0.17126679 -0.91424
2.7771606 -0.12238878 -0.90906835
2.7697029 -0.061221629 -0.90687406
2.7641945 -0.015567243 -0.90772831
2.7582769 0.032328129 -0.90262914
2.7527032 0.078182459 -0.90170467
2.8250108 -0.52519715 -0.86935389
2.8188925 -0.47369581 -0.87442982
2.8126216 -0.42289278 -0.86928773
2.8063889 -0.37239668 -0.86417615
2.7991567 -0.31189951 -0.86820209
2.8028622 -0.34191111 -0.87125957
2.7942386 -0.27205563 -0.86414301
2.7881265 -0.2225486 -0.85909939
2.7822428 -0.17299187 -0.86411071
2.7762079 -0.12411433 -0.85909939
2.769361 -0.068188906 -0.8558594
2.7632504 -0.017293781 -0.85810506
2.7573366 0.030601323 -0.85316288
2.7513351 0.080320716 -0.85396707
2.8243933 -0.52939558 -0.82090259
2.8179135 -0.47541663 -0.82333398
2.8116465 -0.42461431 -0.81835806
2.8054175 -0.37411892 -0.81341243
2.7981906 -0.31362253 -0.81763363
2.8018932 -0.34363377 -0.8205927
2.7932749 -0.27377915 -0.81370503
2.7875195 -0.22665334 -0.81157726
2.7812867 -0.17471659 -0.81399298
2.7752557 -0.12583947 -0.8091417
2.767808 -0.064673632 -0.80734545
2.7623067 -0.019019842 -0.80849475
2.7563963 0.028874815 -0.80370969
2.7505207 0.076488495 -0.79895264
2.8227673 -0.52555835 -0.77095675
2.8169351 -0.477137 -0.77225184
2.8106718 -0.42633539 -0.76744235
2.8615742 -0.40652284 -0.7430042
2.8056064 -0.37580457 -0.7630583
2.8640485 -0.37547857 -0.74226254
2.9238596 -0.36391956 -0.74066269
2.7972245 -0.31534523 -0.76707667
2.8072972 -0.33356741 -0.7533806
2.8673501 -0.3340534 -0.74127287
2.9264116 -0.3321715 -0.73990369
2.7923117 -0.27550226 -0.76327872
2.8155589 -0.27494043 -0.74113059
2.8714819 -0.28221443 -0.7400344
2.9306684 -0.2792066 -0.73863751
2.9916019 -0.2869007 -0.73743784
2.7859421 -0.22302938 -0.76259333
2.8195777 -0.22410938 -0.73991692
2.875618 -0.23031777 -0.73879457
2.9349303 -0.22618151 -0.73736978
2.9959965 -0.23270607 -0.73614144
3.0598173 -0.23952958 -0.73485768
2.7803311 -0.17644083 -0.76388848
2.8236003 -0.17322296 -0.738702
2.8797598 -0.17835516 -0.73755306
2.938344 -0.18371326 -0.73635453
3.0003958 -0.17844838 -0.73484355
3.0634484 -0.19515079 -0.73379529
3.1322107 -0.1785495 -0.73188275
2.7746258 -0.12752214 -0.75930804
2.8276281 -0.12227315 -0.73748547
2.8839054 -0.12633473 -0.73631018
2.942616 -0.13056755 -0.73508406
3.0039196 -0.13499182 -0.73380393
3.0679932 -0.13961136 -0.73246574
3.1350269 -0.14444923 -0.73106581
3.2071757 -0.12623084 -0.72904152
2.7696748 -0.071324557 -0.75708127
2.8316598 -0.071267754 -0.73626769
2.8872261 -0.084671974 -0.73531485
2.9468923 -0.077361345 -0.73381221
3.0074463 -0.091491967 -0.73276323
3.0725431 -0.084005892 -0.73113465
3.1387858 -0.098942697 -0.7299757
3.2100906 -0.091279566 -0.72820359
2.761363 -0.020745635 -0.75889575
2.7806931 -0.028384209 -0.73646563
2.8348894 -0.030418813 -0.73529238
2.8913813 -0.032535493 -0.73406923
2.9503174 -0.034747928 -0.73279345
3.0118604 -0.037053794 -0.73146099
3.0761871 -0.039468527 -0.7300685
3.1434898 -0.04199031 -0.72861129
3.2139812 -0.044636428 -0.72708535
3.2878919 -0.047410101 -0.72548527
2.7554564 0.027148724 -0.75426745
2.7846203 0.021690786 -0.7352708
2.8389301 0.020698011 -0.73407185
2.8955412 0.019659162 -0.73282236
2.9546037 0.018579483 -0.73151851
3.0162802 0.01744777 -0.7301572
3.0798345 0.0051141977 -0.72900122
3.1482 0.015031576 -0.72724527
3.217875 0.0020564795 -0.72596592
3.2919216 0.00041913986 -0.72433764
3.3706951 0.010954738 -0.72233421
2.7495842 0.074762046 -0.74966633
2.7885523 0.071826935 -0.73407435
2.8429756 0.071870685 -0.73284996
2.8997068 0.071920335 -0.73157376
2.9588952 0.071967781 -0.73024219
3.0189338 0.05018127 -0.72937417
3.0207047 0.072018206 -0.7288518
3.0843997 0.060909033 -0.72766554
3.1519718 0.060704648 -0.72615123
3.2217736 0.048799396 -0.72484529
3.2969642 0.060271084 -0.72290164
3.3738294 0.047762573 -0.72145027
2.961472 0.10403198 -0.72947568
3.0233622 0.10479534 -0.7280677
3.0889707 0.11677033 -0.72632825
3.1557484 0.1064254 -0.72505593
3.2256765 0.09559238 -0.72372353
3.3010039 0.1082139 -0.72175139
3.3780122 0.096885562 -0.72027075
3.4600158 0.097580016 -0.7184121
3.2286062 0.13071835 -0.72288126
3.3040361 0.1442039 -0.72088784
3.3821993 0.14606392 -0.71908975
3.4632711 0.13540286 -0.71750301
3.5519514 0.16302019 -0.7148993
3.4665294 0.17325491 -0.71659321
2.8525176 -0.5201568 -0.74571902
2.911128 -0.52230543 -0.74444878
2.9732032 -0.51377636 -0.74286431
3.0372005 -0.5158782 -0.74147135
2.8558078 -0.47886926 -0.74473256
2.9145193 -0.48012528 -0.74344069
2.9758277 -0.48143685 -0.74209136
3.0399089 -0.48280776 -0.74068058
3.1069565 -0.48424205 -0.73920423
3.1771817 -0.48574442 -0.73765802
3.2518139 -0.47549009 -0.73575306
3.3291473 -0.4768497 -0.73404384
2.8591018 -0.4375425 -0.74374527
2.9187617 -0.42734027 -0.74217874
2.9793277 -0.43828171 -0.74105918
3.0435224 -0.43867639 -0.73962486
3.1106896 -0.43908942 -0.7381236
3.1810403 -0.43952197 -0.73655087
3.2548089 -0.43997556 -0.73490191
3.3322496 -0.44045171 -0.73317063
3.4114985 -0.46583891 -0.73194867
3.4981875 -0.45425177 -0.72974318
3.5884104 -0.45515025 -0.72773391
2.9221597 -0.38507122 -0.74116838
2.983706 -0.38427526 -0.73976713
3.0471373 -0.39450023 -0.73856741
3.1144247 -0.39388973 -0.73704141
3.1849036 -0.39325023 -0.73544276
3.2588058 -0.39257973 -0.73376572
3.3363895 -0.3918758 -0.73200536
3.4157887 -0.41605121 -0.73075324
3.5015278 -0.41592562 -0.72882217
3.5918813 -0.41579324 -0.72678709
3.6872311 -0.41565359 -0.72463959
3.7880039 -0.41550595 -0.72236985
2.9880905 -0.33020616 -0.73847377
3.051661 -0.33921444 -0.73724395
3.1181617 -0.34864303 -0.7359575
3.1887679 -0.34692919 -0.73433256
3.2628074 -0.34513208 -0.73262846
3.3405342 -0.34324548 -0.73083872
3.4200835 -0.36620635 -0.72955638
3.5059862 -0.3647739 -0.72759283
3.5965142 -0.36326432 -0.72552347
3.6920509 -0.36167121 -0.7233395
3.7917695 -0.37387589 -0.72136623
3.8972945 -0.3867867 -0.71927786
4.0105162 -0.38575941 -0.71670884
4.1322126 -0.3694931 -0.71361268
3.05619 -0.28386319 -0.735919
3.122839 -0.29201597 -0.73460102
3.1926355 -0.30055887 -0.73322088
3.2668095 -0.29763275 -0.73148888
3.3446827 -0.29456067 -0.72967058
3.4243836 -0.31630427 -0.72835827
3.5104489 -0.31356192 -0.72636199
3.6011524 -0.31067178 -0.7242583
3.6968775 -0.3076216 -0.72203797
3.7955389 -0.33220145 -0.72036153
3.9025369 -0.32960433 -0.71789789
4.0159936 -0.32685047 -0.7152853
4.1350784 -0.33912158 -0.71287787
3.1275215 -0.23532015 -0.73324275
3.1965075 -0.2541391 -0.732108
3.2708163 -0.25008154 -0.73034811
3.3488326 -0.24582154 -0.72850025
3.428688 -0.26634479 -0.72715861
3.5149179 -0.26228943 -0.72512978
3.6057963 -0.25801545 -0.72299153
3.700501 -0.26704237 -0.72106081
3.8005705 -0.27657625 -0.71902072
3.9077864 -0.27234668 -0.71651584
4.0201068 -0.28261876 -0.71421647
4.1393819 -0.29352176 -0.71177459
3.1303344 -0.20126724 -0.732427
3.2013526 -0.19604221 -0.73071522
3.274827 -0.20247841 -0.72920585
3.3529868 -0.1970278 -0.72732854
3.4329944 -0.21632805 -0.72595668
3.5193911 -0.21095651 -0.72389585
3.6104455 -0.20529529 -0.72172326
3.7041283 -0.226421 -0.72008264
3.8056087 -0.22087976 -0.71767783
3.9117279 -0.22935617 -0.7154783
4.0242243 -0.23833707 -0.71314639
4.1451263 -0.23265111 -0.71030176
3.2052336 -0.14951512 -0.72959971
3.2788424 -0.15482324 -0.72806245
3.3571463 -0.14817941 -0.72615552
3.4373045 -0.16625389 -0.72475314
3.5238657 -0.15956324 -0.72265953
3.6139359 -0.16571531 -0.72077101
3.7077584 -0.18576586 -0.71910352
3.7101803 -0.15863994 -0.71845031
3.8106527 -0.16511187 -0.71633351
3.9156737 -0.18631846 -0.71443951
4.0297203 -0.17922783 -0.71171814
4.1494393 -0.18694478 -0.70919579
3.2828612 -0.10711592 -0.7269178
3.36131 -0.099276274 -0.72498125
3.4416199 -0.11612213 -0.72354823
3.5283456 -0.10810933 -0.72142184
3.6174269 -0.12609556 -0.71981686
3.7138162 -0.11791718 -0.71746945
3.8144403 -0.12324128 -0.7153241
3.9209409 -0.12887162 -0.71305311
4.0338469 -0.1348457 -0.71064556
4.1537576 -0.14118508 -0.7080887
3.2858787 -0.071302891 -0.72605848
3.3654785 -0.050318241 -0.72380555
3.44594 -0.065932781 -0.72234201
3.5328312 -0.056594729 -0.72018254
3.6220856 -0.073215842 -0.71854359
3.7186646 -0.063564271 -0.7161594
3.8182311 -0.081325829 -0.71431363
3.9262142 -0.071349055 -0.7116648
4.0379791 -0.090413213 -0.70957196
4.1580801 -0.095382452 -0.70698053
3.3686075 -0.013565451 -0.7229231
3.4502654 -0.015685856 -0.72113436
3.5373211 -0.0050193667 -0.71894181
3.6267505 -0.020272046 -0.71726865
3.7235188 -0.0091436207 -0.71484756
3.823287 -0.02537936 -0.71296376
3.9301744 -0.028159469 -0.71062243
4.0434937 -0.031102687 -0.7081387
4.1624069 -0.049526334 -0.70587099
3.4545956 0.034619093 -0.71992528
3.5418172 0.046617031 -0.71769965
3.6314206 0.032735944 -0.71599233
3.7271633 0.031714201 -0.71386272
3.8283491 0.030638754 -0.71161205
3.9341345 0.015077114 -0.7095781
4.0476351 0.013430715 -0.70706266
4.166739 -0.0036274195 -0.70476043
3.4578466 0.072384 -0.71901762
3.5463181 0.098314404 -0.71645594
3.6360965 0.085808396 -0.71471429
3.7308111 0.072614551 -0.71287686
3.83215 0.072697282 -0.71059722
3.9394202 0.072789431 -0.70818383
4.0517783 0.058014393 -0.70598477
3.5496974 0.13712567 -0.71552223
3.6407785 0.13894516 -0.71343482
3.7356811 0.12720513 -0.71156085
3.8359537 0.11480069 -0.70958126
3.9433885 0.11612123 -0.70713705
4.0573063 0.11752629 -0.70454538
3.6442928 0.17883813 -0.71247417
3.7405567 0.18186378 -0.7102434
3.841032 0.17099881 -0.70822507
3.9473615 0.15950078 -0.70608908
4.0614567 0.16221088 -0.70346463
3.8448448 0.21319252 -0.70720696
3.9526644 0.21740383 -0.70469028
4.0656118 0.20694619 -0.70238256
3.9927883 -3.0139198 -0.48429751
3.9891944 -3.013453 -0.43835604
3.9873438 -3.0141411 -0.39275092
3.9848785 -3.015058 -0.33198881
3.9830308 -3.0157452 -0.28645074
3.9811845 -3.0164313 -0.2409461
3.9793396 -3.017118 -0.19546832
3.9774957 -3.0178037 -0.1500238
3.9750395 -3.0187173 -0.089475647
3.9930711 -3.0169506 -0.044648618
2.7387147 0.0081093907 0.065132089
2.732913 0.055637717 0.067152008
2.7271452 0.10288876 0.069160178
2.723702 0.13109797 0.070359021
3.9912157 -3.0176387 0.00092187524
2.8487773 -0.903458 0.078619905
2.8435626 -0.86070919 0.080297872
2.8370833 -0.80760336 0.082382366
2.8306446 -0.75482488 0.084454015
2.821703 -0.68152702 0.087331079
2.8255258 -0.71286154 0.086101152
2.8178973 -0.65032947 0.088555634
2.8130412 -0.60857183 0.079942577
2.8067632 -0.55711734 0.081995666
2.8005228 -0.50597501 0.084036306
2.7939868 -0.45085919 0.078117758
2.7871323 -0.39429846 0.078377903
2.789588 -0.41442209 0.077561878
2.7822418 -0.35422376 0.080002956
2.7761607 -0.3043876 0.082023852
2.7701206 -0.25489128 0.084030941
2.7641168 -0.20568952 0.086026132
2.7581539 -0.15682125 0.088007763
2.749866 -0.088900298 0.090761989
2.7534075 -0.11792493 0.089585043
2.745163 -0.05036366 0.092324689
2.7393198 -0.0024755001 0.094266579
2.7323542 0.05460614 0.096581295
2.7265887 0.10185719 0.098497346
2.723146 0.13006622 0.099641226
3.9862909 -3.0219369 0.056465492
2.8479729 -0.90482223 0.12033571
2.8427601 -0.86207414 0.12190263
2.8362851 -0.8089692 0.12384917
2.8298497 -0.75619149 0.12578371
2.8209124 -0.68289483 0.12847036
2.8247328 -0.71422887 0.12732184
2.8171082 -0.6516977 0.12961389
2.8122549 -0.60994065 0.1208946
2.8074083 -0.55853224 0.12279917
2.7999382 -0.50700271 0.11455145
2.8397384 -0.50881505 0.14465997
2.7937436 -0.45621416 0.11647903
2.8720574 -0.46772283 0.14579269
2.8967509 -0.43632498 0.14665818
3.6500268 -0.4993493 0.16430473
2.7863593 -0.39567003 0.11877686
2.7888136 -0.41579345 0.11801312
2.9219141 -0.40433118 0.14754012
3.7039566 -0.44566125 0.16606726
2.7814717 -0.3555958 0.1202978
2.9561081 -0.360854 0.14873858
3.7453957 -0.40440783 0.16742158
2.7753935 -0.30576012 0.12218922
2.9822488 -0.32761616 0.14965481
2.9999475 -0.30511272 0.15027513
3.7735686 -0.37636131 0.16834232
3.8021626 -0.34789526 0.16927685
2.7693567 -0.25626427 0.12406774
3.0269132 -0.27082658 0.15122023
3.8311877 -0.31900012 0.17022546
3.8606544 -0.28966615 0.17118847
2.7626014 -0.20125756 0.12814945
3.0635819 -0.22420299 0.15250546
3.8905706 -0.25988328 0.17216623
2.756958 -0.15422684 0.12594631
3.0916343 -0.18853536 0.15348864
3.1106372 -0.16437349 0.15415467
3.920949 -0.22964102 0.17315906
3.9517994 -0.1989288 0.17416732
2.7491121 -0.090274662 0.13036755
2.7526517 -0.11929899 0.12926599
3.1396065 -0.12753969 0.15517002
3.9831333 -0.16773546 0.17519137
2.7444115 -0.051738173 0.13183013
3.1790285 -0.077415317 0.15655172
4.0311289 -0.11995471 0.17675999
2.7385712 -0.0038502812 0.13364762
3.2194376 -0.026036024 0.15796803
4.0801501 -0.071153432 0.17836209
2.7311802 0.055343688 0.14325434
3.2503815 0.013308585 0.15905258
3.2713604 0.039982975 0.15978786
4.1304998 -0.02102977 0.18000762
2.7256603 0.10013795 0.14738327
3.0623331 0.09481436 0.16364205
3.2926083 0.066998661 0.16053256
3.3141289 0.094362319 0.16128688
2.7222199 0.12834686 0.14843556
3.3359294 0.12208074 0.16205095
3.9512835 0.20318913 0.18804291
4.0039449 -3.0463653 0.10631694
3.3009806 -0.84683192 0.1528971
3.3229213 -0.82498944 0.15361418
3.3564143 -0.7916469 0.1547088
3.4020691 -0.74619621 0.1562009
3.4489651 -0.69951034 0.15773357
3.4971533 -0.65153813 0.15930846
3.5466876 -0.60222572 0.16092736
3.5976257 -0.55151618 0.16259211
2.7466159 -0.083020568 0.1999817
2.7430968 -0.054142833 0.20094649
2.7372618 -0.0062555671 0.20254639
2.7299919 0.054892719 0.19674152
2.7247329 0.09841907 0.19625829
2.9115715 0.06593442 0.18504059
2.7212944 0.12662792 0.19721903
3.3493614 0.12372839 0.18630478
2.8278613 -0.75960696 0.22907129
2.8197165 -0.69338369 0.23450314
2.8232417 -0.72101957 0.22680119
2.8151364 -0.65511703 0.23222335
2.8100929 -0.61370367 0.23347263
2.8038268 -0.56225181 0.23502474
2.7975988 -0.51111197 0.23656742
2.7911453 -0.45728636 0.23384976
2.7842345 -0.3994405 0.22983238
2.786685 -0.41956329 0.22921228
2.7793541 -0.35936743 0.23106721
2.7732844 -0.30953312 0.23260283
2.7672558 -0.26003855 0.234128
2.7600708 -0.20104843 0.23594578
2.7541242 -0.15222302 0.23745032
2.7470393 -0.094052494 0.23924282
2.7505741 -0.12307635 0.23834847
2.7423458 -0.05551675 0.2404303
2.7365131 -0.0076296031 0.24190593
2.7295604 0.049450755 0.24366483
2.7238045 0.096700728 0.24512081
2.7203689 0.12490934 0.24599005
2.9787011 -2.0088158 0.24710801
2.9727645 -1.9600405 0.24842124
2.9668617 -1.9115413 0.24972704
2.9609923 -1.8633158 0.25102547
2.9551563 -1.8153617 0.25231659
2.9493523 -1.7676769 0.25360045
2.9435811 -1.7202588 0.25487715
2.9378424 -1.6731052 0.2561467
2.9321351 -1.6262143 0.25740921
2.9252591 -1.5676425 0.24812996
2.9182167 -1.509783 0.2497253
2.9126186 -1.4637932 0.25099334
2.9070511 -1.418056 0.25225443
2.9015145 -1.3725697 0.2535086
2.8970914 -1.3276701 0.25478968
2.9476933 -1.3105292 0.25738603
3.000452 -1.304101 0.25972027
3.0551829 -1.2974324 0.26214173
3.1119995 -1.2905097 0.2646555
3.1710234 -1.2833183 0.26726693
3.2323847 -1.275842 0.26998174
3.2957268 -1.2674826 0.26057827
3.3621769 -1.2593729 0.2632665
3.4314241 -1.250922 0.26606798
3.5036507 -1.2421074 0.26898992
3.579051 -1.2329054 0.27204028
3.6578407 -1.22329 0.27522776
3.7402534 -1.2132325 0.27856177
3.8258343 -1.2020411 0.26781821
3.9162436 -1.1909897 0.2711336
4.011116 -1.1793926 0.27461269
2.8270664 -0.76097274 0.27037168
2.8194156 -0.69811487 0.27210483
2.8232322 -0.72947478 0.27124014
2.8143482 -0.65648437 0.2732527
2.8093076 -0.61507154 0.27439454
2.8030448 -0.56362039 0.27581316
2.7968197 -0.51248115 0.2772232
2.790638 -0.46169508 0.27862349
2.7832689 -0.40115368 0.28029278
2.7857184 -0.42127618 0.27973795
2.7783909 -0.36108118 0.28139767
2.7723255 -0.31124741 0.28277171
2.7663012 -0.26175347 0.28413638
2.7591209 -0.20276403 0.28576288
2.7531776 -0.1539391 0.28710908
2.7460971 -0.095769078 0.28871298
2.74963 -0.12479267 0.28791273
2.7414069 -0.057233632 0.28977549
2.7355776 -0.0093469918 0.29109585
2.7286296 0.047733068 0.29266968
2.7228775 0.094982803 0.29397243
2.7194438 0.12319112 0.29475021
3.0236502 -2.3846645 0.27113867
3.0174551 -2.3337431 0.27241066
3.0112953 -2.2831159 0.27367529
3.0051718 -2.2327807 0.27493265
2.9975653 -2.1702595 0.27649441
3.0006008 -2.1952102 0.27587116
2.9930286 -2.1329761 0.27742577
2.9870095 -2.0835011 0.27866161
2.9795356 -2.022069 0.28019619
2.9721112 -1.9610435 0.28172058
2.9662108 -1.9125453 0.28293204
2.9603434 -1.8643209 0.28413665
2.9545097 -1.8163679 0.2853345
2.9487081 -1.7686839 0.28652564
2.9429393 -1.721267 0.2877101
2.9372025 -1.6741145 0.28888795
2.9314981 -1.6272243 0.29005924
2.9244127 -1.5689908 0.29151389
2.9173737 -1.5111328 0.29295915
2.9117785 -1.4651442 0.29410794
2.9062142 -1.4194082 0.29525042
2.9006801 -1.3739228 0.29638663
2.8974061 -1.3293831 0.29761946
2.9492188 -1.3126342 0.3010304
3.0020442 -1.3062397 0.3041679
3.0568476 -1.2996061 0.30742282
3.1137404 -1.2927196 0.31080186
3.1728439 -1.2855651 0.31431222
3.2342896 -1.2781268 0.31796169
3.2977219 -1.2698066 0.30951729
3.3637476 -1.2611468 0.30071959
3.433073 -1.2527277 0.30431187
3.5053806 -1.2439457 0.30805868
3.5808682 -1.2347777 0.31197029
3.6597509 -1.2251971 0.31605783
3.7422628 -1.215176 0.32033342
3.8286581 -1.2046825 0.32481033
3.9192195 -1.1936829 0.32950306
4.013474 -1.181453 0.31945911
2.8608384 -1.0524776 0.33596757
2.8555489 -1.0089848 0.33696949
2.8581901 -1.030702 0.33646917
2.8502903 -0.96574348 0.33796555
3.2580423 -0.96898443 0.34112078
3.2873812 -0.99823654 0.34193951
2.843751 -0.91197991 0.33920404
3.2010345 -0.91214395 0.3395299
3.2292657 -0.94029224 0.34031773
2.8385525 -0.86923563 0.34018868
3.1461477 -0.85741872 0.33799821
3.1733336 -0.88452441 0.33875686
2.8320947 -0.81613541 0.34141189
3.1194634 -0.83081281 0.33725351
2.8260741 -0.76267952 0.32198501
2.8184276 -0.69982278 0.3235144
2.8222418 -0.73118216 0.3227514
2.8133631 -0.65819305 0.32452732
2.8083258 -0.616781 0.32553494
2.8020668 -0.56533062 0.32678682
2.7958465 -0.51419228 0.32803112
2.7896686 -0.46340695 0.32926682
2.7823043 -0.40286642 0.33073992
2.7847514 -0.42298865 0.33025026
2.7774291 -0.3627944 0.33171493
2.7713675 -0.31296134 0.33292741
2.7653465 -0.26346794 0.33413172
2.7581711 -0.20447922 0.335567
2.7522316 -0.15565473 0.33675498
2.7451553 -0.097485274 0.33817035
2.7486863 -0.12650859 0.33746415
2.740468 -0.058950156 0.33910799
2.7346425 -0.011063814 0.34027314
2.7276988 0.046015859 0.34166196
2.7219505 0.093265176 0.34281158
2.7178564 0.12598747 0.34848002
3.0227528 -2.385988 0.31662801
3.0165615 -2.3350682 0.31776798
3.0104051 -2.2844429 0.31890136
3.0042844 -2.2341094 0.32002825
2.9966817 -2.1715901 0.32142791
2.9997163 -2.1965404 0.32086933
2.9921484 -2.1343079 0.32226259
2.9861321 -2.0848346 0.32337016
2.978662 -2.0234041 0.32474548
2.971241 -1.9623806 0.32611164
2.965344 -1.913884 0.32719737
2.9594798 -1.865661 0.32827699
2.9536486 -1.8177094 0.32935053
2.9478502 -1.7700268 0.33041802
2.941669 -1.7204487 0.33809215
2.9361377 -1.6757964 0.34344503
2.9304366 -1.6289079 0.34446439
2.9233561 -1.5706762 0.34573036
2.9163218 -1.5128201 0.34698814
2.9107304 -1.4668329 0.34798789
2.905169 -1.4210982 0.34898219
2.8996391 -1.3756142 0.349971
2.8898258 -1.2969453 0.36235324
2.8951688 -1.3307011 0.35101342
2.9503622 -1.3142142 0.33380377
2.8857388 -1.2633264 0.36306232
2.924994 -1.2736869 0.33336788
2.8818965 -1.2187529 0.35346985
3.3653088 -1.2629199 0.33821419
3.4347086 -1.2545319 0.34259892
3.5070968 -1.2457826 0.34717247
2.875123 -1.1739836 0.3543545
3.4761829 -1.1864824 0.34720832
3.5099564 -1.2201567 0.34815082
2.8684201 -1.1188562 0.35555294
3.4268975 -1.1373422 0.34583294
4.0150375 -1.1828264 0.34939629
2.8619437 -1.0663941 0.36089918
3.3789353 -1.0895213 0.34449446
2.8549418 -1.0100054 0.36840546
2.8575821 -1.0317223 0.3679474
3.3325539 -1.0432763 0.34320015
2.8496852 -0.96676469 0.36931753
2.8431487 -0.91300178 0.37045148
2.8379521 -0.87025809 0.37135303
2.8314972 -0.81715852 0.37247306
2.8250809 -0.76438588 0.37358612
2.8174391 -0.70153034 0.3749119
2.8212519 -0.73288918 0.37425047
2.8123789 -0.65990138 0.37578994
2.8073444 -0.61849004 0.37666345
2.8010898 -0.56704056 0.37774861
2.7948728 -0.51590294 0.37882721
2.7886987 -0.46511838 0.37989843
2.7813392 -0.40457875 0.38117534
2.7837853 -0.42470074 0.38075092
2.7764678 -0.36450726 0.38202053
2.7704096 -0.31467482 0.38307166
2.7643924 -0.26518208 0.38411558
2.7572207 -0.20619389 0.38535979
2.7512856 -0.15736997 0.38638961
2.7453904 -0.10887545 0.38741249
2.7391834 -0.058950275 0.39438355
2.733521 -0.013123512 0.39927068
2.7265825 0.043955564 0.40043765
2.7208385 0.091204584 0.40140361
2.71627 0.12878424 0.40217191
3.0218568 -2.3873115 0.36210725
3.0156684 -2.3363934 0.36311525
3.0095153 -2.2857699 0.36411744
3.0033979 -2.2354383 0.36511388
2.9957991 -2.1729209 0.36635154
2.9988317 -2.1978703 0.3658576
2.9910483 -2.135973 0.37829429
2.9850359 -2.0865018 0.37924165
2.9775705 -2.0250735 0.38041791
2.9701552 -1.9640523 0.38158649
2.9642615 -1.9155577 0.38251513
2.9584012 -1.8673364 0.38343853
2.9525738 -1.8193865 0.38435674
2.9467793 -1.7717055 0.38526982
2.9412189 -1.7267902 0.39050478
2.9350739 -1.6774782 0.39798856
2.9293766 -1.6305913 0.39885604
2.9223008 -1.5723616 0.3999334
2.9152708 -1.5145072 0.40100384
2.9096828 -1.4685215 0.40185463
2.9041252 -1.4227881 0.40270078
2.8985987 -1.3773055 0.40354228
2.8889985 -1.2983 0.40500408
2.8931022 -1.3320714 0.40437922
2.8849134 -1.2646818 0.40562606
2.8794913 -1.2200603 0.40645164
2.8740988 -1.1756803 0.40727276
2.8674002 -1.1205543 0.40829271
2.8607435 -1.0657741 0.40930623
2.8541327 -1.0113659 0.41031292
2.856771 -1.0330825 0.40991113
2.8488784 -0.96812606 0.41111293
2.8423457 -0.9143641 0.41210765
2.8371515 -0.87162125 0.41289848
2.8306994 -0.81852245 0.41388088
2.8242874 -0.76575065 0.41485733
2.816452 -0.70323753 0.42629558
2.820262 -0.73459566 0.42573571
2.8113942 -0.66160923 0.42703885
2.8063631 -0.62019861 0.42777824
2.8001122 -0.56874996 0.42869681
2.7938991 -0.51761323 0.42960984
2.7877293 -0.46682942 0.4305166
2.7815971 -0.4163515 0.43141788
2.7755055 -0.36621964 0.43231297
2.7694516 -0.31638789 0.43320274
2.7634387 -0.26689568 0.43408638
2.7562718 -0.20790821 0.4351396
2.75034 -0.15908477 0.43601131
2.7444477 -0.11059061 0.43687719
2.7387495 -0.064441055 0.44164544
2.7325864 -0.0148395 0.44842267
2.7256522 0.042239189 0.4494049
2.7199116 0.08948791 0.45021778
2.7153463 0.12706721 0.45086443
3.0207372 -2.3889651 0.4189415
3.0145521 -2.3380494 0.41978467
3.0084028 -2.2874279 0.42062294
3.0022898 -2.2370982 0.4214564
2.9946961 -2.1745839 0.42249161
2.9977264 -2.199532 0.42207849
2.9899478 -2.1376371 0.43431163
2.9839396 -2.0881681 0.43509877
2.9764795 -2.0267425 0.43607616
2.9690681 -1.9657234 0.43704718
2.9631786 -1.9172305 0.43781883
2.9573221 -1.8690112 0.43858618
2.951499 -1.8210629 0.43934911
2.9457078 -1.7733837 0.44010776
2.9399495 -1.7259712 0.44086224
2.9342232 -1.6788232 0.44161248
2.9285288 -1.6319377 0.44235855
2.9214568 -1.5737094 0.44328511
2.9144301 -1.5158566 0.44420564
2.9088449 -1.4698718 0.44493741
2.9032907 -1.4241397 0.44566512
2.8977671 -1.3786581 0.44638884
2.8881717 -1.2996545 0.44764596
2.8922729 -1.333425 0.44710863
2.8840885 -1.266037 0.44818097
2.8782754 -1.2193949 0.45528686
2.8730745 -1.1773765 0.46017647
2.8663802 -1.122252 0.46101791
2.8597279 -1.0674732 0.46185416
2.8531213 -1.0130663 0.46268469
2.8557582 -1.0347823 0.46235323
2.8478703 -0.96982741 0.46334475
2.841342 -0.91606665 0.46416545
2.8361511 -0.87332463 0.46481794
2.8297033 -0.82022697 0.4656285
2.8232951 -0.76745623 0.46643406
2.8154645 -0.70494419 0.47766715
2.8192725 -0.73630178 0.47720879
2.81041 -0.66331673 0.47827572
2.8053823 -0.62190682 0.47888112
2.7991352 -0.57045901 0.47963315
2.7929263 -0.51932305 0.48038065
2.7867603 -0.46854004 0.48112309
2.7806311 -0.41806284 0.481861
2.7745442 -0.36793166 0.48259383
2.7684941 -0.31810057 0.48332226
2.7624846 -0.26860893 0.4840458
2.7553229 -0.20962209 0.48490816
2.7493944 -0.16079912 0.48562181
2.7433176 -0.11264837 0.49621952
2.7374654 -0.064440161 0.49689305
2.7316518 -0.016555101 0.49756211
2.7247224 0.040523291 0.49835956
2.7189851 0.087771654 0.49901956
2.7144227 0.12535083 0.49954456
3.0196166 -2.3906181 0.475761
3.0134363 -2.3397045 0.47643936
3.0072913 -2.2890854 0.47711384
3.0011816 -2.2387581 0.4777844
2.9935932 -2.1762462 0.47861731
2.9966211 -2.2011933 0.4782849
2.9890676 -2.138968 0.479114
2.9830627 -2.0895009 0.4797731
2.9756064 -2.0280771 0.48059154
2.9681993 -1.9670599 0.48140454
2.9623127 -1.9185685 0.4820506
2.9564595 -1.8703507 0.48269308
2.9506392 -1.8224038 0.48333192
2.9448509 -1.774726 0.48396719
2.9390955 -1.7273148 0.48459888
2.933372 -1.6801682 0.48522705
2.927681 -1.6332837 0.48585176
2.9201021 -1.5724064 0.4947859
2.9133797 -1.5175428 0.49819469
2.9077983 -1.4715595 0.49877763
2.9022474 -1.4258287 0.49935734
2.8967271 -1.3803484 0.4999339
2.8871374 -1.3013471 0.50093538
2.8912373 -1.3351167 0.50050735
2.8830581 -1.2677305 0.50136155
2.8778296 -1.2254717 0.50613862
2.8720508 -1.1790725 0.51306731
2.8653607 -1.1239493 0.51373047
2.8587127 -1.0691718 0.51438946
2.8521099 -1.0147662 0.51504397
2.8547454 -1.0364817 0.51478273
2.8468628 -0.97152829 0.51556414
2.8403382 -0.91776872 0.51621085
2.8351512 -0.87502766 0.51672506
2.8287072 -0.82193106 0.51736385
2.8223033 -0.76916146 0.5179987
2.8146749 -0.70630926 0.51875484
2.8184805 -0.73766637 0.51837754
2.8096232 -0.66468233 0.51925558
2.8045974 -0.62327302 0.51975381
2.7981586 -0.57216763 0.5305559
2.7919536 -0.52103251 0.531138
2.7857919 -0.47025022 0.53171617
2.7796664 -0.41977376 0.53229082
2.7735834 -0.36964327 0.53286141
2.7675366 -0.31981277 0.53342873
2.7615314 -0.27032173 0.53399211
2.7543736 -0.21133563 0.53466362
2.7484493 -0.16251311 0.53521943
2.7423768 -0.11436281 0.54565865
2.7365274 -0.066154987 0.54617625
2.7307177 -0.018270254 0.5466904
2.7237921 0.03880769 0.54730326
2.7180586 0.086055875 0.54781044
2.7134991 0.12363476 0.5482139
3.0187206 -2.3919401 0.52120477
3.0125432 -2.3410287 0.5217514
3.0064011 -2.290411 0.52229488
3.0002952 -2.2400856 0.5228352
2.9936461 -2.1860018 0.52716279
2.9959588 -2.2021897 0.51200134
2.9881878 -2.1402988 0.52390653
2.9821858 -2.0908332 0.52443761
2.9747334 -2.0294113 0.52509713
2.96733 -1.9683962 0.52575219
2.959764 -1.9081525 0.53744912
2.962008 -1.9238241 0.52254742
2.9551754 -1.8694865 0.53342503
2.9495645 -1.8240794 0.53829664
2.9437799 -1.7764032 0.53877771
2.9380283 -1.7289939 0.5392561
2.9323092 -1.6818486 0.53973174
2.9266214 -1.6349659 0.5402047
2.9198394 -1.5802513 0.54694408
2.9123292 -1.5192287 0.55217034
2.9067516 -1.4732466 0.55260456
2.9012041 -1.4275174 0.55303639
2.8956876 -1.3820384 0.55346584
2.8861046 -1.3030393 0.55421185
2.8902011 -1.336808 0.55389297
2.8820267 -1.2694237 0.55452931
2.8766146 -1.2248056 0.55495065
2.8712316 -1.1804287 0.55536973
2.8645453 -1.1253068 0.55589026
2.8579011 -1.0705304 0.55640757
2.8513012 -1.0161257 0.5569213
2.8539352 -1.0378408 0.55671626
2.8455782 -0.97044623 0.56517953
2.839335 -0.91947043 0.56824219
2.8341513 -0.8767302 0.56861812
2.8277111 -0.82363474 0.56908518
2.8213115 -0.77086616 0.56954944
2.8136883 -0.70801514 0.57010227
2.8174911 -0.73937172 0.56982642
2.808639 -0.66638899 0.57046843
2.803617 -0.62498039 0.57083273
2.7971821 -0.57387584 0.58146685
2.7909813 -0.5227415 0.58188361
2.7848229 -0.47196001 0.5822975
2.7787018 -0.42148423 0.58270895
2.7726226 -0.37135446 0.58311749
2.7665796 -0.32152462 0.58352369
2.7605777 -0.27203417 0.58392704
2.7534246 -0.21304867 0.58440787
2.7471547 -0.16248605 0.59076703
2.7414351 -0.11607662 0.59508502
2.73559 -0.067869306 0.59544677
2.7297835 -0.019984961 0.59580612
2.7228627 0.037092566 0.59623444
2.7171326 0.084340394 0.59658885
2.7125759 0.12191916 0.59687084
3.0178246 -2.3932619 0.56663841
3.0116506 -2.3423519 0.56705332
3.0055122 -2.2917361 0.5674659
2.9994092 -2.2414122 0.56787604
2.993341 -2.1913776 0.5682838
2.9873085 -2.1416292 0.56868929
2.9808788 -2.0898986 0.57580477
2.9745531 -2.0379763 0.57748914
2.9672976 -1.9792838 0.58388084
2.958899 -1.9094901 0.58162725
2.9618306 -1.9336655 0.58144587
2.9547234 -1.8759009 0.58628541
2.9484897 -1.8257545 0.59324753
2.9427094 -1.77808 0.59357446
2.9369621 -1.7306724 0.59389949
2.9312458 -1.6835288 0.59422278
2.9255619 -1.6366476 0.59454429
2.9185028 -1.5784246 0.59494346
2.9114895 -1.5205768 0.59534019
2.9059143 -1.4745963 0.5956555
2.9003701 -1.4288679 0.59596908
2.894856 -1.3833899 0.59628087
2.8852782 -1.3043928 0.59682262
2.8893723 -1.3381606 0.59659106
2.8808079 -1.2687441 0.6034416
2.8755879 -1.2264994 0.60795939
2.8702083 -1.1821239 0.60823494
2.8635259 -1.1270032 0.60857737
2.8568864 -1.0722282 0.60891759
2.8502908 -1.0178249 0.60925549
2.8529234 -1.0395396 0.60912067
2.8453078 -0.97786582 0.6154654
2.8383317 -0.92117167 0.62026101
2.8331513 -0.87843239 0.62049878
2.8267159 -0.82533801 0.6207943
2.8203197 -0.77257049 0.62108797
2.8127012 -0.70972067 0.62143767
2.8165021 -0.74107665 0.62126321
2.8076558 -0.66809529 0.62166935
2.8026366 -0.62668741 0.62189978
2.796401 -0.57524204 0.62218606
2.7900085 -0.52445006 0.63261575
2.7838545 -0.47366932 0.63286549
2.7777371 -0.42319429 0.6331138
2.7716618 -0.37306517 0.63336039
2.7656226 -0.32323596 0.63360554
2.7596245 -0.27374607 0.63384897
2.7524762 -0.21476126 0.63413912
2.7467198 -0.16802311 0.63833266
2.7404943 -0.11779025 0.64450026
2.7346525 -0.069583297 0.64470619
2.7288494 -0.021699309 0.64491081
2.7219334 0.03537792 0.64515471
2.7162075 0.082625329 0.64535642
2.7116532 0.12020385 0.64551693
3.0169291 -2.3945832 0.61206198
3.0107579 -2.3436751 0.61234522
3.0046229 -2.2930615 0.61262685
2.9983015 -2.2430708 0.6241625
2.9922385 -2.193038 0.6244086
2.9862089 -2.143292 0.62465334
2.9804249 -2.0964289 0.62934512
2.9740353 -2.0449824 0.63626635
2.9666352 -1.9839143 0.63652724
2.957818 -1.9111617 0.63683802
2.9607477 -1.9353364 0.63673472
2.9534402 -1.8750362 0.63699234
2.9476309 -1.8270943 0.6371972
2.9418535 -1.7794212 0.63740087
2.9361086 -1.7320148 0.6376034
2.9303961 -1.6848727 0.63780481
2.9247146 -1.6379926 0.63800508
2.9176593 -1.5797712 0.63825381
2.910244 -1.5198219 0.6449793
2.9048676 -1.4762826 0.64945596
2.8993278 -1.4305556 0.64962178
2.8938169 -1.3850793 0.64978671
2.8842449 -1.3060842 0.65007311
2.8883367 -1.3398511 0.64995068
2.8803611 -1.2748425 0.65443486
2.8745613 -1.2281929 0.66095525
2.869185 -1.1838185 0.66108751
2.8625073 -1.1286993 0.66125172
2.8558712 -1.0739255 0.66141498
2.8492804 -1.0195236 0.66157711
2.8519106 -1.0412376 0.66151237
2.8440423 -0.97628844 0.66170597
2.8375297 -0.92253232 0.66186619
2.8323517 -0.87979376 0.66199356
2.8254499 -0.82430804 0.66990781
2.8193283 -0.77427435 0.67261261
2.8117151 -0.71142572 0.67275929
2.8155136 -0.7427811 0.6726861
2.8066726 -0.66980106 0.67285645
2.8016567 -0.62839395 0.67295313
2.7954249 -0.57694942 0.67307323
2.7890368 -0.52615821 0.68333602
2.7828865 -0.47537825 0.68342179
2.776773 -0.42490396 0.68350703
2.7707014 -0.37477559 0.68359172
2.7646661 -0.32494694 0.68367589
2.7586722 -0.27545765 0.68375945
2.7511082 -0.21382335 0.68811917
2.7454257 -0.16799501 0.69385201
2.7395535 -0.11950338 0.69390255
2.7337151 -0.071296871 0.69395292
2.7279162 -0.023413241 0.69400293
2.721004 0.033663571 0.69406247
2.7152815 0.080910802 0.69411153
2.7069631 0.14587015 0.71359468
2.7107306 0.11848909 0.69415069
3.01581 -2.3962345 0.66882652
3.0096426 -2.3453293 0.66894543
3.0035119 -2.2947173 0.66906351
2.9971948 -2.244729 0.68043458
2.9911351 -2.1946983 0.6805191
2.9851098 -2.144954 0.68060303
2.9791193 -2.095494 0.68068647
2.9731622 -2.0463154 0.68076956
2.965766 -1.9852492 0.68087268
2.956954 -1.9124988 0.6809954
2.9598818 -1.9366726 0.68095469
2.9525785 -1.8763742 0.68105644
2.9467711 -1.8284338 0.68113732
2.9409976 -1.7807621 0.68121779
