# .PCD v0.7 - Point Cloud Data file format
VERSION 0.7
FIELDS x y z
SIZE 4 4 4
TYPE F F F
COUNT 1 1 1
WIDTH 1505
HEIGHT 1
VIEWPOINT 0 0 0 1 0 0 0
POINTS 1505
DATA ascii
3.0894582 0.45262837 0.64515591
3.090884 0.50737965 0.6447379
3.0923066 0.56201005 0.64432085
3.0934424 0.6056186 0.64398783
3.0942926 0.63827312 0.64373851
3.7305918 -3.6374757 0.66635936
3.0484576 -1.1233102 0.68062037
3.0493724 -1.0881723 0.68033487
3.0505905 -1.0413979 0.67995495
3.051806 -0.99471492 0.6795758
3.0530195 -0.9481228 0.67919719
3.0542302 -0.90162146 0.67881936
3.0554388 -0.85521048 0.6784423
3.0572474 -0.78576326 0.67787826
3.0563438 -0.82045871 0.67816007
3.0585203 -0.73731077 0.68445641
3.0596673 -0.6935482 0.68874025
3.0608654 -0.64754069 0.68835521
3.0620613 -0.60162246 0.687971
3.0635524 -0.54435396 0.68749171
3.0649879 -0.48952332 0.69165605
3.0662451 -0.44167131 0.69818193
3.06743 -0.39614999 0.69778991
3.0686133 -0.35071635 0.6973986
3.0700886 -0.29405177 0.6969105
3.0715613 -0.23751414 0.69642359
3.0727363 -0.19238526 0.69603491
3.0739093 -0.14734286 0.69564706
3.0750799 -0.10238671 0.69525987
3.0771232 -0.023917496 0.69458395
3.0762479 -0.057516575 0.69487333
3.0779963 0.0096278787 0.69429499
3.079159 0.054284155 0.69391036
3.0803196 0.098855257 0.69352651
3.0817676 0.15444541 0.69304776
3.0832114 0.20991206 0.69256997
3.0843642 0.25418735 0.69218862
3.0855153 0.29837823 0.69180804
3.0869503 0.35349488 0.69133335
3.0883822 0.4084897 0.69085968
3.0895252 0.45238841 0.69048166
3.090951 0.50714076 0.69001001
3.0923736 0.56177258 0.68953943
3.0935094 0.60538197 0.68916386
3.0943596 0.63803756 0.68888265
3.7327256 -3.6393023 0.71226454
3.0485263 -1.1235899 0.72748792
3.0494409 -1.088451 0.72716808
3.0506592 -1.0416754 0.72674233
3.0518746 -0.99499124 0.72631747
3.0531588 -0.9461118 0.73287517
3.0543156 -0.90196389 0.73713326
3.0555246 -0.85555154 0.73669946
3.0573323 -0.78610194 0.73605031
3.0564291 -0.82079858 0.73637468
3.0584819 -0.74224865 0.74028856
3.0597527 -0.69388396 0.74679995
3.0609508 -0.64787507 0.74635875
3.0621462 -0.60195529 0.74591827
3.0636375 -0.54468513 0.74536908
3.0651252 -0.48754361 0.74482113
3.066313 -0.44193345 0.74438375
3.0674984 -0.39641118 0.74394703
3.0686812 -0.35097629 0.74351132
3.0701566 -0.29431033 0.7429679
3.071629 -0.23777133 0.74242574
3.072804 -0.19264132 0.74199295
3.0739768 -0.14759785 0.74156088
3.0751476 -0.10264063 0.74112976
3.0766075 -0.046569347 0.74059206
3.0780642 0.0093770027 0.74005544
3.079227 0.054034472 0.73962712
3.0803876 0.098606586 0.73919976
3.0818346 0.15419805 0.73866659
3.0832794 0.20966625 0.73813456
3.0844321 0.25394225 0.73770994
3.0855827 0.29813457 0.73728609
3.0870178 0.35325241 0.7367574
3.0884492 0.40824854 0.73623002
3.0895925 0.4521482 0.73580903
3.0911021 0.50959241 0.74374479
3.0924578 0.56147599 0.74606544
3.0935934 0.60508633 0.74563646
3.0944433 0.63774323 0.74531531
3.7355754 -3.6417406 0.77354896
3.0486116 -1.1239394 0.786075
3.0495269 -1.0887995 0.78571224
3.0507448 -1.0420223 0.78522933
3.0519605 -0.99533665 0.78474736
3.0531197 -0.95109683 0.78895915
3.0544012 -0.90230632 0.79544967
3.0556097 -0.85589242 0.79495919
3.0574181 -0.78644067 0.79422522
3.0565147 -0.8211385 0.79459196
3.0586207 -0.7402519 0.79373705
3.0598211 -0.69415259 0.79324996
3.0610189 -0.64814258 0.79276377
3.0622144 -0.60222161 0.79227841
3.0637054 -0.54494989 0.79167306
3.0651937 -0.48780715 0.79106921
3.066381 -0.44219571 0.79058731
3.0675659 -0.39667225 0.79010612
3.0687494 -0.3512364 0.789626
3.0702245 -0.29456902 0.78902704
3.0716968 -0.23802853 0.78842956
3.0728719 -0.19289732 0.78795266
3.0740447 -0.14785272 0.78747666
3.0752151 -0.10289419 0.78700149
3.0766747 -0.046821535 0.78640884
3.0781314 0.0091260076 0.78581768
3.0792944 0.05378449 0.78534567
3.0804551 0.098357797 0.78487456
3.0819023 0.15395069 0.78428715
3.0834146 0.21159935 0.79051107
3.0845165 0.25363624 0.79461408
3.0856671 0.29782987 0.79413629
3.0871022 0.35294926 0.79354036
3.0885341 0.40794694 0.79294562
3.0896773 0.45184839 0.79247099
3.0910308 0.50344384 0.79837924
3.0925419 0.56117928 0.80259401
3.0936773 0.6047914 0.80211174
3.0945275 0.63744879 0.80175066
3.7377152 -3.6435714 0.81957024
3.0486975 -1.124289 0.84466481
3.0496123 -1.0891479 0.84425908
3.0508306 -1.0423694 0.84371901
3.0520461 -0.99568206 0.84318
3.0532587 -0.94908577 0.84264207
3.0544701 -0.90258032 0.84210509
3.0556779 -0.85616523 0.84156913
3.0574863 -0.78671175 0.8407672
3.0565827 -0.8214103 0.84116787
3.0586891 -0.74052173 0.84023404
3.0598891 -0.69442123 0.83970171
3.0610871 -0.6484102 0.8391704
3.0622826 -0.60248798 0.83864027
3.0637736 -0.54521471 0.83797896
3.0652614 -0.48807061 0.83731914
3.0664487 -0.44245794 0.83679259
3.0676343 -0.39693344 0.83626693
3.0688171 -0.35149646 0.83574229
3.0702925 -0.29482758 0.83508801
3.0717645 -0.2382856 0.83443522
3.0729392 -0.19315338 0.8339141
3.0741124 -0.14810771 0.83339411
3.0752828 -0.1031481 0.83287495
3.0768332 -0.043900847 0.83709753
3.0782161 0.0088123083 0.84302288
3.0793786 0.053472161 0.84249628
3.0805392 0.09804678 0.84197092
3.0819869 0.15364146 0.84131533
3.0833802 0.20687211 0.84524339
3.0846007 0.25332999 0.85152078
3.0857511 0.29752469 0.85098892
3.0871863 0.35264623 0.8503257
3.0886183 0.40764558 0.84966373
3.089761 0.45154822 0.84913534
3.0911865 0.50630534 0.84847635
3.0926089 0.56094193 0.84781879
3.093744 0.60455501 0.84729391
3.0945947 0.63721335 0.84690094
3.7405729 -3.6460164 0.88101745
3.7391434 -3.6447933 0.85028219
3.0487664 -1.1245687 0.89153886
3.0496809 -1.0894266 0.89109874
3.0508993 -1.0426469 0.89051306
3.0521145 -0.99595845 0.88992828
3.0533276 -0.94936097 0.88934469
3.0545382 -0.90285426 0.88876224
3.0557466 -0.85643798 0.88818103
3.0575547 -0.78698277 0.8873111
3.0566514 -0.82168221 0.88774574
3.0587571 -0.74079156 0.8867327
3.0599575 -0.69468993 0.88615531
3.0611553 -0.64867759 0.88557911
3.062351 -0.60275435 0.88500392
3.0638418 -0.54547954 0.8842867
3.0653298 -0.48833403 0.88357103
3.0665169 -0.44272029 0.88299972
3.0677018 -0.39719456 0.8824296
3.0688853 -0.35175639 0.88186055
3.0703602 -0.29508609 0.8811509
3.0718496 -0.23860711 0.89194506
3.0730243 -0.19347346 0.89136875
3.0741968 -0.14842629 0.8907935
3.0753675 -0.10346538 0.89021945
3.0767584 -0.050205529 0.8924017
3.0783007 0.0084985495 0.90023088
3.0794635 0.053159714 0.89964962
3.0806239 0.097735882 0.89906973
3.0820708 0.15333211 0.89834619
3.0835149 0.20880497 0.89762437
3.0846679 0.25308502 0.89704823
3.0858183 0.29728091 0.89647311
3.0872533 0.35240376 0.89575583
3.0886855 0.40740466 0.89504015
3.0898283 0.45130813 0.89446884
3.0912533 0.50606644 0.89375627
3.0926759 0.56070435 0.89304531
3.0938115 0.60431862 0.89247781
3.0946615 0.63697779 0.89205283
3.7427187 -3.6478529 0.92716712
3.048835 -1.1248484 0.93841481
3.0497496 -1.0897055 0.93794036
3.0509672 -1.0429244 0.93730867
3.0521827 -0.99623483 0.93667835
3.053396 -0.94963616 0.93604922
3.0546067 -0.90312827 0.93542123
3.055815 -0.85671079 0.93479455
3.0576231 -0.78725374 0.9338569
3.0567195 -0.82195419 0.93432528
3.0588253 -0.74106145 0.9332332
3.0600259 -0.69495857 0.93261075
3.0612235 -0.64894515 0.93198943
3.0624192 -0.60302067 0.93136948
3.0639095 -0.5457446 0.93059623
3.0653975 -0.48859751 0.92982459
3.0666544 -0.44074339 0.93610793
3.0677874 -0.39752108 0.94013548
3.06897 -0.35208142 0.93951088
3.0704448 -0.29540932 0.93873197
3.0719342 -0.23892856 0.94945729
3.0731091 -0.19379359 0.94882584
3.0742817 -0.148745 0.9481957
3.0754521 -0.10378265 0.94756663
3.0769119 -0.047704995 0.94678205
3.0783684 0.0082473755 0.94599926
3.0795312 0.052909791 0.94537449
3.0806911 0.097486973 0.94475073
3.0821385 0.15308464 0.943973
3.0835824 0.20855892 0.94319689
3.0847354 0.2528398 0.9425773
3.0858858 0.29703701 0.94195902
3.0873206 0.35216105 0.94118786
3.0887525 0.40716326 0.9404183
3.0898952 0.45106804 0.9398042
3.0913208 0.5058279 0.93903798
3.0927432 0.56046677 0.93827367
3.0938787 0.60408211 0.93766338
3.0947287 0.63674235 0.93720657
3.7448676 -3.6496913 0.97336352
3.0467799 -1.2074111 0.99822247
3.0732284 -1.2099888 0.98307401
3.1502364 -1.2177626 0.98303771
3.2324784 -1.2135603 0.98312414
3.3177161 -1.2218364 0.98308724
3.4075506 -1.2305589 0.98304838
3.5023642 -1.2397647 0.98300737
3.0484178 -1.1439145 0.98791051
3.0768955 -1.1746674 0.98342925
3.1552646 -1.1694906 0.98352337
3.2363596 -1.1764286 0.98349768
3.321713 -1.183731 0.98347062
3.4116704 -1.1914271 0.98344207
3.5066147 -1.1995499 0.98341191
3.606972 -1.208136 0.9833802
3.7132192 -1.2172258 0.98334646
3.8258893 -1.2268652 0.9833107
3.9472067 -1.2220293 0.98342448
3.0498183 -1.0899842 0.98478377
3.0510361 -1.043202 0.98410642
3.0522513 -0.99651116 0.98343027
3.0534642 -0.94991136 0.9827556
3.0546753 -0.90340227 0.98208225
3.0558834 -0.85698366 0.98141015
3.0576913 -0.78752482 0.98040432
3.0567877 -0.82222611 0.98090678
3.0588937 -0.74133128 0.97973555
3.0600939 -0.69522727 0.9790681
3.0612915 -0.6492126 0.97840166
3.0625041 -0.60335362 0.98932898
3.0639946 -0.54607558 0.98848575
3.0654824 -0.4889268 0.9876442
3.0666175 -0.44561538 0.9916262
3.067872 -0.39784747 0.99784416
3.0690551 -0.35240656 0.99716389
3.0705302 -0.29573268 0.99631572
3.0720022 -0.23918587 0.99546927
3.0731766 -0.1940496 0.99479371
3.0743492 -0.14899975 0.99411935
3.0755198 -0.10403639 0.99344635
3.0769794 -0.04795754 0.99260706
3.0784354 0.0079963803 0.99176943
3.0795987 0.05265981 0.99110085
3.080759 0.097238183 0.99043369
3.0822062 0.15283716 0.98960149
3.0836504 0.20831275 0.98877108
3.0848026 0.25259507 0.98810834
3.0859532 0.29679322 0.98744673
3.0873883 0.35191858 0.9866215
3.0888197 0.40692222 0.98579836
3.0900295 0.45298493 0.99190736
3.0914044 0.50552905 0.99564266
3.0928271 0.56017005 0.99481142
3.0939622 0.60378647 0.99414796
3.0948126 0.63644767 0.99365109
3.0468318 -1.2076225 1.0334429
3.0483611 -1.1488757 1.0325348
3.0498867 -1.090263 1.031629
3.0511045 -1.0434797 1.030906
3.05232 -0.99678755 1.0301843
3.0535328 -0.95018655 1.029464
3.0547435 -0.90367627 1.0287449
3.0559521 -0.85725647 1.0280275
3.0578299 -0.78552449 1.0338991
3.0568564 -0.82249802 1.0274903
3.0589793 -0.7416687 1.0378664
3.0601792 -0.6955632 1.0371423
3.0613768 -0.6495471 1.0364196
3.0625892 -0.60368657 1.0472913
3.0640802 -0.54640687 1.0463779
3.0655677 -0.48925611 1.0454667
3.0667548 -0.44363847 1.0447391
3.0679402 -0.39810866 1.0440131
3.069123 -0.35266656 1.0432885
3.0705981 -0.2959913 1.0423849
3.0720696 -0.23944306 1.0414832
3.0732448 -0.19430572 1.0407633
3.0744174 -0.14925474 1.040045
3.0755873 -0.10429037 1.039328
3.0770471 -0.048210084 1.0384337
3.0785034 0.0077453256 1.0375414
3.0796661 0.052409947 1.0368294
3.0808263 0.096989274 1.0361185
3.0822732 0.15258968 1.0352318
3.0837173 0.20806682 1.0343471
3.084887 0.25228882 1.0450245
3.0860374 0.29648817 1.044309
3.0874722 0.35161507 1.0434165
3.0889037 0.40662062 1.0425259
3.0899963 0.44831014 1.0463835
3.0914884 0.50523078 1.05225
3.092911 0.55987322 1.0513519
3.0940461 0.60349107 1.0506351
3.0948961 0.63615286 1.0500982
3.0469005 -1.2079043 1.0804048
3.0484297 -1.1491561 1.0794393
3.0499554 -1.0905418 1.0784762
3.051173 -1.0437572 1.0777074
3.0523887 -0.99706405 1.0769401
3.0536723 -0.94817513 1.0831407
3.0548289 -0.90401882 1.0870762
3.0560369 -0.85759753 1.0863018
3.0579455 -0.78428125 1.0850753
3.0571897 -0.81360793 1.090224
3.0590646 -0.742006 1.0959996
3.0602643 -0.69589907 1.0952194
3.0614619 -0.64988148 1.0944405
3.0626576 -0.603953 1.0936632
3.0641484 -0.54667175 1.0926937
3.0656357 -0.48951969 1.0917264
3.066823 -0.44390082 1.0909545
3.0680079 -0.39836991 1.090184
3.0691905 -0.35292661 1.089415
3.0706661 -0.29624993 1.0884558
3.0721374 -0.23970026 1.0874985
3.0733123 -0.19456172 1.0867347
3.0744848 -0.14950973 1.0859723
3.0756555 -0.1045441 1.0852114
3.0771146 -0.048462451 1.0842623
3.0785711 0.0074941516 1.0833154
3.079802 0.054353654 1.0893795
3.0809104 0.096678257 1.0932269
3.0823579 0.15228033 1.0922724
3.0838017 0.20775902 1.0913198
3.0849712 0.25198257 1.1019434
3.0861213 0.29618335 1.1011738
3.0875559 0.35131204 1.1002138
3.0889876 0.40631902 1.0992559
3.0901303 0.45022726 1.0984914
3.0915556 0.50499189 1.0975378
3.092978 0.55963564 1.0965861
3.0941131 0.60325456 1.0958267
3.0949631 0.63591731 1.095258
3.0469692 -1.2081861 1.1273686
3.0484984 -1.1494365 1.1263458
3.0500956 -1.0885209 1.1323104
3.051259 -1.0441043 1.1362116
3.052474 -0.99740952 1.1353873
3.0536332 -0.95316118 1.1392757
3.0549147 -0.90436137 1.1454099
3.0561228 -0.85793859 1.1445789
3.0582311 -0.77691293 1.1431284
3.0573282 -0.81160605 1.1437494
3.0591328 -0.74227595 1.1425084
3.060333 -0.69616783 1.141683
3.0615301 -0.65014911 1.1408592
3.0627255 -0.60421944 1.1400368
3.0642161 -0.54693675 1.1390114
3.0657039 -0.48978326 1.1379884
3.066891 -0.44416317 1.1371717
3.0680761 -0.39863116 1.1363566
3.0692587 -0.35318667 1.135543
3.0707335 -0.29650855 1.1345284
3.0722053 -0.23995745 1.1335161
3.07338 -0.1948179 1.1327082
3.0745528 -0.14976472 1.1319015
3.0757399 -0.10486138 1.1425682
3.0771992 -0.048777819 1.1415504
3.0786557 0.0071803331 1.1405351
3.0797665 0.049591243 1.1443371
3.0809951 0.09636724 1.1503378
3.0824423 0.15197098 1.1493152
3.0838857 0.20745146 1.1482949
3.0850387 0.25173748 1.1474805
3.0861886 0.29593933 1.1466676
3.0876234 0.35106945 1.1456536
3.0890548 0.40607774 1.144642
3.0901976 0.44998705 1.1438345
3.0916226 0.50475311 1.1428274
3.093045 0.55939817 1.1418223
3.0941801 0.60301816 1.1410203
3.0950301 0.63568175 1.1404195
3.0471096 -1.2061572 1.1813346
3.0485845 -1.1497868 1.1849813
3.0500557 -1.0935386 1.1886169
3.0513446 -1.0444514 1.1947187
3.0525601 -0.99775505 1.1938373
3.0537727 -0.95114982 1.1929573
3.0549829 -0.90463537 1.1920792
3.056191 -0.85821146 1.1912028
3.0582998 -0.77718377 1.1896729
3.0573969 -0.81187779 1.1903279
3.059201 -0.74254584 1.1890191
3.0604005 -0.69643658 1.1881485
3.0615985 -0.65041673 1.1872797
3.0627935 -0.60448587 1.1864123
3.0642846 -0.54720181 1.185331
3.0657721 -0.49004671 1.1842519
3.0669589 -0.44442555 1.1833906
3.0681438 -0.39889228 1.182531
3.0693266 -0.35344684 1.1816729
3.0708928 -0.29356015 1.1854762
3.0722899 -0.24027914 1.1910403
3.0734649 -0.19513798 1.1901771
3.0746377 -0.15008348 1.1893156
3.0758245 -0.10517895 1.1999274
3.0772841 -0.049093604 1.1988412
3.0787404 0.0068665743 1.1977574
3.0799022 0.051534951 1.1968921
3.0810623 0.096118212 1.1960287
3.0825095 0.15172362 1.1949518
3.0839534 0.2072053 1.193877
3.0851057 0.25149238 1.1930193
3.0862558 0.29569542 1.1921632
3.0876908 0.3508271 1.1910954
3.0891223 0.40583646 1.1900299
3.0902643 0.44974697 1.1891794
3.0916898 0.50451422 1.1881186
3.0931118 0.55916071 1.1870602
3.0943136 0.60492527 1.1929511
3.0951142 0.6353873 1.1968738
3.0470693 -1.2112017 1.2377862
3.0486703 -1.1501373 1.2436199
3.0501959 -1.0915177 1.242456
3.0514133 -1.044729 1.2415267
3.0526283 -0.9980315 1.2405994
3.0538411 -0.95142514 1.2396741
3.0550516 -0.90490949 1.2387503
3.0562594 -0.85848427 1.2378285
3.0583677 -0.77745456 1.2362194
3.0574651 -0.81214941 1.2369083
3.0592694 -0.74281573 1.2355314
3.0604694 -0.69670528 1.2346158
3.0616667 -0.65068424 1.2337021
3.0628617 -0.6047523 1.23279
3.0643525 -0.54746675 1.2316523
3.0658398 -0.49031019 1.2305173
3.0670965 -0.44244826 1.2364979
3.068229 -0.39921886 1.2402517
3.0694115 -0.35377187 1.239338
3.0708172 -0.29993713 1.241134
3.0723751 -0.24060059 1.2485673
3.0735495 -0.19545829 1.2476488
3.0747221 -0.15040225 1.2467322
3.0758922 -0.10543257 1.2458171
3.0773516 -0.049346149 1.244676
3.0788076 0.0066155195 1.2435373
3.0799699 0.051285088 1.2426286
3.0811305 0.095869422 1.2417213
3.082577 0.15147591 1.24059
3.0840209 0.20695937 1.2394609
3.0851731 0.25124729 1.23856
3.0863233 0.2954514 1.2376605
3.0877581 0.35058415 1.2365388
3.0891895 0.40559518 1.2354195
3.0903487 0.4494468 1.245863
3.0917737 0.5042156 1.2447351
3.0931957 0.55886388 1.2436101
3.0942807 0.6002835 1.2472755
3.0951972 0.6350925 1.2533307
3.04721 -1.2091727 1.2917569
3.048739 -1.1504177 1.2905326
3.0502641 -1.0917965 1.2893114
3.051482 -1.0450066 1.2883364
3.0526967 -0.99830794 1.2873636
3.0539093 -0.95170033 1.2863925
3.0551198 -0.90518349 1.2854232
3.0563281 -0.8587572 1.2844559
3.0584359 -0.77772534 1.2827674
3.0575335 -0.81242114 1.2834904
3.0593374 -0.74308568 1.2820457
3.0605376 -0.69697416 1.2810851
3.0617349 -0.6509518 1.2801262
3.0629299 -0.60501868 1.2791691
3.0644379 -0.54779804 1.2895569
3.0659249 -0.49063966 1.2883519
3.0670593 -0.44732121 1.2920592
3.0683138 -0.39954543 1.2979749
3.0694964 -0.35409701 1.2970059
3.0709708 -0.29741395 1.295797
3.0724428 -0.2408579 1.294591
3.0736177 -0.19571441 1.2936283
3.0747893 -0.15065724 1.2926674
3.0759597 -0.1056866 1.2917086
3.077419 -0.049598634 1.2905124
3.0788751 0.0063644052 1.2893189
3.0800376 0.051034987 1.2883664
3.081198 0.095620513 1.2874159
3.0826445 0.15122843 1.2862298
3.0840881 0.20671308 1.2850467
3.0853083 0.253178 1.2908851
3.0864074 0.29514647 1.2945348
3.0878417 0.350281 1.2933457
3.0892732 0.40529358 1.2921588
3.0904329 0.44914651 1.3025494
3.0918579 0.50391722 1.3013546
3.0932796 0.55856681 1.3001623
3.0944147 0.60219073 1.2992108
3.0952647 0.63485706 1.2984983
3.0306673 -2.385237 1.346186
3.1096432 -2.3979826 1.3428783
3.1775303 -2.4042742 1.3457015
3.2483301 -2.410836 1.3486456
3.3222349 -2.417685 1.3517189
3.0178041 -2.3415203 1.3514047
3.0431168 -2.3534722 1.3383627
3.101877 -2.3557708 1.3383657
3.162852 -2.3581562 1.3383687
3.2261689 -2.3606331 1.3383718
3.2904646 -2.3760715 1.3381683
3.3588531 -2.379005 1.3381675
3.4300287 -2.3820581 1.3381666
3.5041654 -2.3852382 1.3381659
3.5814521 -2.3885534 1.3381652
3.6620941 -2.3920126 1.3381644
3.7463143 -2.3956251 1.3381635
3.0190864 -2.2922583 1.3503422
3.0485961 -2.3057306 1.3391302
3.1074798 -2.3071468 1.3391473
3.1685834 -2.3086164 1.3391651
3.2320352 -2.3101425 1.3391836
3.2949688 -2.3374724 1.3387886
3.3634677 -2.3396358 1.3388003
3.4347591 -2.3418875 1.3388126
3.5090179 -2.3442326 1.3388251
3.5864327 -2.3466773 1.3388383
3.6655035 -2.3634937 1.3386228
3.7498181 -2.3664742 1.3386321
3.8361583 -2.3844957 1.3384023
3.0203657 -2.2430944 1.349282
3.0540793 -2.2579539 1.339898
3.1130865 -2.2584863 1.3399293
3.174319 -2.2590389 1.3399619
3.2364378 -2.2722502 1.3397926
3.3009784 -2.2859735 1.3396168
3.3696244 -2.2871084 1.3396449
3.4410708 -2.2882895 1.3396741
3.5154917 -2.2895198 1.3397049
3.5914154 -2.3047771 1.339512
3.6706202 -2.3206906 1.3393109
3.7550769 -2.322722 1.3393356
3.8433681 -2.3248453 1.3393612
3.0216424 -2.1940293 1.3482237
3.059567 -2.2101424 1.3406665
3.1186974 -2.2097898 1.3407121
3.1800587 -2.2094235 1.3407594
3.2408426 -2.234333 1.3404021
3.3069921 -2.2344337 1.3404453
3.3757863 -2.2345386 1.34049
3.4473877 -2.2346478 1.3405366
3.5203509 -2.2484567 1.3403649
3.5964015 -2.2628469 1.3401861
3.6774476 -2.2635784 1.3402292
3.7620938 -2.2643423 1.3402741
3.8487797 -2.2800736 1.3400811
3.0225985 -2.1572917 1.3474314
3.0650585 -2.1622958 1.3414357
3.1243129 -2.1610568 1.3414956
3.1843672 -2.1721888 1.3413581
3.1872406 -2.1473532 1.3417574
3.2467201 -2.1837444 1.3412154
3.3130112 -2.1828537 1.3412745
3.3819535 -2.1819267 1.3413358
3.4537103 -2.1809621 1.3413998
3.525214 -2.2073653 1.3410257
3.6030555 -2.2069011 1.3410857
3.6842818 -2.2064166 1.3411485
3.7673612 -2.220525 1.340979
3.8541963 -2.2352681 1.3408017
3.2511313 -2.1457787 1.3418258
3.3252494 -2.1470432 1.3449792
3.4044459 -2.1490068 1.3489579
3.4873698 -2.1510625 1.3531238
3.5300794 -2.1662507 1.3416868
3.6080499 -2.1649113 1.341761
3.6894112 -2.1635137 1.3418384
3.7726319 -2.1766753 1.3416841
3.8614233 -2.1754818 1.3417633
3.0472786 -1.2094547 1.338729
3.0488076 -1.1506981 1.3374474
3.050333 -1.0920755 1.3361686
3.0515504 -1.0452843 1.3351481
3.0527654 -0.99858445 1.3341295
3.053978 -0.95197558 1.3331127
3.0551884 -0.90545762 1.332098
3.0563962 -0.85903013 1.3310852
3.0585046 -0.77799618 1.3293176
3.0576022 -0.81269288 1.3300745
3.059406 -0.74335563 1.3285619
3.0606756 -0.69497973 1.3344748
3.06182 -0.65128636 1.338159
3.0630157 -0.60535169 1.3371458
3.0645225 -0.54812914 1.3474636
3.0660102 -0.49096909 1.3461889
3.0671968 -0.44534385 1.3451715
3.0683818 -0.39980674 1.3441558
3.0695643 -0.35435718 1.343142
3.0710392 -0.29767263 1.3418778
3.0725105 -0.24111521 1.3406163
3.0736852 -0.19597048 1.3396096
3.0748577 -0.15091223 1.3386047
3.0760272 -0.10594034 1.3376017
3.0774872 -0.049851 1.3363508
3.0789433 0.0061132312 1.3351027
3.0801051 0.050784945 1.3341064
3.0813334 0.097561479 1.3399153
3.0827291 0.15091896 1.3432827
3.0841725 0.20640528 1.3420316
3.085274 0.24845922 1.3456361
3.0864918 0.29484153 1.3514116
3.0879264 0.34997773 1.3501549
3.0893574 0.40499222 1.3489013
3.0905001 0.44890618 1.3479003
3.0919251 0.50367832 1.346652
3.0933464 0.55832922 1.3454063
3.0944819 0.6019541 1.3444121
3.0953317 0.63462126 1.3436676
3.0149634 -2.4529557 1.3899457
3.0750885 -2.4581344 1.3796287
3.1416361 -2.4656208 1.3831909
3.2110136 -2.4734254 1.3869047
3.2834039 -2.4815688 1.3907797
3.3590083 -2.4900737 1.3948268
3.438046 -2.4989648 1.3990575
3.016243 -2.4034429 1.3836842
3.3994534 -2.4248414 1.3549302
3.4802136 -2.4323261 1.3582886
3.5647647 -2.4401622 1.3618046
3.6533804 -2.4483747 1.3654897
3.746361 -2.4569917 1.3693563
3.8440366 -2.4660439 1.3734182
3.0178568 -2.3417544 1.3874658
3.0191388 -2.292491 1.386367
3.0204182 -2.2433264 1.3852707
3.0216949 -2.1942601 1.3841766
3.0226507 -2.1575217 1.3833574
3.0419612 -2.1406183 1.3792075
3.1083226 -2.1421235 1.3711884
3.1777568 -2.1438546 1.3754752
3.2502441 -2.1456618 1.3799503
3.3259909 -2.1475506 1.3846264
3.4052222 -2.1495261 1.389518
3.4879129 -2.1514173 1.3807982
3.5745759 -2.153399 1.3716615
3.6658061 -2.1556649 1.3765945
3.7616565 -2.1580458 1.3817772
3.8624887 -2.1605501 1.3872291
3.0473475 -1.2097366 1.3857032
3.0488765 -1.1509784 1.384364
3.0504014 -1.0923543 1.3830281
3.0516191 -1.0455619 1.3819616
3.0528338 -0.9988609 1.3808973
3.0540464 -0.95225084 1.3798349
3.0552568 -0.90573168 1.3787746
3.0564647 -0.85930306 1.3777164
3.0585902 -0.77833474 1.3875078
3.0577404 -0.81069064 1.3835938
3.0594914 -0.74369311 1.3867099
3.060638 -0.69990921 1.390347
3.0619056 -0.65162092 1.3961946
3.0631006 -0.60568482 1.395125
3.0645912 -0.54839408 1.3937914
3.0660784 -0.49123266 1.3924606
3.067265 -0.44560626 1.3913984
3.06845 -0.40006793 1.3903383
3.0696323 -0.35461718 1.3892801
3.0711069 -0.29793125 1.3879606
3.0725784 -0.24137247 1.3866439
3.0737529 -0.19622678 1.3855928
3.0749252 -0.15116721 1.3845437
3.0760951 -0.10619438 1.3834968
3.0775547 -0.050103486 1.3821909
3.0790102 0.0058620572 1.380888
3.0801728 0.050534964 1.3798479
3.0812421 0.091389894 1.3827038
3.0827961 0.1506716 1.3889265
3.08424 0.206159 1.3876209
3.085392 0.25045085 1.3865789
3.0865421 0.29465842 1.3855389
3.0879765 0.3497957 1.3842421
3.0894079 0.40481114 1.3829478
3.0905502 0.44872618 1.3819145
3.0919755 0.50349903 1.3806261
3.0933971 0.55815125 1.3793403
3.094532 0.60177684 1.3783141
3.0953822 0.63444459 1.3775458
3.3967099 -2.5642889 1.4390223
3.4776354 -2.5750017 1.4443243
3.5623698 -2.5862186 1.4498757
3.0204277 -2.5126362 1.4305288
3.1063914 -2.5258565 1.4200017
3.1743855 -2.5348577 1.4244564
3.2453053 -2.5442462 1.429103
3.3193429 -2.5540471 1.4339535
3.0146358 -2.468092 1.4312513
3.5207562 -2.5082688 1.4034849
3.6074007 -2.5180156 1.4081229
3.698267 -2.5282373 1.4129869
3.7936721 -2.53897 1.4180938
3.0163205 -2.403791 1.4369859
3.0179265 -2.3420658 1.4355488
3.0192087 -2.2928014 1.4344021
3.020488 -2.2436354 1.4332575
3.0217645 -2.1945677 1.4321154
3.0227206 -2.1578283 1.4312602
3.0430005 -2.1413922 1.4398674
3.10919 -2.142756 1.4207309
3.1786621 -2.1445012 1.4260851
3.2511902 -2.1463232 1.4316746
3.3269808 -2.1482272 1.4375155
3.4059994 -2.1500456 1.4300942
3.4887269 -2.1519494 1.4223269
3.5757155 -2.1541262 1.428364
3.6670029 -2.1564112 1.4346995
3.7626009 -2.1586199 1.4264562
3.8634832 -2.16114 1.433071
3.047399 -1.2099481 1.4209352
3.0489278 -1.1511887 1.4195528
3.0504529 -1.0925635 1.4181737
3.0516706 -1.0457703 1.4170729
3.0528855 -0.99906832 1.4159741
3.0540977 -0.95245737 1.4148775
3.0553081 -0.90593725 1.4137831
3.0565159 -0.85950768 1.4126909
3.0574203 -0.82474196 1.4118732
3.1031229 -2.6543798 1.4975166
3.071779 -2.5850129 1.4561527
3.138428 -2.5951657 1.461321
3.2079184 -2.6057515 1.4667095
3.2804348 -2.6167984 1.4723327
3.3561802 -2.6283371 1.4782066
3.4353745 -2.6404011 1.4843476
3.518259 -2.6530271 1.4907748
3.6050978 -2.6662557 1.4975086
3.0121441 -2.5650649 1.452814
3.6511903 -2.5979764 1.4556949
3.7443986 -2.6103151 1.4618014
3.8423281 -2.6232789 1.4682173
3.0131147 -2.5277681 1.4519365
3.1100578 -2.1433887 1.4703008
3.1795681 -2.1451483 1.4767234
3.2521369 -2.1469848 1.4834286
3.3279707 -2.1489043 1.4904355
3.4067769 -2.1505656 1.470691
3.4898136 -2.1526594 1.4777269
3.5768554 -2.1548541 1.4851021
3.667901 -2.156971 1.4783018
3.7635455 -2.1591945 1.4711602
3.8644779 -2.1617301 1.4789387
3.2048068 -2.7387722 1.5469331
3.5599597 -2.7331209 1.5384564
3.6489859 -2.7484655 1.5464348
3.1712241 -2.6661179 1.5036197
3.2422633 -2.6783624 1.5099857
3.3164341 -2.6911464 1.5166328
3.3939497 -2.7045074 1.5235794
3.4750402 -2.7184839 1.5308462
3.6961806 -2.680131 1.5045716
3.791827 -2.694701 1.5119886
3.1802475 -2.1456335 1.51472
3.2530839 -2.1476469 1.5352124
3.3287139 -2.1494124 1.530145
3.407814 -2.1512589 1.524847
3.4909005 -2.1533699 1.5331609
3.5777111 -2.1554003 1.5276781
3.6687999 -2.157531 1.5219275
3.7648056 -2.159961 1.5307981
3.8654733 -2.1623206 1.5248272
3.3135097 -2.82899 1.5997603
3.3533361 -2.7673578 1.5620428
3.4326875 -2.78263 1.5701153
3.5157468 -2.7986155 1.578565
3.6027806 -2.8153658 1.5874189
3.6940806 -2.8329375 1.5967067
3.2774498 -2.7527528 1.5543228
3.7424226 -2.7645702 1.5548079
3.329457 -2.1499205 1.5698738
3.4088519 -2.1519527 1.5790355
3.4919882 -2.1540806 1.5886291
3.5785666 -2.1559467 1.5702764
3.6699986 -2.1582782 1.5801264
3.7657514 -2.1605363 1.5755514
3.8664691 -2.1629114 1.5707417
3.5575352 -2.8808768 1.627552
3.6467671 -2.8998501 1.6377141
3.7404342 -2.9197664 1.6483817
3.3911743 -2.8455033 1.6086055
3.4724309 -2.862781 1.6178596
3.7899687 -2.8513923 1.6064615
3.4096305 -2.1524734 1.6196975
3.4928043 -2.154614 1.6302516
3.5797088 -2.1566758 1.6271039
3.6711981 -2.1590261 1.6383628
3.7666972 -2.1611118 1.6203291
3.8677976 -2.1636996 1.6319957
3.4299855 -2.9256582 1.656365
3.5132201 -2.9450409 1.66686
3.6004498 -2.9653542 1.6778586
3.6919672 -2.986666 1.6893978
3.4933486 -2.1549697 1.6580113
3.5808511 -2.1574051 1.6839674
3.6720986 -2.1595874 1.6820638
3.7679598 -2.1618795 1.6800661
3.8687942 -2.1642909 1.6779622
3.7045083 -3.6244202 1.7161041
3.6440225 -3.5644221 1.7174789
3.7083592 -3.5952458 1.7168018
3.7122121 -3.5660539 1.7175
3.5234737 -3.49192 1.7190993
3.5836711 -3.5205107 1.7184715
3.651562 -3.5069907 1.7188525
3.7179966 -3.5222299 1.7185478
3.5288904 -3.4502239 1.7200963
3.5910499 -3.4640012 1.7198228
3.6572218 -3.4638743 1.7198836
3.7257166 -3.4637384 1.7199466
3.5343113 -3.4084957 1.7210941
3.5984375 -3.4074247 1.7211756
3.6628876 -3.4207144 1.7209157
3.731513 -3.4198251 1.7209969
3.5397375 -3.3667264 1.722093
3.6039839 -3.3649509 1.7221913
3.6704495 -3.3631094 1.7222933
3.7373147 -3.3758667 1.7220479
3.5469792 -3.3109801 1.723426
3.6095357 -3.3224351 1.7232081
3.6761267 -3.3198624 1.7233274
3.7450588 -3.3171952 1.7234511
3.5542295 -3.2551692 1.7247603
3.6169453 -3.2656906 1.7245648
3.6818097 -3.276572 1.7243625
3.7508731 -3.2731471 1.7245045
3.5614884 -3.1992931 1.7260966
3.6243634 -3.2088788 1.7259233
3.689394 -3.2187929 1.7257441
3.7566929 -3.2290535 1.725559
3.5669377 -3.1573448 1.7270997
3.6299329 -3.1662276 1.7269433
3.6969886 -3.1609445 1.7271278
3.7644606 -3.1702015 1.7269663
3.5723922 -3.1153557 1.7281038
3.6355076 -3.1235344 1.7279642
3.7026892 -3.1175141 1.7281662
3.7702925 -3.1260173 1.7280229
3.5778515 -3.0733342 1.7291086
3.6428115 -3.066473 1.7292626
3.7083962 -3.0740402 1.7292058
3.7761302 -3.0817881 1.7290807
3.5550966 -3.0294936 1.7171667
3.7880993 -3.009052 1.701519
3.6729987 -2.1601486 1.7257881
3.7689071 -2.1624558 1.7248935
3.8697922 -2.1648827 1.7239547
3.7698545 -2.1630321 1.7697455
3.8711231 -2.1656718 1.785313
3.8721218 -2.1662645 1.8313576
4.0132489 0.052568078 -1.7612466
4.0831633 1.004371 -1.7817618
4.0808353 1.0477999 -1.7795671
4.0777383 1.1055659 -1.7766477
4.0754218 1.1487862 -1.7744633
4.0731111 1.1919032 -1.7722843
3.8252587 0.058279753 -1.6930659
3.9176462 0.055646539 -1.7192398
4.017458 0.053508282 -1.7176607
3.738378 0.061085105 -1.6545608
3.8278003 0.058880925 -1.6653417
3.9229889 0.05687511 -1.6624351
4.0216775 0.054450989 -1.6739676
3.6553881 0.063764453 -1.61778
3.7420142 0.061969161 -1.6138695
3.8316185 0.059784174 -1.6236775
3.9270053 0.057798743 -1.6197296
4.0273175 0.055710912 -1.6155671
3.5000808 0.068777323 -1.5489485
3.5771377 0.066609025 -1.5696234
3.6588583 0.064631104 -1.5779638
3.7468731 0.063150644 -1.5594904
3.8367221 0.060991406 -1.567995
3.9310319 0.058724642 -1.5769213
4.0329742 0.056974649 -1.5569941
3.9430988 -1.5848643 -1.5166184
3.9441679 -1.5392414 -1.5159389
3.9452362 -1.4936399 -1.5152596
3.9463043 -1.448065 -1.5145807
3.947372 -1.4025114 -1.5139023
3.9484386 -1.3569841 -1.5132241
3.9498601 -1.2963166 -1.5123203
3.9509261 -1.2508425 -1.5116432
3.9519906 -1.2053947 -1.5109661
3.9534101 -1.1448331 -1.5100639
3.9545577 -1.0993464 -1.5245275
3.9556205 -1.053978 -1.5238477
3.9570374 -0.99352193 -1.5229421
3.9580991 -0.94820619 -1.5222631
3.9591606 -0.90291679 -1.5215845
3.9605746 -0.84256601 -1.5206802
3.9616349 -0.79732913 -1.5200025
3.9626939 -0.75211859 -1.5193251
3.9641058 -0.69187278 -1.5184225
3.9651639 -0.64671469 -1.5177459
3.9658689 -0.61662328 -1.5172948
3.4273174 0.071126103 -1.5167
3.5032535 0.069611788 -1.5107758
3.5815639 0.067743897 -1.5176085
3.6634963 0.065789461 -1.5247575
3.7505248 0.064038515 -1.5186124
3.8418388 0.062201858 -1.5121555
3.9364133 0.059962273 -1.5197068
4.0372272 0.057924628 -1.5129559
3.9428458 -1.5851393 -1.4710721
3.9439151 -1.5395164 -1.4704046
3.9449837 -1.493915 -1.4697372
3.9460518 -1.4483401 -1.4690702
3.9471192 -1.4027864 -1.4684037
3.9481862 -1.3572592 -1.4677374
3.9496083 -1.2965916 -1.4668499
3.9506738 -1.2511175 -1.4661844
3.9517384 -1.2056698 -1.4655192
3.9530678 -1.1501226 -1.4697542
3.9543059 -1.0996215 -1.4791085
3.9553688 -1.0542531 -1.4784406
3.9567859 -0.993797 -1.4775505
3.9578474 -0.94848132 -1.4768834
3.958909 -0.90319186 -1.4762167
3.9603231 -0.84284109 -1.4753283
3.9613829 -0.79760432 -1.4746623
3.9624429 -0.75239366 -1.473997
3.9638543 -0.69214785 -1.4731101
3.9649127 -0.64698982 -1.4724451
3.9656177 -0.61689842 -1.4720021
3.2905853 0.075539589 -1.4561011
3.3585157 0.073646188 -1.4735627
3.4303548 0.07194519 -1.4792992
3.5074921 0.070726752 -1.4597697
3.5860014 0.068881512 -1.4654571
3.6681464 0.066950798 -1.4714079
3.7541852 0.064928651 -1.4776411
3.8456855 0.063111544 -1.4701773
3.9418087 0.061203003 -1.4623265
3.9425936 -1.5854144 -1.425526
3.9436626 -1.5397916 -1.4248704
3.9447317 -1.4941901 -1.4242152
3.9457994 -1.4486151 -1.4235601
3.9468668 -1.4030614 -1.4229053
3.9479342 -1.3575343 -1.422251
3.9493558 -1.2968668 -1.4213792
3.9504216 -1.2513926 -1.4207256
3.9514866 -1.2059449 -1.4200724
3.9530802 -1.140277 -1.4292244
3.9540541 -1.0998967 -1.4336894
3.955117 -1.0545282 -1.4330332
3.9565339 -0.99407214 -1.4321593
3.9575961 -0.9487564 -1.4315041
3.9586575 -0.90346694 -1.4308492
3.9600716 -0.84311622 -1.4299767
3.9611318 -0.7978794 -1.4293225
3.9621911 -0.75266886 -1.4286687
3.963603 -0.69242311 -1.4277977
3.9646614 -0.64726496 -1.4271448
3.9653666 -0.61717355 -1.4267095
3.164444 0.079611182 -1.4001958
3.2271619 0.077874303 -1.4158469
3.2933764 0.076329708 -1.4201536
3.3623991 0.074719667 -1.4246429
3.4344127 0.073039651 -1.4293264
3.5117419 0.071844459 -1.4086324
3.5893369 0.0697366 -1.4262578
3.5915644 0.070307732 -1.4000795
3.6728089 0.068115354 -1.4179152
3.7590773 0.066118002 -1.4228872
3.8495407 0.064023495 -1.4281006
3.9458649 0.062135696 -1.4191875
3.9423409 -1.5856894 -1.3799801
3.9434104 -1.5400667 -1.3793364
3.9444788 -1.4944651 -1.378693
3.9455469 -1.4488902 -1.3780497
3.946615 -1.4033365 -1.3774071
3.9476819 -1.3578093 -1.3767648
3.9491038 -1.2971418 -1.3759087
3.9501696 -1.2516676 -1.375267
3.9512348 -1.2062199 -1.3746259
3.9526546 -1.1456584 -1.3737714
3.9537179 -1.1002635 -1.3731309
3.9547813 -1.054895 -1.3724906
3.9561985 -0.99443895 -1.3716378
3.9572604 -0.9491232 -1.3709983
3.9583216 -0.90383381 -1.3703593
3.9597361 -0.84348297 -1.3695078
3.9607964 -0.79824615 -1.3688695
3.9618559 -0.75303566 -1.3682315
3.9632678 -0.69278991 -1.3673815
3.9643259 -0.64763182 -1.3667443
3.9652388 -0.60754395 -1.3611468
3.0814881 0.095837355 -1.3630667
3.1057923 0.081781149 -1.3625183
3.1670175 0.080374241 -1.3655934
3.230737 0.078909993 -1.3687938
3.2971056 0.077385068 -1.3721273
3.3662922 0.075795531 -1.3756022
3.4374628 0.073862076 -1.3917686
3.4394994 0.074411392 -1.3666878
3.5160027 0.072965264 -1.3573639
3.5949113 0.0711658 -1.3607427
3.6774843 0.06928277 -1.3642783
3.7639825 0.067310691 -1.3679823
3.8546932 0.06524241 -1.3718666
3.9499307 0.063070536 -1.3759443
3.0825644 0.14178813 -1.3623101
3.0839088 0.19918644 -1.361365
3.0849836 0.24506807 -1.3606094
3.0860581 0.29091811 -1.3598545
3.0871315 0.33673644 -1.3591
3.0882039 0.3825233 -1.3583461
3.942004 -1.5860562 -1.3192523
3.9430735 -1.5404334 -1.3186246
3.9441423 -1.4948319 -1.317997
3.9452107 -1.4492569 -1.3173698
3.9462783 -1.4037032 -1.316743
3.9473455 -1.3581761 -1.3161166
3.9488516 -1.2974169 -1.3304385
3.9499173 -1.2519428 -1.3298087
3.9509826 -1.206495 -1.3291795
3.9524021 -1.1459334 -1.3283409
3.9534659 -1.1005385 -1.3277123
3.9545295 -1.0551701 -1.3270841
3.9559467 -0.99471402 -1.3262467
3.9570086 -0.94939828 -1.3256193
3.9580705 -0.90410894 -1.3249921
3.9594846 -0.84375811 -1.3241564
3.9605448 -0.79852134 -1.3235298
3.9616046 -0.75331068 -1.3229038
3.9630165 -0.69306505 -1.3220698
3.9640751 -0.6479069 -1.3214443
3.9651332 -0.60277498 -1.3208193
3.0812945 0.095624685 -1.3282536
3.1090932 0.082781792 -1.3171948
3.1704557 0.081393361 -1.3193678
3.2343204 0.079948306 -1.3216294
3.300844 0.078443289 -1.3239853
3.3701954 0.076873899 -1.326441
3.4425592 0.075236678 -1.3290036
3.5192049 0.073807478 -1.3188299
3.5993841 0.072312355 -1.3081787
3.6821723 0.070453763 -1.3104972
3.7689013 0.068506598 -1.3129258
3.8598597 0.066464424 -1.3154732
3.9553645 0.064320087 -1.3181478
3.0823712 0.1415751 -1.3275092
3.0837159 0.19897354 -1.326579
3.0847909 0.24485528 -1.3258355
3.085865 0.29070532 -1.3250924
3.0869384 0.33652353 -1.32435
3.0880113 0.38231039 -1.3236082
3.9417517 -1.5863311 -1.2737067
3.942821 -1.5407084 -1.2730908
3.9438901 -1.4951069 -1.2724754
3.9449582 -1.449532 -1.2718602
3.9460263 -1.4039783 -1.2712452
3.9470932 -1.3584511 -1.2706306
3.9485993 -1.2976919 -1.2849685
3.9496658 -1.2522179 -1.2843508
3.9507306 -1.2067702 -1.2837332
3.9521503 -1.1462085 -1.2829105
3.9532144 -1.1008136 -1.2822937
3.9542778 -1.0554452 -1.2816774
3.9556949 -0.99498916 -1.280856
3.9567571 -0.94967341 -1.2802404
3.9578183 -0.90438402 -1.2796252
3.959233 -0.84403324 -1.2788051
3.9602935 -0.79879647 -1.2781905
3.9613533 -0.75358588 -1.2775763
3.9627655 -0.69334018 -1.2767578
3.9638236 -0.64818209 -1.2761443
3.9648819 -0.60305011 -1.2755313
3.0809727 0.095269918 -1.2702323
3.112402 0.083784819 -1.2717681
3.173902 0.082415104 -1.2730348
3.2379124 0.080989122 -1.2743533
3.3045909 0.079503894 -1.2757267
3.3741081 0.077955246 -1.2771585
3.4466484 0.076339245 -1.2786525
3.522414 0.074651599 -1.280213
3.6027458 0.073174357 -1.2686689
3.6856961 0.071333647 -1.2700704
3.7738338 0.069705844 -1.2577174
3.8650415 0.067690134 -1.2589202
3.9608145 0.065573454 -1.2601833
3.0820093 0.13797951 -1.2761877
3.0834584 0.1986897 -1.280198
3.0845335 0.24457133 -1.2794704
3.0856078 0.29042137 -1.2787435
3.0866811 0.33623958 -1.2780169
3.0877542 0.38202643 -1.2772909
3.0068545 -3.0462446 -1.2247322
3.0079827 -2.9980946 -1.2240064
3.00911 -2.9499784 -1.2232813
3.0102372 -2.9018958 -1.2225567
3.0113127 -2.8578029 -1.2298014
3.1230299 -2.8574095 -1.2400053
3.2918816 -2.8490701 -1.2255334
3.4654884 -2.8602808 -1.2324903
3.6578758 -2.872704 -1.2401998
3.1344328 -2.8389027 -1.2192239
3.6732409 -2.8511703 -1.2159541
3.8893859 -2.8638349 -1.2231884
3.9414992 -1.5866063 -1.2281613
3.9425685 -1.5409834 -1.2275572
3.9436374 -1.495382 -1.2269537
3.9447057 -1.4498072 -1.2263504
3.9457738 -1.4042534 -1.2257475
3.946841 -1.3587263 -1.2251449
3.9482634 -1.2980587 -1.2243419
3.9493294 -1.2525846 -1.22374
3.9503946 -1.2071369 -1.2231385
3.9518144 -1.1465753 -1.2223368
3.9528785 -1.1011804 -1.221736
3.9539421 -1.055812 -1.2211354
3.9553595 -0.9953559 -1.2203351
3.9564214 -0.95004028 -1.2197353
3.9574833 -0.90475082 -1.2191359
3.9588981 -0.84440005 -1.2183368
3.9599581 -0.79916328 -1.2177383
3.9610181 -0.7539528 -1.21714
3.9624302 -0.69370699 -1.2163424
3.9634891 -0.64854884 -1.2157447
3.9645472 -0.60341698 -1.2151474
3.0806503 0.094915032 -1.2122113
3.1157184 0.084790349 -1.226238
3.1773555 0.083438993 -1.2265943
3.241513 0.082032323 -1.2269652
3.3083472 0.080566764 -1.2273513
3.3780303 0.079039097 -1.2277541
3.4507477 0.077444553 -1.2281744
3.5267022 0.075779319 -1.2286134
3.6061153 0.074038267 -1.2290726
3.6880496 0.071921825 -1.2430708
3.6904061 0.072510481 -1.2160347
3.7775416 0.070607185 -1.2162157
3.8689368 0.068611383 -1.2164054
3.9649119 0.066515565 -1.2166049
3.0818429 0.14378989 -1.2201623
3.0831363 0.19833481 -1.222222
3.0842118 0.24421668 -1.2215146
3.0852861 0.2900666 -1.2208076
3.08636 0.33588493 -1.2201011
3.0874324 0.38167155 -1.2193952
3.0066566 -3.0464573 -1.1890969
3.0077848 -2.9983068 -1.1883841
3.0089126 -2.9501905 -1.1876713
3.0100396 -2.9021082 -1.1869593
3.0111656 -2.8540602 -1.1862479
3.0121748 -2.8100691 -1.181644
3.1459103 -2.8202729 -1.1983047
3.1574652 -2.8015196 -1.1772463
3.310807 -2.8197422 -1.192574
3.4863453 -2.8295002 -1.1978679
3.688725 -2.8294699 -1.1915208
3.5074072 -2.798418 -1.1629057
3.7043293 -2.807601 -1.1668975
3.9411623 -1.5869731 -1.1674341
3.9423161 -1.5412586 -1.182024
3.9433856 -1.4956572 -1.1814324
3.9444532 -1.4500822 -1.180841
3.9455211 -1.4045285 -1.1802498
3.9465888 -1.3590014 -1.1796594
3.9480109 -1.2983339 -1.178872
3.9490774 -1.2528597 -1.1782823
3.9501426 -1.207412 -1.1776923
3.9515624 -1.1468503 -1.1769067
3.9526267 -1.1014556 -1.1763178
3.9536903 -1.0560871 -1.1757293
3.9551075 -0.99563104 -1.1749446
3.9561703 -0.95031536 -1.1743569
3.9572313 -0.90502596 -1.1737691
3.9586465 -0.84467518 -1.1729861
3.9597068 -0.79943842 -1.1723992
3.9607668 -0.75422782 -1.1718127
3.9621792 -0.69398212 -1.171031
3.9632378 -0.64882404 -1.170445
3.9642961 -0.60369205 -1.1698595
3.0803926 0.094631314 -1.1657946
3.1190419 0.085798025 -1.1806042
3.1808181 0.084465146 -1.1800457
3.2451217 0.083077908 -1.1794645
3.3121128 0.081632733 -1.1788589
3.3819621 0.08012569 -1.1782277
3.4548571 0.078552961 -1.1775686
3.5310016 0.076910138 -1.1768802
3.6106172 0.075192571 -1.1761606
3.6939473 0.073394656 -1.1754073
3.7812579 0.071510911 -1.1746181
3.8728418 0.069535255 -1.1737901
3.9690189 0.06746006 -1.1729206
3.0814698 0.14058185 -1.1651062
3.0828147 0.19798005 -1.1642464
3.0838897 0.24386179 -1.163559
3.0849643 0.28971159 -1.1628718
3.0860384 0.33553004 -1.1621854
3.0871112 0.38131678 -1.1614995
3.0063927 -3.0467403 -1.1415834
3.0075216 -2.99859 -1.1408873
3.0086491 -2.9504738 -1.1401916
3.0097759 -2.9023914 -1.1394964
3.0109022 -2.8543434 -1.1388017
3.0120275 -2.806329 -1.1381073
3.0229886 -2.7679565 -1.1371682
3.174952 -2.7731388 -1.1453773
3.3427932 -2.7701747 -1.1368694
3.5215862 -2.777492 -1.1393678
3.7200553 -2.7855616 -1.1420823
3.535871 -2.7564111 -1.1156554
3.7359049 -2.7633495 -1.1170728
3.9409096 -1.5872481 -1.1218889
3.9420638 -1.5415337 -1.1364906
3.9431326 -1.4959321 -1.1359109
3.9442015 -1.4503572 -1.1353316
3.9452693 -1.4048035 -1.1347524
3.9463365 -1.3592764 -1.1341739
3.9477589 -1.2986089 -1.1334027
3.9488254 -1.2531347 -1.1328245
3.9498906 -1.2076871 -1.1322467
3.9513109 -1.1471255 -1.1314769
3.9523747 -1.1017307 -1.1308997
3.953438 -1.0563622 -1.1303229
3.9548559 -0.99590611 -1.1295545
3.9559181 -0.95059049 -1.1289784
3.9569798 -0.90530109 -1.1284026
3.9583948 -0.84495032 -1.1276355
3.9594555 -0.79971349 -1.1270604
3.9605155 -0.75450301 -1.1264856
3.9619279 -0.69425726 -1.1257198
3.9629865 -0.64909911 -1.1251458
3.964045 -0.60396719 -1.124572
3.0801351 0.094347358 -1.1193782
3.1232078 0.087061167 -1.12341
3.1851573 0.085751772 -1.121702
3.2496455 0.084388852 -1.1199242
3.3158872 0.082700968 -1.1302488
3.3859038 0.081214786 -1.1285782
3.4589772 0.079663992 -1.1268346
3.5353119 0.078043938 -1.1250134
3.6151311 0.076349735 -1.1231089
3.6986797 0.074576497 -1.1211153
3.7862244 0.072718382 -1.1190264
3.8780599 0.070769429 -1.116835
3.9745085 0.068722486 -1.1145338
3.081212 0.14029789 -1.1187059
3.0825572 0.19769633 -1.117866
3.0836322 0.24357796 -1.1171945
3.0847068 0.28942788 -1.1165237
3.0857811 0.33524621 -1.1158532
3.0868542 0.38103294 -1.1151832
3.0061293 -3.0470235 -1.0940703
3.0072582 -2.9988732 -1.0933909
3.0083859 -2.950757 -1.0927122
3.0095124 -2.9026747 -1.0920336
3.010639 -2.8546264 -1.0913556
3.0117643 -2.806612 -1.0906783
3.0191553 -2.754777 -1.0944352
3.1925943 -2.7445037 -1.1132228
3.0343695 -2.7218454 -1.0845817
3.0659959 -2.7024286 -1.0707346
3.2044625 -2.7252424 -1.0915941
3.2164106 -2.7058506 -1.0698191
3.3753085 -2.7197876 -1.0802441
3.5502617 -2.735173 -1.0917664
3.5647604 -2.7137761 -1.0676988
3.7518787 -2.7409632 -1.0918669
3.767978 -2.7183998 -1.0664619
3.9406571 -1.5875232 -1.0763441
3.9417272 -1.5419004 -1.0757799
3.9427962 -1.4962988 -1.0752162
3.9438646 -1.450724 -1.0746527
3.9449327 -1.4051703 -1.0740895
3.9460003 -1.3596432 -1.0735266
3.9474227 -1.2989757 -1.0727768
3.948489 -1.2535015 -1.0722145
3.9495542 -1.2080538 -1.0716527
3.9509745 -1.1474922 -1.0709039
3.952039 -1.1020974 -1.0703427
3.9531028 -1.0567291 -1.0697817
3.95452 -0.99627298 -1.0690342
3.9555826 -0.95095724 -1.0684739
3.9566443 -0.9056679 -1.067914
3.9580598 -0.84531713 -1.067168
3.95912 -0.80008036 -1.0666087
3.9601803 -0.75486982 -1.0660497
3.9615932 -0.69462407 -1.0653051
3.9626515 -0.64946598 -1.0647466
3.9637098 -0.604334 -1.0641887
3.0798769 0.09406352 -1.072962
3.1273847 0.088327289 -1.066063
3.1895084 0.087041616 -1.0631995
3.2541823 0.085703015 -1.0602186
3.3196709 0.083771825 -1.081521
3.3898549 0.082306862 -1.0788058
3.4631076 0.080777764 -1.0759723
3.5396333 0.07918036 -1.0730121
3.6196573 0.077510118 -1.0699164
3.7034249 0.075761795 -1.066676
3.7912052 0.073929429 -1.0632805
3.8832934 0.072007298 -1.0597183
3.978636 0.069671512 -1.0706373
3.0809546 0.14001405 -1.0723058
3.0822997 0.19741249 -1.071486
3.0833752 0.24329424 -1.0708307
3.0844498 0.28914404 -1.0701755
3.0855236 0.33496225 -1.0695213
3.0865967 0.38074899 -1.0688672
3.0058658 -3.0473068 -1.0465573
3.0069945 -2.9991565 -1.0458947
3.0081222 -2.9510403 -1.0452327
3.0092492 -2.9029579 -1.0445712
3.0103755 -2.8549099 -1.0439099
3.0115013 -2.8068957 -1.0432495
3.0126259 -2.7589149 -1.0425892
3.0137494 -2.7109685 -1.0419294
3.0145264 -2.6751008 -1.0295893
3.0825214 -2.6744022 -1.0392869
3.2344949 -2.6764989 -1.0368602
3.4017537 -2.678807 -1.034189
3.5867264 -2.6813593 -1.0312353
3.7923841 -2.6841965 -1.0279509
3.9404047 -1.5877982 -1.0307993
3.9414747 -1.5421754 -1.0302471
3.942544 -1.4965739 -1.0296953
3.9436123 -1.450999 -1.0291437
3.9446805 -1.4054453 -1.0285925
3.9457479 -1.3599182 -1.0280415
3.9471703 -1.2992507 -1.0273073
3.9482372 -1.2537767 -1.0267572
3.9493027 -1.208329 -1.0262071
3.9507227 -1.1477673 -1.0254742
3.9517872 -1.1023725 -1.024925
3.9528506 -1.0570041 -1.0243759
3.9542685 -0.99654806 -1.0236443
3.9553311 -0.95123237 -1.023096
3.9563928 -0.90594292 -1.022548
3.957808 -0.84559226 -1.0218177
3.9588685 -0.80035543 -1.02127
3.959929 -0.75514489 -1.0207231
3.9613414 -0.6948992 -1.019994
3.9624007 -0.64974111 -1.0194477
3.9634588 -0.60460913 -1.0189015
3.0796196 0.093779802 -1.026546
3.1307352 0.089343071 -1.0200634
3.1929984 0.088076234 -1.0162703
3.2578213 0.086757302 -1.0123212
3.3244135 0.085114121 -1.020438
3.3938165 0.083401442 -1.0289099
3.4672482 0.081894517 -1.0249808
3.5439665 0.08032012 -1.0208758
3.6241956 0.078673601 -1.016583
3.7081833 0.076950192 -1.012089
3.7961993 0.075143576 -1.0073795
3.8872273 0.072937846 -1.0167787
3.9827726 0.070622683 -1.026634
3.0806966 0.13973033 -1.0259058
3.0820425 0.19712853 -1.025106
3.0831177 0.24301016 -1.0244668
3.0841925 0.28886008 -1.0238279
3.0852666 0.33467841 -1.0231894
3.0863397 0.38046503 -1.0225514
4.0148473 0.90904677 -1.0045974
4.0737395 0.90777504 -1.0042591
3.9998119 0.94557774 -1.0001433
4.0011969 1.0046452 -0.99942833
4.0022349 1.04892 -0.99889255
4.0032721 1.0931698 -0.99835706
4.0046544 1.1521355 -0.99764335
3.0056024 -3.04759 -0.99904466
3.006731 -2.9994397 -0.99839896
3.0078588 -2.9513235 -0.99775368
3.008986 -2.9032412 -0.99710888
3.0101125 -2.8551929 -0.99646443
3.0112381 -2.807179 -0.99582058
3.012363 -2.7591984 -0.99517715
3.0134869 -2.711252 -0.99453425
3.0146098 -2.6633391 -0.99389154
3.0991905 -2.6461325 -1.0075662
3.2527437 -2.6468806 -1.0036012
3.0153859 -2.627497 -0.98156852
3.1103997 -2.6271219 -0.98623466
3.1216829 -2.6079865 -0.96476316
3.2650216 -2.6269546 -0.98122597
3.4285798 -2.6372371 -0.98747212
3.6089139 -2.6486158 -0.99440449
3.6238551 -2.6265655 -0.96960217
3.8253589 -2.6379838 -0.97591794
3.9401519 -1.5880733 -0.98525447
3.941222 -1.5424504 -0.98471433
3.9422913 -1.4968491 -0.98417449
3.9433601 -1.4512742 -0.98363501
3.9444282 -1.4057205 -0.98309559
3.9454958 -1.3601934 -0.98255664
3.9469182 -1.2995259 -0.98183835
3.9479849 -1.2540517 -0.98129994
3.9490507 -1.2086041 -0.98076189
3.9504707 -1.1480424 -0.98004496
3.951535 -1.1026477 -0.97950733
3.9525986 -1.0572792 -0.97897029
3.9540167 -0.99682313 -0.9782545
3.9550793 -0.95150745 -0.977718
3.9561415 -0.90621811 -0.97718191
3.9575565 -0.8458674 -0.97646731
3.9586172 -0.80063051 -0.97593176
3.9596779 -0.75542009 -0.97539651
3.9610903 -0.69517434 -0.97468323
3.9621491 -0.65001619 -0.97414863
3.9632075 -0.60488427 -0.97361434
3.0793622 0.093496084 -0.98013026
3.1340933 0.090361238 -0.97395802
3.1964974 0.089113355 -0.96923107
3.2614696 0.087814331 -0.96430969
3.3291702 0.086460471 -0.95918149
3.3977876 0.084498882 -0.97889
3.4713998 0.083014131 -0.97385973
3.54831 0.081462622 -0.96860415
3.6287456 0.079840183 -0.96310771
3.7129543 0.07814157 -0.95735347
3.7999539 0.07605648 -0.96535641
3.891171 0.073870897 -0.9737373
3.9869182 0.071576118 -0.98254502
3.9896872 0.072212696 -0.95309502
3.0804393 0.1394465 -0.97950619
3.0817847 0.1968447 -0.97872639
3.08286 0.24272645 -0.97810304
3.083935 0.28857625 -0.97748017
3.0850093 0.33439469 -0.97685772
3.0860827 0.38018143 -0.97623569
4.0147157 0.9088279 -0.95955265
4.073606 0.90755212 -0.95854068
3.9995625 0.94530189 -0.95526206
4.0009475 1.0043699 -0.95456272
4.0019855 1.0486447 -0.9540385
4.0030236 1.0928947 -0.95351452
4.0044055 1.1518601 -0.95281637
3.0053387 -3.047873 -0.95153213
3.0064671 -2.9997225 -0.95090324
3.0075953 -2.9516068 -0.95027483
3.0087225 -2.9035244 -0.94964677
3.0098493 -2.8554761 -0.94901919
3.0109746 -2.807462 -0.94839215
3.0120997 -2.7594817 -0.94776541
3.0132239 -2.7115355 -0.94713914
3.0143471 -2.6636226 -0.9465133
3.0154696 -2.6157439 -0.94588798
3.2773833 -2.6068912 -0.95869684
3.4489412 -2.6056843 -0.9520126
3.0162454 -2.579927 -0.93358201
3.138757 -2.5790308 -0.93227249
3.2960966 -2.5765185 -0.92459124
3.4626465 -2.5844455 -0.92814428
3.6464953 -2.593154 -0.93201989
3.8504214 -2.6028597 -0.93637013
3.8673098 -2.5791917 -0.90972102
3.9398155 -1.5884401 -0.92452854
3.9408851 -1.5428172 -0.92400432
3.9419549 -1.4972157 -0.92348033
3.9430232 -1.4516408 -0.92295665
3.9440918 -1.4060872 -0.92243326
3.9451592 -1.3605601 -0.92191023
3.9465821 -1.2998925 -0.92121315
3.947649 -1.2544185 -0.9206906
3.9487143 -1.2089708 -0.9201684
3.9501348 -1.1484092 -0.91947252
3.9511993 -1.1030143 -0.91895092
3.9522631 -1.057646 -0.91842967
3.953681 -0.99718994 -0.91773504
3.9547439 -0.95187426 -0.91721445
3.9558058 -0.90658486 -0.91669393
3.9572215 -0.84623414 -0.91600055
