# .PCD v0.7 - Point Cloud Data file format
VERSION 0.7
FIELDS x y z
SIZE 4 4 4
TYPE F F F
COUNT 1 1 1
WIDTH 1530
HEIGHT 1
VIEWPOINT 0 0 0 1 0 0 0
POINTS 1530
DATA ascii
3.0698969 0.77344877 0.67676777
3.0690525 0.82041299 0.67710257
3.068207 0.86740816 0.67743772
3.0673611 0.91443455 0.67777306
3.0665145 0.961492 0.67810863
3.0654557 1.0203594 0.67852837
3.0643959 1.0792723 0.67894852
3.0635474 1.1264389 0.67928481
3.0626981 1.173637 0.67962146
3.0618489 1.2208663 0.67995822
3.0609992 1.2681271 0.68029535
3.0601478 1.3154191 0.68063247
3.0592968 1.3627424 0.68096995
3.0584452 1.4100976 0.68130767
3.0573795 1.469337 0.68173021
3.056313 1.5286224 0.68215281
3.5822577 2.4664805 0.65728551
3.6273167 2.4674251 0.65240449
3.6735079 2.4683938 0.64739937
3.7212086 2.4692483 0.65664947
3.7694612 2.4704058 0.63700366
3.819653 2.4713087 0.6463601
3.8708286 2.4723799 0.64101225
3.9233754 2.4734793 0.63551909
3.5379622 2.4656901 0.64836323
3.113122 -1.5690488 0.72860068
3.1125097 -1.5349975 0.7288602
3.11131 -1.4783381 0.71786493
3.1102874 -1.4215013 0.71829343
3.1094694 -1.3759972 0.71863657
3.1086507 -1.3304635 0.71897984
3.1078315 -1.2849002 0.71932346
3.1068068 -1.2279027 0.71975321
3.1057808 -1.170862 0.72018331
3.10496 -1.1251944 0.72052765
3.1041381 -1.0794973 0.72087222
3.1033158 -1.0337702 0.72121698
3.1024926 -0.98801339 0.72156197
3.1014638 -0.93077374 0.72199351
3.1004024 -0.87581432 0.71781737
3.0994277 -0.82770491 0.71129161
3.0986023 -0.78180969 0.71163392
3.0977767 -0.73588425 0.71197635
3.0967438 -0.67843384 0.71240503
3.09571 -0.62093943 0.71283382
3.094882 -0.57490867 0.71317714
3.0940537 -0.52884775 0.71352065
3.0932252 -0.48275685 0.71386445
3.0923958 -0.43663567 0.71420848
3.0913587 -0.37894005 0.71463871
3.0903199 -0.32120019 0.71506941
3.0894887 -0.27497303 0.71541417
3.0886567 -0.22871549 0.7157591
3.0878241 -0.18242757 0.71610433
3.0869911 -0.13610929 0.7164498
3.0859494 -0.078166947 0.71688193
3.0849063 -0.020180233 0.71731442
3.0840714 0.026244733 0.71766067
3.0832365 0.072700262 0.71800721
3.0825317 0.11531003 0.72217834
3.0820076 0.13081519 0.70688063
3.0815637 0.16570303 0.71870083
3.0807266 0.21225034 0.7190479
3.0796797 0.2704792 0.71948218
3.0786316 0.32875282 0.71991688
3.0777931 0.37540758 0.72026485
3.0769534 0.42209315 0.720613
3.0761132 0.46880943 0.72096145
3.0752726 0.51555663 0.72131002
3.0744314 0.5623346 0.721659
3.073379 0.62085223 0.72209537
3.0723262 0.67941481 0.72253227
3.0714829 0.72630113 0.72288185
3.0706389 0.77321839 0.72323173
3.0697947 0.82016665 0.72358197
3.0689499 0.8671459 0.72393233
3.0681045 0.91415638 0.72428292
3.0672584 0.96119791 0.72463369
3.0662003 1.0200453 0.72507268
3.065141 1.0789381 0.72551191
3.0642931 1.1260889 0.72586358
3.0634449 1.1732709 0.72621548
3.0625961 1.220484 0.72656757
3.0617466 1.2677287 0.72691995
3.0608964 1.3150047 0.72727251
3.0600455 1.3623122 0.72762543
3.0589814 1.421492 0.7280668
3.0579162 1.4807177 0.72850853
3.0570633 1.5281352 0.72886205
3.5389454 2.4652953 0.68941706
3.627979 2.4671555 0.68045187
3.6745055 2.4679837 0.68999785
3.7704673 2.4699845 0.68070161
3.8206635 2.4708822 0.69062412
3.871505 2.4720914 0.67091364
3.9243946 2.4730411 0.6809715
3.1138372 -1.5685003 0.77425826
3.1132252 -1.5344599 0.77452892
3.1122503 -1.4822586 0.77266008
3.1113422 -1.4276694 0.7776615
3.1103659 -1.3753904 0.77579325
3.1095481 -1.3298755 0.77615499
3.1087291 -1.2843307 0.77651709
3.1079099 -1.2387564 0.77687931
3.1068854 -1.1817454 0.77733243
3.10586 -1.1246908 0.77778608
3.1050384 -1.0790124 0.77814913
3.1042173 -1.0333041 0.77851242
3.103395 -0.98756611 0.77887595
3.1023664 -0.93035007 0.77933079
3.1011875 -0.87084651 0.7729218
3.1003318 -0.82732397 0.76867694
3.0995076 -0.78144747 0.7690379
3.0986822 -0.73554111 0.76939899
3.0976501 -0.67811441 0.76985091
3.0966172 -0.62064379 0.77030301
3.0957901 -0.57463229 0.77066493
3.0949621 -0.52859044 0.77102721
3.0941343 -0.48251861 0.77138966
3.0933053 -0.43641663 0.77175242
3.0922692 -0.3787449 0.77220607
3.0912313 -0.32102913 0.77266014
3.0902181 -0.27485156 0.76150692
3.0893869 -0.22860937 0.76186687
3.0885546 -0.18233691 0.76222706
3.0877225 -0.13603406 0.76258749
3.0866814 -0.078111097 0.76303852
3.0856388 -0.020143762 0.76348972
3.0848048 0.026265692 0.76385111
3.0839701 0.072705656 0.76421267
3.0831349 0.11917618 0.76457453
3.0824296 0.16179845 0.7687583
3.0819061 0.17731377 0.75347108
3.0814619 0.21220899 0.76529878
3.0804155 0.27041832 0.76575196
3.0793681 0.32867235 0.76620543
3.0785298 0.37531143 0.76656848
3.0776908 0.42198128 0.76693183
3.0768514 0.46868187 0.76729548
3.0760112 0.51541328 0.76765931
3.0751703 0.56217557 0.76802331
3.0741191 0.62067336 0.76847869
3.073066 0.67921627 0.76893461
3.0722239 0.72608674 0.76929945
3.0713809 0.77298814 0.76966459
3.0705369 0.81992054 0.77003008
3.0696926 0.86688393 0.77039558
3.0688474 0.9138785 0.77076143
3.068002 0.96090406 0.77112752
3.0669446 1.0197314 0.77158552
3.065886 1.0786043 0.77204388
3.0650389 1.1257391 0.77241081
3.0641906 1.172905 0.77277809
3.0633423 1.2201021 0.77314544
3.0624931 1.2673306 0.7735132
3.0616438 1.3145907 0.77388114
3.0607939 1.3618819 0.77424932
3.0597305 1.4210416 0.77470988
3.0586658 1.4802471 0.77517086
3.0578136 1.5276484 0.77553982
3.6666195 2.5486522 0.75969172
3.7121563 2.5499513 0.74135917
3.7589753 2.5506511 0.75149047
3.8068955 2.5516884 0.74723697
3.8560364 2.552752 0.74287134
3.906445 2.5538433 0.73839694
3.114552 -1.5679523 0.81988585
3.1139402 -1.5339231 0.82016736
3.1131248 -1.4885265 0.82054305
3.1121037 -1.4317377 0.82101291
3.1110828 -1.3749057 0.82148319
3.1102653 -1.3294055 0.82185984
3.1094472 -1.2838758 0.82223654
3.1086285 -1.2383164 0.82261348
3.107604 -1.1813239 0.82308519
3.1065791 -1.124288 0.82355732
3.1057587 -1.0786248 0.82393521
3.1049376 -1.0329317 0.82431334
3.104116 -0.98720884 0.82469171
3.1030881 -0.93001139 0.82516485
3.1020594 -0.87277061 0.82563859
3.1012354 -0.8269431 0.82601786
3.1004117 -0.78108561 0.82639736
3.099587 -0.73519826 0.8267771
3.0987618 -0.68928087 0.82715708
3.0977304 -0.63184041 0.82763255
3.0966973 -0.57435602 0.82810837
3.09587 -0.52833337 0.82848895
3.0950429 -0.48228061 0.82887024
3.0942147 -0.43619764 0.82925165
3.093179 -0.37854993 0.8297286
3.0921421 -0.32085818 0.83020604
3.0911295 -0.27469981 0.81907791
3.0902987 -0.22847693 0.81945658
3.0894678 -0.18222366 0.8198356
3.0886359 -0.13594009 0.82021487
3.0876014 -0.080940574 0.81778371
3.0866954 -0.025062405 0.82441664
3.0857203 0.026291847 0.82154423
3.0848866 0.072712399 0.82192457
3.0840518 0.11916348 0.82230532
3.0832162 0.16564511 0.82268614
3.0824955 0.20982644 0.82766831
3.081804 0.22381181 0.80006087
3.0811508 0.27035743 0.8119908
3.0801044 0.32859194 0.81246305
3.0792663 0.37521535 0.81284124
3.078428 0.42186952 0.81321967
3.0775888 0.46855444 0.81359839
3.0767493 0.51527011 0.81397736
3.0759091 0.56201661 0.81435663
3.0748582 0.62049466 0.81483102
3.0738063 0.67901784 0.81530577
3.0729644 0.7258724 0.81568581
3.0721214 0.77275807 0.81606615
3.0712783 0.81967449 0.81644672
3.0704343 0.86662215 0.8168276
3.0695903 0.91360074 0.81720859
3.0687454 0.96061039 0.81759
3.0676882 1.019418 0.81806701
3.0666308 1.0782707 0.81854451
3.065784 1.1253896 0.81892675
3.0649362 1.1725394 0.81930923
3.0640883 1.2197206 0.81969196
3.0632398 1.266933 0.82007498
3.0623906 1.3141767 0.82045817
3.0615411 1.361452 0.82084161
3.0604784 1.4205914 0.82132143
3.0594149 1.479777 0.8218016
3.0585628 1.5271618 0.82218593
3.666858 2.5477281 0.80199796
3.7124553 2.5487034 0.79846615
3.7591844 2.5497034 0.79485023
3.8070879 2.5507286 0.79113966
3.8562706 2.5514555 0.80215061
3.9066026 2.5528576 0.78343534
3.1152658 -1.5674044 0.86548316
3.1146548 -1.5333863 0.8657757
3.1138394 -1.4880046 0.86616594
3.1128197 -1.4312345 0.86665416
3.1117988 -1.374421 0.86714303
3.1109819 -1.3289357 0.86753434
3.1101642 -1.2834209 0.8679257
3.1093459 -1.2378765 0.86831743
3.1083221 -1.1809028 0.86880761
3.1072981 -1.1238858 0.86929798
3.1064782 -1.0782374 0.86969078
3.1056576 -1.0325594 0.87008381
3.1048365 -0.98685157 0.87047702
3.1038094 -0.92967308 0.8709687
3.1027813 -0.87245125 0.87146091
3.101958 -0.82663864 0.87185496
3.1011343 -0.78079641 0.87224919
3.1003103 -0.73492414 0.87264389
3.0994856 -0.689022 0.87303865
3.0984545 -0.63160056 0.87353283
3.0974221 -0.57413512 0.87402695
3.0965958 -0.52812779 0.87442285
3.0957689 -0.48209035 0.87481898
3.0949414 -0.4360227 0.87521523
3.0939059 -0.37839413 0.87571079
3.09287 -0.32072151 0.87620693
3.0920403 -0.27454811 0.87660414
3.0912101 -0.22834446 0.87700146
3.0903795 -0.18211053 0.87739909
3.0895486 -0.13584624 0.87779719
3.0887167 -0.089551628 0.87819523
3.0876763 -0.03163901 0.87869358
3.0866354 0.02631801 0.87919211
3.0858018 0.072719149 0.87959129
3.0849674 0.11915078 0.87999064
3.0841331 0.16561297 0.88039041
3.083298 0.21210571 0.88079029
3.0823309 0.2625123 0.87737578
3.0815458 0.28581971 0.85447997
3.0810239 0.32849151 0.87023991
3.0801861 0.37509531 0.87063682
3.0793483 0.42172986 0.8710342
3.0785103 0.46839517 0.87143177
3.0776708 0.51509124 0.87182969
3.0768313 0.561818 0.87222773
3.0757811 0.62027144 0.8727259
3.0747304 0.67877001 0.87322408
3.0738571 0.72328407 0.86897004
3.0728619 0.77252805 0.86243653
3.0720191 0.81942874 0.86283225
3.0711761 0.86636043 0.86322826
3.0703323 0.91332322 0.86362475
3.0694878 0.96031696 0.86402118
3.0684316 1.0191045 0.86451727
3.0673747 1.0779375 0.86501372
3.0665281 1.1250401 0.86541122
3.065681 1.172174 0.86580896
3.0648339 1.2193391 0.86620694
3.0639856 1.2665355 0.86660522
3.0631373 1.3137633 0.8670038
3.0622883 1.3610221 0.86740285
3.0612261 1.4201417 0.86790162
3.0601633 1.4793069 0.86840087
3.0593116 1.5266757 0.86880052
3.6670964 2.5468049 0.84426862
3.7127535 2.5474572 0.85551494
3.759393 2.5487566 0.83817291
3.8073452 2.5494497 0.84962595
3.8564456 2.5504837 0.84657097
3.9068129 2.5515449 0.84343338
3.1159794 -1.566857 0.91105014
3.1153686 -1.5328501 0.91135365
3.1145544 -1.4874831 0.9117589
3.1135345 -1.4307313 0.91226548
3.1125147 -1.3739365 0.91277248
3.1116984 -1.3284662 0.91317838
3.1108813 -1.2829664 0.91358465
3.1100633 -1.237437 0.91399115
3.1090403 -1.1804819 0.9144997
3.1080167 -1.1234835 0.9150086
3.1071975 -1.0778502 0.91541606
3.1063771 -1.0321872 0.91582376
3.1055565 -0.9864943 0.91623169
3.1045296 -0.929335 0.91674203
3.1035025 -0.87213182 0.91725284
3.10268 -0.82633466 0.91766173
3.1018572 -0.78050745 0.91807085
3.1010332 -0.73465025 0.9184801
3.100209 -0.68876326 0.91888994
3.0991786 -0.63136089 0.9194023
3.0981472 -0.57391441 0.91991538
3.097321 -0.52792239 0.92032605
3.0964944 -0.48190022 0.92073685
3.0956676 -0.43584776 0.92114812
3.0946331 -0.37823832 0.92166239
3.0935972 -0.32058495 0.92217702
3.0927682 -0.27442694 0.92258912
3.0919385 -0.22823863 0.92300147
3.0911086 -0.18202011 0.92341429
3.0902779 -0.13577124 0.92382699
3.0894465 -0.089492038 0.92424017
3.0884068 -0.031598769 0.92475718
3.0873663 0.026338905 0.92527455
3.0865335 0.072724544 0.92568868
3.0856998 0.11914064 0.92610306
3.0848658 0.16558728 0.9265179
3.0840313 0.21206446 0.92693299
3.0829871 0.2702055 0.92745179
3.0820732 0.32450342 0.93178409
3.0815494 0.34005445 0.91653317
3.0811055 0.37497544 0.92838722
3.0802681 0.42159039 0.92880338
3.0794303 0.46823609 0.92921978
3.0785918 0.51491243 0.92963654
3.0777533 0.56161964 0.93005365
3.0767038 0.62004846 0.93057543
3.0756538 0.67852235 0.93109733
3.0746601 0.72771168 0.92459017
3.073787 0.77224088 0.92035407
3.0729446 0.81912178 0.92076868
3.0721023 0.86603355 0.92118376
3.0712593 0.91297656 0.92159909
3.0703778 0.96496421 0.9253723
3.0692608 1.0216712 0.91966134
3.0683036 1.077521 0.92305464
3.0674584 1.1246036 0.92347127
3.066612 1.1717175 0.92388803
3.0655785 1.218958 0.9126907
3.0647316 1.2661383 0.91310424
3.0638831 1.3133497 0.91351801
3.0630348 1.3605927 0.91393214
3.0619738 1.4196922 0.91445011
3.0609109 1.4788373 0.91496867
3.0600603 1.5261899 0.91538364
3.6674135 2.5455749 0.90058255
3.7129769 2.5465231 0.8982653
3.7596707 2.5474951 0.89588696
3.8075371 2.548491 0.89345258
3.856621 2.5495129 0.89095229
3.90697 2.5505612 0.88839173
3.1168706 -1.5661733 0.96796507
3.1162608 -1.5321802 0.9682824
3.1154461 -1.4868319 0.96870571
3.114428 -1.4301033 0.96923548
3.1134086 -1.3733315 0.96976548
3.1125925 -1.3278803 0.97018963
3.1117764 -1.2823987 0.97061437
3.1109588 -1.2368878 0.97103912
3.109937 -1.1799562 0.97157067
3.1089144 -1.1229814 0.9721027
3.1079154 -1.0774635 0.96111089
3.1070964 -1.0318153 0.96153349
3.106276 -0.98613763 0.9619562
3.1052504 -0.9289968 0.96248502
3.1042233 -0.87181282 0.96301419
3.1034014 -0.82603061 0.96343774
3.1025786 -0.78021854 0.96386164
3.1017559 -0.73437661 0.96428603
3.1009321 -0.68850464 0.96471053
3.0999019 -0.63112122 0.96524161
3.098871 -0.57369393 0.96577305
3.0980458 -0.52771711 0.96619862
3.0972195 -0.48171008 0.96662432
3.0963929 -0.435673 0.96705037
3.0954058 -0.38269931 0.96524519
3.0944848 -0.32735866 0.9703483
3.0934956 -0.27430576 0.96854371
3.0926666 -0.22813286 0.96897095
3.0918369 -0.18192969 0.96939844
3.091007 -0.13569625 0.9698264
3.0901761 -0.089432493 0.9702546
3.0891373 -0.031558499 0.97079009
3.0880976 0.026359793 0.97132617
3.0872653 0.072729915 0.97175521
3.086432 0.11913053 0.97218472
3.0855985 0.16556162 0.97261435
3.0847642 0.21202323 0.97304446
3.0837207 0.27014476 0.97358233
3.0826759 0.32831091 0.97412056
3.0819709 0.37098932 0.97836155
3.0814474 0.38655049 0.96312112
3.0810032 0.42147893 0.97498268
3.0801663 0.46810889 0.97541434
3.0793283 0.51476961 0.97584611
3.07849 0.56146103 0.97627813
3.0774415 0.61987025 0.97681874
3.0763922 0.67832446 0.97735983
3.0755517 0.7251237 0.97779292
3.0747111 0.771954 0.97822613
3.0738697 0.81881499 0.97865969
3.0730276 0.86570704 0.97909385
3.0721853 0.91263002 0.97952801
3.0711312 0.97132903 0.98007125
3.0700765 1.0300733 0.98061484
3.0692322 1.0771049 0.98105007
3.0683873 1.1241677 0.98148566
3.0675414 1.1712615 0.98192137
3.0665095 1.2184819 0.97074956
3.0656624 1.265642 0.97118217
3.0648153 1.3128337 0.97161502
3.063967 1.3600564 0.97204822
3.0629067 1.4191308 0.97259015
3.0618453 1.4782507 0.97313243
3.0609951 1.5255831 0.97356671
3.667731 2.5443463 0.95684022
3.7132008 2.5455902 0.94097978
3.7599487 2.5462351 0.95354193
3.8077292 2.5475338 0.93724114
3.8568542 2.5482197 0.95007557
3.9071271 2.5495777 0.93331009
3.1177616 -1.56549 1.0248363
3.1171517 -1.5315109 1.0251672
3.116338 -1.4861808 1.025609
3.1153207 -1.4294755 1.0261614
3.1143022 -1.3727273 1.0267143
3.1134868 -1.3272941 1.0271568
3.1126707 -1.2818317 1.0276
3.1118543 -1.2363396 1.0280433
3.1108332 -1.1794311 1.0285976
3.1098113 -1.1224797 1.0291524
3.108813 -1.0769802 1.0181856
3.1079941 -1.031351 1.0186262
3.1071746 -0.98569214 1.0190675
3.1061499 -0.92857468 1.0196195
3.1051238 -0.87141418 1.0201716
3.1043019 -0.82565087 1.0206139
3.1034803 -0.77985775 1.0210562
3.1026583 -0.73403472 1.0214989
3.1018353 -0.68818182 1.0219419
3.1008058 -0.63082194 1.022496
3.0995948 -0.57347357 1.0116005
3.0987697 -0.52751195 1.0120406
3.0979445 -0.48152012 1.0124815
3.0971184 -0.43549836 1.0129223
3.0962913 -0.38944638 1.0133634
3.0952578 -0.33183759 1.0139153
3.0942225 -0.27418476 1.0144677
3.0933943 -0.22802718 1.0149097
3.0925648 -0.18183939 1.015352
3.0917354 -0.13562137 1.015795
3.0909052 -0.089372963 1.016238
3.0898669 -0.031518288 1.0167921
3.0888274 0.026380658 1.0173469
3.0879958 0.072735317 1.017791
3.0871634 0.11912039 1.0182354
3.0863302 0.16553596 1.0186801
3.0854967 0.21198203 1.019125
3.0844536 0.27008408 1.0196817
3.0834098 0.32823074 1.0202386
3.0825741 0.37478381 1.0206847
3.0818689 0.41747457 1.0249386
3.0813453 0.43304604 1.0097084
3.0809014 0.46798182 1.0215776
3.0800643 0.5146268 1.0220244
3.0792265 0.56130254 1.0224717
3.0781784 0.61969209 1.023031
3.0771296 0.67812657 1.023591
3.0762901 0.72491008 1.024039
3.0754497 0.77172452 1.0244875
3.074609 0.81856978 1.0249364
3.0737677 0.86544597 1.0253854
3.0729256 0.91235304 1.0258348
3.0718725 0.97103232 1.026397
3.0708179 1.0297567 1.0269597
3.0699744 1.0767723 1.0274098
3.0691295 1.1238191 1.0278606
3.068285 1.170897 1.0283117
3.0674391 1.2180061 1.0287631
3.0665934 1.2651466 1.0292144
3.0657468 1.312318 1.0296664
3.0648091 1.366583 1.0325089
3.0637174 1.4233173 1.0284071
3.0627785 1.4776645 1.0312505
3.0619292 1.5249766 1.0317039
3.6679695 2.543426 0.99899822
3.7134986 2.5443473 0.99788398
3.7601566 2.5452909 0.99674588
3.8079855 2.5462587 0.99557549
3.8570297 2.5472507 0.99437898
3.9073372 2.5482688 0.99314815
3.1184738 -1.5649438 1.0702982
3.1178641 -1.5309758 1.0706403
3.1170511 -1.4856607 1.0710964
3.1160338 -1.4289737 1.0716672
3.1150162 -1.3722441 1.0722382
3.1142013 -1.326826 1.0726957
3.1133859 -1.2813781 1.0731533
3.11257 -1.2359009 1.073611
3.1115494 -1.1790113 1.0741839
3.110528 -1.1220784 1.0747571
3.10971 -1.0764976 1.0752161
3.1088917 -1.0308868 1.0756752
3.1080728 -0.98524666 1.0761349
3.1070945 -0.93273914 1.0743806
3.1061823 -0.87785739 1.0794988
3.1052024 -0.82527155 1.0777454
3.1043816 -0.77949727 1.0782063
3.1035595 -0.73369312 1.0786676
3.1027372 -0.68785912 1.079129
3.1017084 -0.63052297 1.0797062
3.1004987 -0.57319838 1.06884
3.0996742 -0.52725565 1.0692987
3.0988495 -0.48128295 1.0697579
3.0980241 -0.4352802 1.0702174
3.097198 -0.3892473 1.070677
3.0961647 -0.33166242 1.0712521
3.0951307 -0.27403355 1.0718279
3.0943029 -0.22789513 1.0722885
3.0934744 -0.18172656 1.0727496
3.0926139 -0.13784552 1.0685964
3.091634 -0.089313507 1.0621908
3.090596 -0.031478114 1.0627637
3.0895574 0.026401524 1.0633371
3.088726 0.072740681 1.063796
3.087894 0.11911028 1.0642555
3.0870616 0.16551033 1.0647151
3.0862284 0.21194084 1.0651753
3.0851865 0.27002347 1.0657506
3.0841434 0.32815069 1.0663261
3.0833082 0.37468809 1.0667872
3.0824723 0.42125612 1.0672483
3.0817678 0.46395946 1.0715151
3.0812438 0.47954106 1.0562954
3.0807998 0.51448417 1.068172
3.0799625 0.56114417 1.068634
3.0789149 0.61951405 1.0692124
3.077867 0.67792886 1.0697911
3.0770276 0.72469664 1.0702543
3.0761876 0.77149528 1.0707178
3.0753477 0.81832474 1.0711818
3.0745065 0.86518502 1.071646
3.0736651 0.91207623 1.0721104
3.072613 0.97073567 1.0726912
3.0715594 1.0294402 1.0732729
3.0707159 1.07644 1.0737386
3.0698721 1.123471 1.0742044
3.0690277 1.1705329 1.0746708
3.0681827 1.2176261 1.0751371
3.067337 1.2647501 1.0756037
3.0664907 1.3119055 1.076071
3.0654321 1.3708954 1.0766554
3.0643728 1.4299309 1.0772402
3.0635247 1.4771959 1.0777082
3.0626755 1.5244919 1.0781765
3.0620127 1.571694 1.0902634
3.103179 1.5794884 1.0824733
3.0613143 1.6191237 1.0907946
3.1183991 1.6231282 1.0888047
3.1776786 1.6148649 1.0865493
3.1883199 1.6447254 1.0908778
3.0710979 1.6598709 1.0951576
3.6682072 2.542506 1.041121
3.7137964 2.5431054 1.0547307
3.7603648 2.5443475 1.0399132
3.8082416 2.5449848 1.0538492
3.8572049 2.5462828 1.0386438
3.9074945 2.5472877 1.0379868
3.119185 -1.5643979 1.11573
3.1185758 -1.530441 1.1160829
3.1177635 -1.4851408 1.1165538
3.1167471 -1.4284723 1.1171427
3.1157303 -1.3717613 1.1177323
3.1149156 -1.3263581 1.1182041
3.1141007 -1.280925 1.1186762
3.1132853 -1.2354628 1.119149
3.1122651 -1.1785917 1.1197398
3.1112442 -1.1216776 1.1203313
3.1104267 -1.0761116 1.120805
3.1096089 -1.0305159 1.121279
3.1087909 -0.9848907 1.121753
3.1079717 -0.93923581 1.1222279
3.1069477 -0.88212365 1.1228213
3.1059227 -0.8249681 1.1234152
3.1051018 -0.77920902 1.1238911
3.1042802 -0.73342001 1.124367
3.1034584 -0.68760115 1.1248431
3.1024301 -0.63028401 1.1254389
3.101402 -0.57292324 1.1260352
3.1005785 -0.52699959 1.1265125
3.0997539 -0.4810459 1.1269903
3.0989292 -0.43506223 1.1274683
3.0981038 -0.3890484 1.1279464
3.0970714 -0.33148736 1.1285446
3.0960381 -0.27388239 1.1291432
3.0952106 -0.22776319 1.1296225
3.0943828 -0.18161385 1.1301022
3.0934043 -0.13313514 1.1237226
3.0925436 -0.089239255 1.1195869
3.091507 -0.031427912 1.1201832
3.0904691 0.026427593 1.12078
3.0896382 0.072747409 1.1212575
3.0888071 0.11909763 1.1217356
3.0879755 0.16547832 1.1222141
3.0871429 0.2118894 1.1226926
3.086108 0.26704782 1.1203852
3.0848761 0.32807058 1.1123829
3.0840418 0.37459242 1.1128588
3.0832062 0.42114484 1.1133351
3.0823705 0.46772784 1.1138115
3.0816655 0.51044363 1.1180909
3.0811419 0.52603543 1.1028817
3.0806978 0.56098598 1.1147656
3.0796506 0.61933613 1.1153629
3.0786035 0.67773134 1.1159601
3.0777647 0.72448325 1.1164384
3.0769255 0.7712661 1.1169174
3.0760858 0.81807977 1.1173961
3.0752454 0.86492437 1.1178753
3.0744045 0.91179979 1.118355
3.0733523 0.9704392 1.1189549
3.0722997 1.0291239 1.1195552
3.0714569 1.0761076 1.1200359
3.0706131 1.1231226 1.120517
3.0697691 1.1701685 1.1209981
3.0689247 1.2172458 1.1214797
3.0680792 1.2643539 1.1219616
3.0672338 1.3114934 1.1224439
3.0661759 1.3704631 1.1230471
3.0651171 1.4294784 1.123651
3.0642693 1.4767271 1.1241343
3.0634212 1.5240072 1.1246181
3.0625722 1.5713185 1.1251023
3.061723 1.6186613 1.1255865
3.2558858 1.6520021 1.0908279
3.0610857 1.6541879 1.1259499
3.1337652 1.667186 1.095197
3.6685238 2.5412805 1.0972376
3.7140198 2.5421746 1.0973296
3.7606418 2.5430908 1.09742
3.8084335 2.5440302 1.0975165
3.8574388 2.5449934 1.0976117
3.9076514 2.5463073 1.0827856
3.1198959 -1.5638524 1.1611319
3.1192875 -1.5299066 1.1614957
3.1184754 -1.4846214 1.1619811
3.1175053 -1.43253 1.1602678
3.1166008 -1.3780587 1.1653953
3.1156292 -1.3258903 1.1636827
3.114815 -1.2804723 1.1641695
3.1139998 -1.2350248 1.1646564
3.1130264 -1.1827432 1.1629412
3.1121182 -1.1280851 1.1680787
3.1111431 -1.0757258 1.166364
3.1103261 -1.0301452 1.1668525
3.109508 -0.98453486 1.1673412
3.1086898 -0.93889511 1.1678307
3.1076658 -0.88180178 1.1684425
3.1066413 -0.82466513 1.169055
3.1058214 -0.77892113 1.1695452
3.1050005 -0.73314714 1.1700358
3.1041789 -0.68734348 1.170527
3.103152 -0.63004518 1.1711409
3.1021237 -0.5727033 1.1717558
3.1013007 -0.52679491 1.1722481
3.100477 -0.48085654 1.1727405
3.0996528 -0.43488795 1.1732333
3.0988281 -0.38888943 1.1737261
3.0977962 -0.33134753 1.1743429
3.0967636 -0.27376169 1.1749599
3.0959365 -0.22765781 1.1754541
3.095109 -0.18152373 1.1759489
3.0942814 -0.13535948 1.1764436
3.0934532 -0.089165032 1.1769385
3.092417 -0.031377748 1.1775582
3.0913794 0.026453599 1.1781778
3.0905502 0.07275413 1.1786745
3.0897195 0.11908502 1.1791711
3.0888882 0.16544631 1.1796679
3.0880561 0.21183801 1.1801653
3.0868325 0.26988927 1.1692905
3.0856085 0.32799059 1.1584086
3.0847743 0.37449682 1.1588995
3.0839398 0.42103362 1.1593907
3.0831723 0.46991056 1.1668141
3.0824518 0.51416337 1.1718891
3.0817313 0.55843997 1.1769686
3.0810399 0.57252932 1.1494672
3.0813558 0.59569103 1.1958003
3.080472 0.62204176 1.170156
3.0795228 0.67748439 1.1736264
3.0785007 0.72427005 1.1625917
3.077662 0.77103704 1.1630852
3.0768232 0.81783491 1.1635792
3.075983 0.8646636 1.1640737
3.0751429 0.91152322 1.1645684
3.0740914 0.9701429 1.1651871
3.0730393 1.0288078 1.1658063
3.072197 1.0757756 1.166302
3.0713537 1.1227746 1.1667981
3.0705106 1.1698047 1.1672945
3.0696669 1.2168658 1.1677914
3.0688221 1.263958 1.1682885
3.0679767 1.3110815 1.168786
3.0669196 1.3700312 1.1694081
3.0658615 1.4290266 1.1700308
3.0650144 1.4762592 1.1705296
3.064167 1.5235231 1.1710286
3.0633187 1.5708184 1.1715276
3.0624697 1.6181451 1.1720273
3.0618327 1.6536597 1.1724021
3.6688402 2.5400565 1.1532984
3.7142427 2.541245 1.1398926
3.7609196 2.5418355 1.1548681
3.8086252 2.543076 1.1411462
3.8576136 2.5440271 1.141799
3.9078608 2.5450017 1.1424644
3.0790532 0.72411019 1.1971872
3.0782149 0.77086538 1.1976922
3.0773761 0.81765157 1.1981974
3.0765367 0.8644684 1.1987031
3.0756967 0.91131604 1.199209
3.0746458 0.96992081 1.199842
3.0735946 1.0285708 1.2004752
3.0727522 1.075527 1.2009823
3.0719097 1.122514 1.2014899
3.0710666 1.1695321 1.2019978
3.0702233 1.2165813 1.2025058
3.0693791 1.2636615 1.2030144
3.0685344 1.310773 1.2035229
3.0674775 1.3697077 1.2041595
3.0664196 1.4286878 1.2047966
3.0655735 1.4759083 1.2053065
3.0647261 1.5231603 1.2058167
3.0638781 1.5704436 1.2063274
3.0630298 1.6177582 1.2068384
3.0621808 1.665104 1.2073495
3.6691563 2.5388341 1.2093029
3.7145398 2.5400064 1.1965952
3.7611268 2.540895 1.1979175
3.8088808 2.541806 1.1992688
3.8577883 2.5430613 1.1859472
3.9080179 2.5440235 1.1871836
3.6693933 2.5379176 1.2512712
3.7148366 2.5387692 1.2532408
3.7613342 2.5399551 1.2409298
3.8090725 2.5408535 1.2428229
3.8580213 2.5417752 1.2447603
3.9081745 2.543046 1.2318633
3.5322258 2.4353526 1.3173587
3.5963695 2.4451241 1.3059344
3.6570318 2.4416673 1.3009393
3.6983082 2.4386296 1.3161142
3.7394228 2.4502687 1.3030808
3.8083909 2.4488206 1.2990694
3.8461995 2.441577 1.3123405
3.8942156 2.4558392 1.2999952
3.5906985 2.4840682 1.3044527
3.6604915 2.4727681 1.302727
3.66396 2.5039468 1.3045189
3.7366304 2.4927988 1.3027585
3.8140926 2.4974422 1.3018589
3.8948054 2.5022614 1.3009217
3.6684883 2.5362511 1.2927713
3.7276592 2.5312438 1.3001368
3.7854347 2.5393007 1.2923765
3.833698 2.5405157 1.2803354
3.9035614 2.5387623 1.2896657
3.4359798 2.3519518 1.3743029
3.5636635 2.3517504 1.373106
3.6279352 2.3639958 1.3714526
3.769083 2.3634429 1.3695507
3.4336524 2.3775463 1.3738072
3.4956906 2.3775299 1.3729665
3.5587578 2.3907709 1.371839
3.6254039 2.3910041 1.3709307
3.6945684 2.3912406 1.3699882
3.7650537 2.4055045 1.3687387
3.8410459 2.3917472 1.3679922
3.4921052 2.416574 1.3722112
3.5457826 2.433979 1.3584256
3.6074605 2.4370403 1.3510334
3.6427412 2.4312506 1.3507078
3.6952097 2.4356666 1.3569605
3.748059 2.4398518 1.3487048
3.7968688 2.4407616 1.3381002
3.842309 2.4382074 1.3546276
3.8999462 2.442889 1.3461893
3.952796 2.4438758 1.3351183
3.5031583 2.3495941 1.3931396
3.5620539 2.3497589 1.4128749
3.6085823 2.3510635 1.4046452
3.6563396 2.3524024 1.396198
3.7053752 2.3537772 1.3875246
3.754492 2.3537879 1.4065492
3.8061945 2.3552186 1.3977854
3.8593383 2.3566895 1.3887768
3.913281 2.3574705 1.3940725
3.9455044 2.3609304 1.3761258
3.915827 2.4211655 1.3663719
3.9186845 2.3920183 1.3669341
3.6069129 2.3490481 1.4448762
3.6540272 2.3496792 1.4505355
3.7029722 2.3510156 1.4425995
3.7526193 2.3516896 1.4483888
3.8035986 2.3523817 1.4543247
3.856638 2.353811 1.4461148
3.911175 2.3552809 1.4376733
3.967274 2.3567922 1.4289899
3.7011731 2.3489497 1.4838209
3.7507503 2.3495955 1.4901414
3.8016562 2.3502586 1.49664
3.8539455 2.3509405 1.5033062
3.9083738 2.3523672 1.4956818
3.9643586 2.3538351 1.4878392
3.8003631 2.3488455 1.5248027
3.8519299 2.3487916 1.546108
3.9062772 2.3501871 1.5390942
3.9614506 2.3508859 1.5465341
3.9048817 2.348736 1.5679858
3.9592745 2.3486791 1.5904589
3.9546998 0.68710172 -1.9007941
3.9031246 0.70793068 -1.8772336
3.9501827 0.71694326 -1.8686401
3.8038304 0.7480306 -1.831874
3.8528509 0.72823375 -1.8542676
3.8987143 0.73737127 -1.8455124
3.9456744 0.74672741 -1.8365473
3.7560172 0.76734012 -1.8100319
3.8485432 0.75728393 -1.8229676
3.8943124 0.76675606 -1.8138512
3.7306359 0.79090995 -1.7841319
3.7996221 0.77670085 -1.8009847
3.8442438 0.78627992 -1.7917266
3.8899188 0.79608512 -1.7822502
3.9411747 0.77645433 -1.8045164
3.6845918 0.80934298 -1.7632719
3.7954214 0.80531806 -1.7701527
3.8399525 0.81522161 -1.7605441
3.9366839 0.80612439 -1.7725471
3.5939395 -0.26289773 -1.7142839
3.575985 0.84004664 -1.7277892
3.61939 0.82251745 -1.7476177
3.6806192 0.83708084 -1.7333894
3.7477992 0.82388824 -1.749109
3.7912283 0.83388233 -1.7393776
3.835669 0.84410912 -1.7294197
3.8855338 0.82535875 -1.7507089
3.9322016 0.83573753 -1.7406387
3.5335863 0.85716915 -1.7084208
3.6155441 0.84976155 -1.7182684
3.6559808 0.85969216 -1.7085359
3.7437012 0.85208493 -1.718731
3.7870431 0.86239386 -1.7086593
3.8811564 0.85457683 -1.7192272
3.9277277 0.86529386 -1.7087917
3.6010036 -0.26317716 -1.6760461
3.4921606 0.87389922 -1.6894964
3.5299034 0.88375205 -1.6797855
3.5722218 0.86695617 -1.6988015
3.6318839 0.88206941 -1.6839466
3.6973259 0.86984581 -1.698585
3.7396107 0.88023007 -1.6884084
3.7828658 0.89085281 -1.6779976
3.8313935 0.87294263 -1.6983534
3.8767877 0.88373971 -1.6878051
3.9232633 0.89479393 -1.6770056
3.4318841 0.89824212 -1.6619608
3.4885552 0.90016341 -1.6612054
3.526227 0.91028929 -1.6511995
3.568465 0.89381868 -1.6698641
3.607872 0.90410596 -1.659725
3.693327 0.89763397 -1.6686481
3.7355278 0.90832406 -1.6581411
3.8271265 0.90172243 -1.667345
3.8724275 0.91284746 -1.6564424
3.610461 -0.26355118 -1.6248558
3.3733921 0.92186409 -1.6352406
3.4283893 0.92404312 -1.6341696
3.4849558 0.92638284 -1.6329622
3.5225565 0.93678075 -1.6226627
3.5647151 0.92063457 -1.6409769
3.6321487 0.92927998 -1.6332481
3.6893353 0.92537206 -1.638765
3.731452 0.93636686 -1.6279289
3.7766154 0.93343633 -1.6321183
3.8228669 0.93044859 -1.6363949
3.8680754 0.94190055 -1.6251389
3.9165823 0.93893105 -1.6294476
3.2985058 0.95210725 -1.6010307
3.3355384 0.93715137 -1.6179481
3.3700039 0.94721621 -1.607934
3.444618 0.94211215 -1.6151377
3.4813626 0.95255774 -1.6047674
3.5609715 0.94740385 -1.6121402
3.6853507 0.95306033 -1.6089357
3.8186157 0.95912093 -1.6055021
3.2575128 -0.2664701 -1.5578347
3.2787595 0.97181374 -1.57941
3.3322186 0.96221334 -1.5909547
3.3666217 0.97252661 -1.5806721
3.4160068 0.96950692 -1.5850552
3.4777753 0.97868818 -1.5766203
3.5170634 0.97642702 -1.5799555
3.5846255 0.97255009 -1.5856788
3.6403508 0.96935493 -1.5903963
3.6813729 0.98069876 -1.5791599
3.7253532 0.978329 -1.5827202
3.77038 0.97591573 -1.5863516
3.8143718 0.98774022 -1.574667
3.8615634 0.98537046 -1.5783014
3.9099183 0.98295599 -1.5820109
3.1920743 0.99508971 -1.5524106
3.2267983 0.98106641 -1.5682733
3.2590771 0.9912433 -1.5580883
3.3289039 0.98723453 -1.5640051
3.3632448 0.9977954 -1.5534552
3.4375865 0.9938001 -1.559462
3.5535038 1.0008028 -1.5546166
3.6364613 0.99664897 -1.5609927
3.7662334 1.0041654 -1.5559154
3.2633591 -0.26672918 -1.5229423
3.124769 1.0222712 -1.521664
3.1735387 1.0139382 -1.5317395
3.2236695 1.0052965 -1.5421778
3.2788839 1.0145509 -1.5335128
3.3255944 1.0122151 -1.5370996
3.3843436 1.0218837 -1.5280713
3.4340796 1.0195792 -1.5316943
3.4724066 1.0177951 -1.5344951
3.5306816 1.0217078 -1.5316378
3.5907097 1.0256779 -1.5287594
3.6325779 1.0238943 -1.5316412
3.6754205 1.0220573 -1.534603
3.7192698 1.0201895 -1.5376211
3.7620943 1.0323637 -1.5255346
3.8080223 1.0305624 -1.5285287
3.8550677 1.0287313 -1.5315815
3.903276 1.0268409 -1.5347245
3.092144 1.0354469 -1.5067602
3.1218147 1.0457225 -1.4964088
3.1705017 1.0377545 -1.5060903
3.220546 1.0294883 -1.5161234
3.2527113 1.0401285 -1.5054381
3.3222907 1.0371549 -1.5102376
3.3565078 1.0482085 -1.4991556
3.4305787 1.0453148 -1.5039731
3.5079379 1.0422926 -1.5090045
3.7152236 1.0480289 -1.5076278
3.0765376 1.613349 -1.5109551
3.1234689 1.6136868 -1.5205162
3.0610409 -1.7394485 -1.4373286
3.0608656 -1.705641 -1.4379169
3.0606325 -1.6605287 -1.4387021
3.0603402 -1.6040752 -1.4396847
3.0600476 -1.547559 -1.4406685
3.0598133 -1.5022957 -1.4414562
3.0595789 -1.4569893 -1.4422449
3.0593443 -1.4116395 -1.4430342
3.0590503 -1.3548892 -1.4440218
3.0587561 -1.2980754 -1.4450108
3.0585206 -1.2525737 -1.4458028
3.058285 -1.2070286 -1.4465955
3.0580492 -1.1614399 -1.4473891
3.057754 -1.1043901 -1.448382
3.0574584 -1.0472765 -1.4493762
3.0572219 -1.0015345 -1.4501724
3.0569842 -0.95574856 -1.4509691
3.0567474 -0.90991879 -1.451767
3.0564506 -0.85256726 -1.452765
3.0561533 -0.79515129 -1.4537644
3.0559149 -0.7491672 -1.4545648
3.0556772 -0.70313877 -1.455366
3.0554385 -0.65706605 -1.4561679
3.0551999 -0.61094886 -1.4569706
3.0549011 -0.55323768 -1.4579751
3.0546021 -0.49546158 -1.4589806
3.0543625 -0.44918862 -1.4597862
3.0541828 -0.41445601 -1.4603907
3.0540628 -0.39128605 -1.4607939
3.0538826 -0.3565087 -1.4613991
3.0536427 -0.31010157 -1.462207
3.0534623 -0.27526823 -1.4628133
3.2711806 -0.26707572 -1.4762474
3.9481637 1.0544755 -1.5060807
3.0465131 1.067425 -1.4861835
3.068917 1.0594409 -1.4804542
3.1188648 1.0691381 -1.4711921
3.167469 1.0615342 -1.4804808
3.227092 1.0653043 -1.4778078
3.2839034 1.0632913 -1.4812806
3.3189921 1.0620544 -1.4834192
3.3775289 1.0725763 -1.4734699
3.4270837 1.0710073 -1.4762983
3.4652686 1.0697904 -1.4784869
3.5309041 1.0677097 -1.4822366
3.5850177 1.0659966 -1.4853252
3.6267672 1.0646663 -1.4877177
3.6675084 1.0770371 -1.4753712
3.7111845 1.0758178 -1.4776889
3.7559006 1.0745573 -1.4800752
3.8240628 1.0798128 -1.476004
3.8798809 1.0759683 -1.4814214
3.943651 1.0839763 -1.4742923
3.046536 1.1033249 -1.4750136
3.0863495 1.0818176 -1.4568239
3.1324871 1.0861733 -1.4532107
3.1798277 1.0907254 -1.4494145
3.2463658 1.0888586 -1.452955
3.3156993 1.0869136 -1.4566444
3.5006664 1.0947776 -1.4524673
3.5812318 1.0928133 -1.4564366
3.0463502 1.1391909 -1.4756334
3.0462263 1.1631174 -1.476047
3.0460405 1.1990309 -1.4766679
3.0457931 1.246954 -1.477496
3.0455446 1.2949243 -1.4783251
3.0452962 1.342942 -1.4791552
3.0450475 1.3910067 -1.4799858
3.0447986 1.4391186 -1.4808174
3.0446627 1.4897265 -1.4745862
3.0445092 1.5355508 -1.4706366
3.0571024 1.6173236 -1.4731591
3.1236095 1.6135783 -1.4715453
3.0438852 1.6562779 -1.4727089
3.6308389 2.3448167 -1.4683392
3.7709651 2.3459647 -1.4622976
3.8699026 2.346535 -1.4679731
3.0616488 -1.7394254 -1.4029751
3.0614746 -1.705616 -1.4035515
3.0612407 -1.6605012 -1.4043202
3.0609491 -1.6040449 -1.4052824
3.060657 -1.5475259 -1.4062456
3.0604227 -1.5022602 -1.407017
3.0601888 -1.4569514 -1.4077892
3.0599544 -1.4115994 -1.4085621
3.0596609 -1.354846 -1.4095294
3.0593674 -1.2980294 -1.4104977
3.0591319 -1.2525256 -1.4112732
3.0588965 -1.2069778 -1.4120495
3.0586607 -1.1613867 -1.4128264
3.0583658 -1.1043339 -1.4137987
3.0580709 -1.0472174 -1.4147723
3.0578341 -1.0014731 -1.4155518
3.0575976 -0.95568484 -1.4163324
3.0573606 -0.9098525 -1.4171133
3.0570638 -0.85249799 -1.4180907
3.0567672 -0.79507923 -1.4190693
3.0565295 -0.74909264 -1.419853
3.0562916 -0.7030617 -1.4206375
3.0560536 -0.65698665 -1.4214226
3.055815 -0.61086702 -1.4222089
3.0555167 -0.5531528 -1.4231924
3.0552177 -0.49537358 -1.4241771
3.05509 -0.44676515 -1.4180398
3.054945 -0.40274733 -1.4141418
3.0547051 -0.35638171 -1.4149263
3.0544653 -0.3099713 -1.4157115
3.0542853 -0.27513552 -1.4163009
3.0473084 1.1155086 -1.428036
3.076884 1.1025112 -1.4288641
3.1460571 1.1034243 -1.4349964
3.1594772 1.108259 -1.4162755
3.2264912 1.1072297 -1.4196039
3.2790585 1.1001811 -1.4415491
3.3071203 1.1098769 -1.4148066
3.3722129 1.1060352 -1.4280214
3.4235942 1.096657 -1.4486701
3.463275 1.1097708 -1.4244431
3.5386462 1.1070468 -1.4401668
3.5528986 1.1116328 -1.4181347
3.6309478 1.1084809 -1.4335884
3.7290397 1.1102757 -1.4269824
3.7974763 1.1016862 -1.451898
3.837508 1.1136734 -1.4219486
3.9401844 1.113714 -1.4276092
3.0471852 1.139425 -1.4284377
3.0470612 1.1633532 -1.4288398
3.046876 1.1992688 -1.4294432
3.046628 1.2471957 -1.4302484
3.0464935 1.2976062 -1.4240023
3.0463419 1.3432529 -1.4200361
3.0460935 1.3913219 -1.420838
3.0458448 1.4394386 -1.4216403
3.0456924 1.4852188 -1.4176663
3.0455568 1.5358791 -1.4114001
3.060957 1.6167624 -1.4196651
3.1237502 1.6134698 -1.4225903
3.0449338 1.6566174 -1.4133995
3.6775002 2.3457716 -1.4426789
3.7246652 2.3463974 -1.4307745
3.7723348 2.3466809 -1.433151
3.8212087 2.346971 -1.4355834
3.8713338 2.3472691 -1.4380821
3.5878258 2.3452468 -1.4378736
3.6327653 2.3458505 -1.4261967
3.0624599 -1.7393944 -1.3571655
3.0622852 -1.7055829 -1.3577254
3.0620527 -1.6604648 -1.3584726
3.0617614 -1.6040046 -1.3594074
3.0614693 -1.5474818 -1.3603432
3.0612361 -1.502213 -1.3610929
3.0610018 -1.4569011 -1.3618432
3.0607677 -1.4115458 -1.3625942
3.0604751 -1.3547885 -1.363534
3.0601816 -1.2979679 -1.364475
3.0599468 -1.252461 -1.3652284
3.0597126 -1.2069101 -1.3659829
3.0594766 -1.1613157 -1.3667377
3.0591822 -1.1042593 -1.3676826
3.0588872 -1.0471387 -1.3686285
3.0586517 -1.0013912 -1.369386
3.0584152 -0.95559973 -1.3701442
3.0581787 -0.90976429 -1.3709034
3.0578825 -0.85240579 -1.3718529
3.0575862 -0.79498285 -1.3728037
3.0573487 -0.7489931 -1.3735654
3.0573161 -0.70293337 -1.3627487
3.0570781 -0.65685421 -1.3635063
3.0568404 -0.61073059 -1.3642645
3.0565424 -0.55301136 -1.3652133
3.0562446 -0.49522704 -1.366163
3.0560997 -0.45125061 -1.3622415
3.0559723 -0.40259263 -1.3560705
3.0557332 -0.35622296 -1.3568271
3.0554938 -0.30980846 -1.3575844
3.0553277 -0.25751925 -1.3526201
3.0481431 1.1157408 -1.3808451
3.0552011 1.1183517 -1.348184
3.1111085 1.115088 -1.3714782
3.1786671 1.1151497 -1.3749785
3.2491558 1.1152072 -1.3786743
3.2592499 1.1187561 -1.357419
3.3280838 1.1170886 -1.3716327
3.4053433 1.1172004 -1.3753828
3.4862187 1.1173174 -1.3793081
3.5709703 1.1174402 -1.3834218
3.6598837 1.1175694 -1.387738
3.7666616 1.1218054 -1.3678044
3.8655691 1.1220546 -1.3719547
3.0482283 1.1397173 -1.3694335
3.0481055 1.1636479 -1.3698208
3.04792 1.1995668 -1.3704027
3.047673 1.247498 -1.3711791
3.0475216 1.2931008 -1.3671883
3.0473871 1.3435638 -1.3609077
3.0471396 1.3916373 -1.3616803
3.0468915 1.4397581 -1.3624538
3.0466433 1.4879265 -1.3632282
3.0463953 1.5361419 -1.3640033
3.0614493 1.6168437 -1.3718355
3.1238556 1.6133888 -1.3858838
3.045773 1.6568892 -1.3659443
3.6794646 2.3468165 -1.4000052
3.7273364 2.347805 -1.3731498
3.7743843 2.3477514 -1.3893983
3.8240011 2.3484168 -1.3765051
3.8734782 2.3483691 -1.3932121
3.5903327 2.3466027 -1.3823143
3.6346846 2.3468795 -1.3840232
3.6807697 2.3475099 -1.3715348
3.063271 -1.7393634 -1.3113495
3.063097 -1.7055492 -1.3118932
3.0628645 -1.6604283 -1.3126185
3.0625737 -1.6039643 -1.3135263
3.0622821 -1.5474374 -1.3144349
3.0620489 -1.5021656 -1.3151625
3.0618155 -1.4568505 -1.3158909
3.0615819 -1.4114926 -1.31662
3.0612895 -1.3547311 -1.3175324
3.0609968 -1.2979066 -1.3184459
3.0607624 -1.2523966 -1.3191775
3.0605273 -1.2068427 -1.3199099
3.0602925 -1.1612451 -1.3206429
3.0599985 -1.1041844 -1.3215601
3.0597043 -1.0470598 -1.3224782
3.0595794 -0.9990083 -1.3163232
3.059437 -0.95549339 -1.3124
3.0592008 -0.9096539 -1.3131313
3.0589054 -0.85229039 -1.3140464
3.0586092 -0.79486257 -1.3149626
3.058373 -0.7488687 -1.3156965
3.0583405 -0.70280498 -1.3048508
3.0581033 -0.65672171 -1.3055805
3.0578659 -0.61059415 -1.3063108
3.0575688 -0.5528698 -1.3072248
3.057271 -0.49508047 -1.3081398
3.0570331 -0.44879702 -1.3088726
3.0567942 -0.4024688 -1.3096062
3.0565555 -0.35609591 -1.3103402
3.0563171 -0.30967814 -1.3110753
3.0560186 -0.25159055 -1.3119951
3.0558074 -0.19730511 -1.3089732
3.0641503 1.1216998 -1.3280962
3.1343799 1.1236193 -1.3203208
3.198046 1.1221085 -1.3332753
3.2078311 1.125622 -1.3122178
3.2745135 1.1241219 -1.325279
3.3439693 1.1225533 -1.3389196
3.3546474 1.1262267 -1.3169308
3.4275451 1.1246707 -1.3306932
3.5094674 1.1249647 -1.3335917
3.5892081 1.1233013 -1.3484054
3.6014745 1.1272435 -1.3248544
3.6854601 1.1255956 -1.3398182
3.7869132 1.1280074 -1.3308073
3.8005397 1.1321805 -1.3059121
3.8868773 1.1284189 -1.3340163
3.9012198 1.1327028 -1.3084821
3.0539985 1.1465945 -1.3100634
3.048964 1.1998646 -1.3113525
3.0487173 1.2478001 -1.3120999
3.0484705 1.2957828 -1.3128479
3.0482235 1.3438125 -1.3135967
3.0479763 1.3918898 -1.3143464
3.0477288 1.4400141 -1.3150966
3.0474808 1.4881854 -1.3158478
3.0471711 1.5484695 -1.3167876
3.0468607 1.6088226 -1.3177285
3.0466123 1.6571608 -1.3184822
3.7293377 2.3488591 -1.3298926
3.7771108 2.3491747 -1.331008
3.8260913 2.3494978 -1.3321553
3.8763275 2.3498297 -1.3333281
3.5928388 2.3479578 -1.3266988
3.6366034 2.347908 -1.3418137
3.6800675 2.3566105 -1.3232088
3.7654049 2.3868783 -1.312912
3.8630638 2.3878772 -1.3144419
3.6701493 2.3991256 -1.3108867
3.7582088 2.4273915 -1.311161
3.8555398 2.4294131 -1.3126451
3.7534196 2.4543264 -1.3099954
3.848032 2.4708037 -1.3108515
3.0640821 -1.7393324 -1.2655275
3.0639086 -1.7055159 -1.2660547
3.0636764 -1.6603918 -1.2667583
3.0633857 -1.603924 -1.2676386
3.0630953 -1.5473931 -1.26852
3.0628622 -1.5021183 -1.2692258
3.062629 -1.4568002 -1.2699325
3.0623956 -1.4114387 -1.2706395
3.0621035 -1.3546739 -1.2715247
3.0620153 -1.2978299 -1.2609005
3.0617812 -1.252316 -1.2616047
3.0615468 -1.206758 -1.2623094
3.0613127 -1.1611564 -1.263015
3.0610194 -1.1040909 -1.2638978
3.060725 -1.0469613 -1.2647815
3.0605836 -1.0034875 -1.2608352
3.0604589 -0.95538694 -1.2546467
3.0602236 -0.90954357 -1.2553502
3.0599287 -0.852175 -1.2562308
3.0596335 -0.79474223 -1.2571124
3.0593972 -0.74874431 -1.2578183
3.0591602 -0.70270222 -1.2585249
3.0589237 -0.65661579 -1.2592325
3.0586863 -0.61048502 -1.2599405
3.0583897 -0.55275655 -1.2608266
3.0580928 -0.49496326 -1.2617136
3.0579143 -0.46025372 -1.2622464
3.0577955 -0.43709922 -1.2626017
3.0576165 -0.402345 -1.2631352
3.0573788 -0.3559688 -1.263847
3.0571404 -0.30954787 -1.2645597
3.0568416 -0.25145611 -1.2654514
3.0565429 -0.19329882 -1.2663441
3.0563922 -0.15059194 -1.2631158
3.0563302 -0.11172238 -1.2559421
3.9534376 0.50408864 -1.2550617
3.9532828 0.53457111 -1.2554375
3.9530509 0.58032459 -1.2560012
3.9528182 0.62610775 -1.2565656
3.9525852 0.67192811 -1.2571303
3.9522746 0.73307163 -1.2578838
3.9520411 0.77896649 -1.2584493
3.9518082 0.82489878 -1.2590156
3.9514966 0.88619167 -1.2597708
3.9512627 0.9321987 -1.2603378
3.9510281 0.97824317 -1.2609051
3.950716 1.039686 -1.2616624
3.9504819 1.0858057 -1.2622309
3.2176745 1.1291566 -1.2910351
3.289901 1.1295314 -1.2928787
3.3653917 1.1299231 -1.2948055
3.4443731 1.1303329 -1.2968214
3.5270927 1.1307619 -1.2989328
3.6138227 1.1312118 -1.3011464
3.7048621 1.1316841 -1.3034701
3.7547572 1.1474185 -1.2912042
3.8511047 1.1477325 -1.2927389
3.9503255 1.1165721 -1.26261
3.0681608 1.1471922 -1.2823484
3.1330283 1.1476033 -1.2835882
3.1921391 1.1574693 -1.2818038
3.2618616 1.1579523 -1.2829053
3.3346462 1.1584563 -1.2840551
3.4106996 1.158983 -1.2852565
3.4902475 1.1595333 -1.2865129
3.5735359 1.1601102 -1.2878286
3.6608353 1.1607144 -1.2892072
3.7501285 1.1752789 -1.2901044
3.8462653 1.1762969 -1.2916098
3.9473896 1.1773682 -1.2931933
3.0546443 1.202091 -1.277951
3.1185591 1.2034717 -1.2789265
3.185159 1.2049103 -1.2799431
3.2546165 1.2064106 -1.2810031
3.3271203 1.2079768 -1.2821097
3.4028754 1.2096133 -1.2832658
3.4821048 1.2113247 -1.2844751
3.5650523 1.2131162 -1.2857409
3.6519876 1.214994 -1.2870674
3.7432036 1.2169635 -1.2884589
3.8390248 1.2190328 -1.2899207
3.9398105 1.2212088 -1.291458
3.0495338 1.2480607 -1.2767236
3.1118493 1.24979 -1.2771113
3.178201 1.2521977 -1.2780881
3.2473946 1.2547085 -1.2791066
3.319618 1.2573292 -1.28017
3.393127 1.2726591 -1.2807852
3.3970208 1.2474756 -1.2817762
3.4739847 1.2629309 -1.2824425
3.5565927 1.2659283 -1.2836584
3.6431649 1.2690699 -1.2849329
3.7339931 1.2723656 -1.2862701
3.8293986 1.2758279 -1.2876745
3.9297366 1.2794688 -1.2891514
3.0490975 1.2959666 -1.277378
3.1051612 1.2959616 -1.2753019
3.1712651 1.2993321 -1.2762394
3.2401965 1.3028469 -1.2772168
3.3121405 1.3065152 -1.2782367
3.3872995 1.3103476 -1.2793025
3.4658935 1.3143549 -1.280417
3.5481634 1.3185499 -1.2815833
3.6343732 1.3229454 -1.2828057
3.7248135 1.3275568 -1.2840881
3.819803 1.3324001 -1.285435
3.9196935 1.3374932 -1.2868513
3.0488508 1.3439991 -1.2781094
3.0984938 1.3419874 -1.2734982
3.1643517 1.3463147 -1.2743964
3.2330217 1.3508267 -1.2753328
3.3046887 1.3555355 -1.2763102
3.3795516 1.3604543 -1.2773309
3.4578307 1.3655977 -1.2783984
3.5397639 1.3709815 -1.2795157
3.6256142 1.3766222 -1.2806865
3.7156689 1.3825393 -1.2819145
3.8126302 1.3746922 -1.2837609
3.9121869 1.3808677 -1.2851319
3.0604379 1.4016778 -1.2756475
3.1068325 1.3988969 -1.2695242
3.1574609 1.3931456 -1.2725594
3.214344 1.4061112 -1.2692857
3.2476633 1.4211206 -1.2565751
3.3001821 1.4099967 -1.2669429
3.3718307 1.4103894 -1.2753662
3.4327519 1.422997 -1.2705333
3.4518008 1.4039173 -1.276889
3.5156844 1.4166555 -1.2719895
3.5654898 1.4232562 -1.2613133
3.6273866 1.4200745 -1.2677689
3.7088323 1.4236462 -1.2802893
3.7890615 1.4254558 -1.2769877
3.8078601 1.4028141 -1.2826476
3.8682964 1.4256468 -1.2721252
3.9071953 1.4097071 -1.2839886
3.0485661 1.4402699 -1.2677327
3.0483191 1.488445 -1.2684605
3.0480094 1.5487332 -1.2693713
3.0527198 1.6077652 -1.2761889
3.0473034 1.6452734 -1.2826974
3.126672 1.6642072 -1.2898939
3.1553845 1.629616 -1.2757179
3.8750889 2.5038278 -1.289489
3.8277485 2.5034926 -1.289816
3.0648937 -1.7393012 -1.2196991
3.0647199 -1.7054827 -1.22021
3.0645983 -1.6580923 -1.2140442
3.0644016 -1.6038737 -1.21027
3.0641115 -1.547338 -1.2111175
3.0638785 -1.5020592 -1.2117959
3.0636461 -1.4567373 -1.2124751
3.0634205 -1.4028554 -1.2104071
3.0630305 -1.348115 -1.2173892
3.0630343 -1.2977533 -1.2033459
3.0628004 -1.2522352 -1.2040225
3.0625665 -1.2066734 -1.2046998
3.0623329 -1.161068 -1.2053777
3.0620403 -1.1039975 -1.2062261
3.0617466 -1.046863 -1.2070754
3.0615118 -1.0011044 -1.2077557
3.0612772 -0.95530176 -1.2084365
3.0610416 -0.90945524 -1.2091181
3.0607474 -0.85208273 -1.2099707
3.0604527 -0.79464591 -1.2108246
3.0602164 -0.74864483 -1.2115083
3.0599802 -0.70259947 -1.2121928
3.0597439 -0.65650982 -1.2128779
3.0595074 -0.61037576 -1.2135638
3.0592108 -0.55264324 -1.214422
3.0589142 -0.49484587 -1.215281
3.0587363 -0.46013397 -1.2157972
3.0586176 -0.43697783 -1.2161412
3.058439 -0.40222117 -1.2166579
3.0582011 -0.35584179 -1.2173475
3.0579631 -0.30941749 -1.2180375
3.0576653 -0.2513217 -1.2189013
3.0573666 -0.19316027 -1.2197658
3.057128 -0.14657858 -1.2204583
3.0568886 -0.099951789 -1.2211512
3.0569153 -0.064916521 -1.2100108
3.9555581 0.13950503 -1.2354519
3.9553273 0.1849708 -1.2360069
3.955096 0.23046613 -1.2365619
3.954865 0.27599823 -1.2371175
3.954556 0.33675697 -1.2378589
3.9543247 0.38236293 -1.2384154
3.954093 0.42800593 -1.2389723
3.9538987 0.48385388 -1.2346004
3.9538193 0.53468829 -1.2251096
3.9535871 0.58044332 -1.2256624
3.9533546 0.62622815 -1.2262155
3.9531217 0.67205006 -1.2267692
3.9528117 0.73319578 -1.2275081
3.9525785 0.77909237 -1.2280624
3.9523451 0.82502621 -1.2286173
3.952034 0.88632131 -1.229358
3.9518003 0.93232995 -1.2299137
3.9515669 0.97837633 -1.2304703
3.9512551 1.0398211 -1.2312125
3.9510205 1.0859425 -1.2317698
3.9508646 1.1167104 -1.2321414
3.0797627 1.4187102 -1.2314278
3.1323018 1.4187531 -1.2267162
3.1866257 1.4187973 -1.2218446
3.2428265 1.4188428 -1.2168044
3.3026752 1.419662 -1.2250547
3.364737 1.4205112 -1.2336249
3.4273286 1.4205911 -1.2285179
3.4903691 1.4198575 -1.2089809
3.494123 1.421489 -1.2374614
3.559622 1.4207585 -1.2177238
3.6316316 1.4216943 -1.2267973
3.7065723 1.4226694 -1.2362583
3.7824047 1.4228001 -1.2306843
3.8613482 1.4229362 -1.2248818
3.0494037 1.4405258 -1.2203624
3.0491571 1.4887044 -1.2210668
3.0489094 1.5369306 -1.2217721
3.8763652 2.5044196 -1.2442061
3.8294203 2.5042725 -1.2301556
3.065908 -1.7392623 -1.1624045
3.0657349 -1.705441 -1.1628951
3.0655963 -1.6625638 -1.1589284
3.0654173 -1.6038232 -1.1528924
3.0651274 -1.5472827 -1.1537055
3.0648959 -1.5020001 -1.1543567
3.0646632 -1.4566741 -1.1550087
3.064373 -1.3999534 -1.1558242
3.0640819 -1.3431697 -1.1566408
3.0638492 -1.2976918 -1.157295
3.0636158 -1.2521706 -1.1579494
3.0633829 -1.2066057 -1.1586049
3.063149 -1.1609972 -1.1592606
3.0628567 -1.1039226 -1.1600815
3.0625639 -1.0467842 -1.1609031
3.0623298 -1.0010225 -1.1615614
3.0620952 -0.95521665 -1.16222
3.0618601 -0.90936691 -1.1628793
3.0615661 -0.85199034 -1.1637045
3.0612719 -0.79454952 -1.1645305
3.0610363 -0.74854523 -1.1651921
3.0608006 -0.70249677 -1.1658542
3.0605645 -0.65640384 -1.166517
3.060328 -0.61026657 -1.1671807
3.0600321 -0.55253005 -1.168011
3.059736 -0.49472857 -1.1688423
3.0595584 -0.46001419 -1.1693413
3.0594399 -0.43685645 -1.1696744
3.0592618 -0.4020974 -1.1701742
3.0590243 -0.35571468 -1.1708412
3.0587864 -0.30928716 -1.171509
3.0584891 -0.25118721 -1.1723443
3.0581911 -0.19302168 -1.1731811
3.0579524 -0.14643671 -1.173851
3.0577135 -0.099806629 -1.1745217
3.0574746 -0.053131323 -1.1751928
3.0574419 -0.0063728169 -1.1641951
3.9566274 0.1397111 -1.1749831
3.9563973 0.18518016 -1.1755161
3.9561665 0.23067865 -1.1760492
3.9559357 0.27621403 -1.1765829
3.9556277 0.33697709 -1.1772947
3.9553962 0.38258627 -1.1778293
3.9551649 0.42823255 -1.1783643
3.9548562 0.48914367 -1.179078
3.9546239 0.53486401 -1.1796137
3.9543924 0.58062148 -1.18015
3.95416 0.62640882 -1.1806865
3.9539275 0.67223322 -1.1812236
3.9536176 0.73338217 -1.1819401
