# .PCD v0.7 - Point Cloud Data file format
VERSION 0.7
FIELDS x y z
SIZE 4 4 4
TYPE F F F
COUNT 1 1 1
WIDTH 1510
HEIGHT 1
VIEWPOINT 0 0 0 1 0 0 0
POINTS 1510
DATA ascii
3.1410756 -0.24763416 0.49653515
3.1339726 -0.19249572 0.49666405
3.1283114 -0.14855152 0.49676666
3.1226687 -0.10474934 0.49686894
3.1159101 -0.05299405 0.49981344
3.1083131 0.003860204 0.50840318
3.1027334 0.047171287 0.50848609
3.0985603 0.07956776 0.50854814
3.8521338 -3.2022917 0.48908117
3.8908744 -3.1971529 0.49661091
3.9288549 -3.1818576 0.5090431
3.9720776 -3.1865649 0.49796131
4.0357976 -3.178303 0.4954187
4.100234 -3.1697624 0.50744385
4.1457644 -3.1639194 0.50084424
4.1923714 -3.1579382 0.49408275
3.76454 -3.153029 0.51473856
3.9305086 -3.1364582 0.52020055
4.110527 -3.1465156 0.52496201
4.1127791 -3.1182601 0.52619922
3.9325323 -3.1095004 0.52137744
4.1150341 -3.0899639 0.52743804
3.4539351 -2.6792736 0.50326002
3.4488759 -2.6399941 0.50333536
3.4421489 -2.5877762 0.50343543
3.4354465 -2.5357416 0.50353509
3.4287674 -2.4838903 0.50363463
3.4237726 -2.4451156 0.5037089
3.4187925 -2.4064543 0.50378293
3.4121716 -2.3550563 0.50388151
3.4055741 -2.303838 0.50397968
3.3989999 -2.2527981 0.50407755
3.3908129 -2.1892431 0.50419933
3.394083 -2.2146297 0.50415075
3.3859191 -2.1512513 0.50427216
3.3794129 -2.1007421 0.50436902
3.3729293 -2.0504079 0.50446546
3.366468 -2.0002477 0.50456166
3.3600292 -1.9502611 0.50465745
3.3536122 -1.9004465 0.50475293
3.3472173 -1.8508035 0.50484806
3.3408449 -1.8013309 0.50494289
3.3329091 -1.7397234 0.50506097
3.3360789 -1.7643327 0.50501382
3.3281648 -1.7028939 0.5051316
3.3218577 -1.6539278 0.50522548
3.3155715 -1.6051286 0.505319
3.3087878 -1.5542568 0.5125742
3.3011642 -1.4962587 0.5174368
3.2930532 -1.4362583 0.52941024
3.2868638 -1.3881984 0.5294621
3.280695 -1.3403007 0.52951378
3.2730134 -1.2806509 0.52957821
3.2760818 -1.3044786 0.52955252
3.2684205 -1.2449895 0.52961677
3.2623141 -1.1975743 0.52966791
3.2562282 -1.1503183 0.52971888
3.2501626 -1.1032207 0.52976972
3.2441175 -1.0562806 0.52982044
3.2365901 -0.99783427 0.5298835
3.2290924 -0.93961501 0.52994633
3.2231174 -0.89322042 0.52999634
3.2156758 -0.83543903 0.5300588
3.2186484 -0.85852098 0.53003383
3.2112265 -0.80089283 0.53009605
3.2053101 -0.75495833 0.53014553
3.1979442 -0.6977613 0.53020722
3.1906064 -0.64078426 0.53026879
3.1847589 -0.59537762 0.53031784
3.1789305 -0.55012023 0.53036672
3.1731212 -0.50501132 0.53041548
3.165555 -0.44912937 0.54194671
3.1569111 -0.38200417 0.54199106
3.1597872 -0.40433857 0.54197633
3.1526062 -0.34857523 0.54201323
3.1468823 -0.30412433 0.54204261
3.1394246 -0.24905582 0.55346566
3.1323242 -0.19391105 0.55347902
3.1266656 -0.14996192 0.5534898
3.1210253 -0.10615494 0.55350041
3.114001 -0.051602237 0.55351353
3.1070032 0.0027455164 0.55352676
3.1014254 0.046060305 0.55353707
3.0972538 0.078459874 0.55354494
3.7663629 -3.1272883 0.51585901
3.6193893 -3.0694792 0.51402956
3.7691033 -3.088609 0.51754272
3.9345584 -3.082505 0.52255571
4.1172919 -3.0616271 0.52867877
3.6218762 -3.0323331 0.51564223
3.772764 -3.0369229 0.5197925
3.9376032 -3.0419376 0.52432662
4.119554 -3.0332487 0.52992129
3.4924653 -2.9846637 0.52773839
3.6252005 -2.9827001 0.51779729
3.7764347 -2.9850998 0.52204835
3.9416726 -2.9877222 0.52669311
3.4885066 -2.9368083 0.52407199
3.6285329 -2.9329412 0.51995772
3.7801154 -2.9331393 0.52431017
3.9447315 -2.9469666 0.52847207
3.4870582 -2.8949134 0.52917767
3.6318736 -2.8830554 0.52212369
3.7838058 -2.881041 0.52657801
3.4851565 -2.8443501 0.53023422
3.6352227 -2.8330429 0.52429509
3.4832714 -2.7938225 0.53129321
3.6377399 -2.7954535 0.52592719
3.4744737 -2.7444544 0.54333401
3.4542031 -2.6937659 0.55287319
3.4474545 -2.6413574 0.55288589
3.4407303 -2.589134 0.55289847
3.4340301 -2.5370944 0.55291116
3.4273529 -2.4852381 0.55292374
3.4223597 -2.4464595 0.55293304
3.4173813 -2.4077942 0.55294245
3.4107625 -2.3563912 0.55295491
3.4041672 -2.3051677 0.55296743
3.3975949 -2.2541232 0.55297971
3.389411 -2.1905618 0.55299515
3.3926799 -2.215951 0.55298901
3.3845186 -2.1525664 0.55300432
3.3780143 -2.1020522 0.5530166
3.3715329 -2.0517132 0.5530287
3.3650737 -2.0015485 0.55304092
3.3586369 -1.9515569 0.55305296
3.352222 -1.9017377 0.55306506
3.3458292 -1.8520896 0.55307716
3.3394589 -1.8026125 0.55308914
3.3315253 -1.7409991 0.55310398
3.3346944 -1.7656106 0.55309808
3.3267827 -1.7041659 0.55311304
3.3199561 -1.6529406 0.56030792
3.313849 -1.6067073 0.56509215
3.3077621 -1.560622 0.56985587
3.2994471 -1.4978243 0.57698232
3.2916825 -1.4375052 0.57694656
3.2854948 -1.3894407 0.57691795
3.2793281 -1.3415385 0.57688946
3.2716489 -1.281883 0.57685399
3.2747169 -1.3057131 0.57686818
3.2670579 -1.2462183 0.57683271
3.2609534 -1.1987988 0.57680458
3.2548695 -1.1515384 0.57677639
3.2488058 -1.1044364 0.57674831
3.2427623 -1.0574919 0.57672042
3.2352376 -0.99904001 0.57668561
3.227742 -0.94081557 0.57665104
3.2217693 -0.89441663 0.57662338
3.2143302 -0.83662993 0.57658899
3.2173018 -0.85971385 0.57660264
3.2098823 -0.80208045 0.57656831
3.203968 -0.7561416 0.57654101
3.1966045 -0.69893932 0.57650697
3.1887755 -0.63985872 0.58340007
3.1830893 -0.59683871 0.58797896
3.177263 -0.55157608 0.58793318
3.1714566 -0.50646204 0.58788753
3.1638932 -0.45057359 0.59930211
3.1552529 -0.38344085 0.59920591
3.158128 -0.40577772 0.59923798
3.15095 -0.35000816 0.59915805
3.1452286 -0.30555224 0.59909451
3.1381035 -0.25019318 0.59901524
3.1310058 -0.19504349 0.59893626
3.125349 -0.15109044 0.59887332
3.1197102 -0.10727947 0.59881067
3.1126885 -0.052721974 0.59873247
3.1056931 0.0016305518 0.59865457
3.100117 0.044949386 0.59859234
3.0959463 0.077351727 0.59854597
3.4910302 -2.9860606 0.57786751
3.485867 -2.9459524 0.57784373
3.4807196 -2.9059632 0.57782
3.473876 -2.8528023 0.57778835
3.4670572 -2.7998304 0.57775694
3.4595497 -2.7477336 0.60259205
3.4527802 -2.6951339 0.60251677
3.446034 -2.6427205 0.60244161
3.4393117 -2.5904918 0.60236681
3.4326136 -2.5384471 0.60229224
3.4259386 -2.4865854 0.60221803
3.4209471 -2.4478033 0.60216242
3.4159703 -2.4091346 0.60210705
3.4093537 -2.3577263 0.60203338
3.4027605 -2.3064981 0.60196012
3.3961897 -2.2554481 0.60188693
3.3880081 -2.1918807 0.60179591
3.3912766 -2.2172723 0.60183233
3.3831177 -2.1538815 0.60174155
3.3766158 -2.1033626 0.60166913
3.3701363 -2.0530188 0.60159701
3.3636789 -2.0028489 0.60152525
3.3572443 -1.9528526 0.6014536
3.3508317 -1.9030286 0.60138226
3.3444409 -1.8533759 0.60131115
3.3380728 -1.8038942 0.60124034
3.3297958 -1.7425936 0.61316502
3.3333101 -1.7668886 0.60118729
3.3250551 -1.7057562 0.61309683
3.3189292 -1.6593509 0.61779946
3.3121269 -1.6082859 0.62487245
3.3058672 -1.5596414 0.62476188
3.298074 -1.4990771 0.62462449
3.2903113 -1.4387523 0.62448758
3.2841258 -1.3906831 0.6243785
3.2779615 -1.3427764 0.62426984
3.2702847 -1.2831155 0.62413442
3.2733507 -1.3069476 0.62418854
3.2656949 -1.2474474 0.62405354
3.2595923 -1.2000232 0.62394589
3.2535102 -1.1527585 0.62383854
3.2474484 -1.1056521 0.62373167
3.2414072 -1.0587034 0.6236251
3.2338855 -1.000246 0.62349242
3.2263918 -0.94201601 0.62336022
3.2204211 -0.8956129 0.62325495
3.2129841 -0.83782083 0.62312376
3.2159553 -0.8609069 0.62317616
3.2080407 -0.80114526 0.63000935
3.2022898 -0.75762111 0.63454187
3.1949289 -0.70041227 0.63438809
3.1877561 -0.64581525 0.63886029
3.1814198 -0.5982998 0.64564681
3.1755962 -0.55303204 0.64550626
3.1697915 -0.50791287 0.64536601
3.1625638 -0.45172921 0.64519161
3.1542583 -0.38430282 0.63353825
3.1557314 -0.39957878 0.64884424
3.1496248 -0.35115471 0.64487916
3.1439054 -0.30669481 0.64474106
3.1367829 -0.25133064 0.64456916
3.1296868 -0.19617602 0.6443978
3.124032 -0.152219 0.6442613
3.1183951 -0.1084042 0.6441251
3.1113756 -0.05384161 0.64395571
3.1043823 0.00051565678 0.64378673
3.0988083 0.043838363 0.64365208
3.0946395 0.076243505 0.64355135
3.4895949 -2.987458 0.62800187
3.4844337 -2.9473455 0.62791091
3.4792876 -2.9073524 0.62782025
3.4724464 -2.8541863 0.62769961
3.4656293 -2.8012092 0.62757939
3.4581244 -2.7491071 0.65232879
3.4513569 -2.6965024 0.65216541
3.4446127 -2.6440837 0.65200251
3.4378927 -2.5918498 0.65184021
3.4311962 -2.5398002 0.65167844
3.4245236 -2.4879334 0.65151733
3.4195342 -2.4491475 0.65139687
3.4145589 -2.4104745 0.65127677
3.4079442 -2.3590615 0.65111703
3.4013531 -2.3078282 0.65095788
3.3947849 -2.2567735 0.65079927
3.386606 -2.1932001 0.65060174
3.3898728 -2.2185938 0.6506806
3.381717 -2.1551969 0.65048361
3.375217 -2.1046731 0.65032667
3.3687396 -2.0543246 0.65017027
3.3622847 -2.0041499 0.65001446
3.3558524 -1.9541488 0.64985913
3.3494415 -1.9043199 0.64970428
3.3430529 -1.8546624 0.64954996
3.3363397 -1.8054962 0.6614362
3.3280661 -1.7441887 0.67323309
3.3315792 -1.7684864 0.66130584
3.3233275 -1.7073469 0.67308778
3.3170271 -1.6583642 0.6728946
3.3107483 -1.609549 0.67270207
3.304491 -1.5609 0.67251027
3.2967 -1.5003299 0.67227137
3.2889407 -1.4399992 0.67203349
3.2827568 -1.3919256 0.67184383
3.2765942 -1.3440144 0.67165482
3.2689199 -1.2843478 0.6714195
3.2719853 -1.3081822 0.6715135
3.2643316 -1.2486764 0.67127889
3.2582309 -1.2012478 0.67109179
3.2521513 -1.1539787 0.67090541
3.2460916 -1.106868 0.67071956
3.2400522 -1.0599148 0.67053431
3.2325325 -1.001452 0.67030376
3.2250421 -0.94321674 0.67007416
3.2187357 -0.89710832 0.6815511
3.2113023 -0.83930963 0.68129891
3.2142718 -0.86239839 0.68139964
3.2070191 -0.80717289 0.68580472
3.2006121 -0.75910056 0.69254947
3.193254 -0.70188522 0.69227588
3.185925 -0.64489001 0.69200337
3.180084 -0.59946889 0.69178623
3.174262 -0.55419707 0.69156981
3.1684594 -0.50907373 0.69135416
3.1612339 -0.45288497 0.69108552
3.154036 -0.39691046 0.69081783
3.1482992 -0.35230133 0.69060463
3.1425817 -0.30783743 0.69039214
3.1354613 -0.25246829 0.69012743
3.1283686 -0.19730864 0.68986368
3.122715 -0.15334769 0.68965346
3.1170802 -0.10952887 0.68944407
3.1097348 -0.055241507 0.70049101
3.1027443 -0.00087803387 0.70020831
3.0971725 0.042449385 0.69998282
3.0930054 0.074858107 0.69981426
3.4881597 -2.9888551 0.67814171
3.483 -2.9487388 0.67798364
3.4778554 -2.9087417 0.67782587
3.4710164 -2.8555703 0.67761618
3.4642019 -2.8025882 0.67740738
3.4566991 -2.7504809 0.70207083
3.4499338 -2.6978707 0.7018193
3.4431918 -2.6454468 0.70156866
3.4364741 -2.5932081 0.70131886
3.4297798 -2.5411534 0.70107001
3.4231093 -2.4892814 0.70082188
3.4164622 -2.4375916 0.70057482
3.4114914 -2.3989379 0.70039004
3.4065347 -2.3603969 0.70020562
3.399946 -2.3091586 0.69996071
3.3933799 -2.2580988 0.69971657
3.3852034 -2.194519 0.69941264
3.3884695 -2.2199156 0.69953406
3.380316 -2.1565127 0.69923091
3.3738179 -2.1059837 0.69898933
3.3673427 -2.0556302 0.69874853
3.3608902 -2.005451 0.69850868
3.3544593 -1.9554448 0.69826961
3.3480508 -1.9056113 0.69803125
3.3413172 -1.8562708 0.70985579
3.3346064 -1.8070984 0.72163951
3.3266821 -1.7454646 0.72129321
3.3298481 -1.7700844 0.72143161
3.3219454 -1.7086194 0.72108626
3.3156469 -1.659632 0.72081107
3.30937 -1.6108122 0.72053671
3.3031147 -1.5621587 0.72026336
3.2953262 -1.5015825 0.71992302
3.2875688 -1.4412465 0.71958405
3.2813873 -1.3931682 0.71931386
3.2752273 -1.3452525 0.71904474
3.2675548 -1.2855803 0.71870941
3.2706196 -1.309417 0.7188434
3.2629685 -1.2499057 0.71850902
3.25687 -1.2024727 0.71824259
3.250792 -1.1551991 0.71797693
3.2447343 -1.1080838 0.71771222
3.2386968 -1.0611265 0.71744835
3.2308414 -1.0029598 0.72882479
3.2233541 -0.94471765 0.72847325
3.2170501 -0.89860398 0.73985398
3.2111034 -0.85234427 0.7395553
3.2051768 -0.806238 0.73925769
3.1992695 -0.76028448 0.73896092
3.1919134 -0.70306385 0.73859143
3.1845868 -0.64606339 0.73822343
3.1787477 -0.60063815 0.73793024
3.1729281 -0.55536211 0.73763794
3.1671274 -0.51023471 0.73734665
3.1599038 -0.45404077 0.7369839
3.1527088 -0.39806122 0.73662257
3.1469738 -0.353448 0.73633456
3.141258 -0.30897999 0.73604757
3.1335926 -0.2505703 0.74054784
3.1267195 -0.19872461 0.74670249
3.1210687 -0.15475881 0.7464003
3.1154361 -0.11093498 0.74609911
3.108094 -0.05664169 0.75703275
3.1011062 -0.0022721128 0.75663614
3.0955365 0.041060187 0.75631988
3.0913708 0.073472619 0.75608349
3.4867244 -2.990253 0.7282868
3.481566 -2.9501328 0.72806144
3.4764235 -2.9101315 0.72783673
3.4695864 -2.8569548 0.72753799
3.4622204 -2.8015292 0.73469788
3.4552732 -2.7518547 0.75181806
3.4485097 -2.6992395 0.75147831
3.4417701 -2.6468103 0.75113982
3.4350545 -2.5945663 0.75080264
3.4283628 -2.5425062 0.75046653
3.4216943 -2.4906294 0.75013161
3.4150491 -2.4389348 0.74979782
3.41008 -2.4002771 0.74954826
3.4051254 -2.3617322 0.74929953
3.3985384 -2.3104892 0.7489686
3.3919744 -2.2594244 0.74863899
3.3838007 -2.1958382 0.74822843
3.3870656 -2.2212374 0.74839246
3.3789148 -2.1578283 0.74798316
3.3724191 -2.1072946 0.74765694
3.3659458 -2.056936 0.7473318
3.3594949 -2.006752 0.74700779
3.3525364 -1.9544392 0.7539286
3.3463123 -1.9072255 0.75844717
3.3395813 -1.8578793 0.77016884
3.3332198 -1.8083806 0.76980788
3.3252983 -1.7467407 0.76935834
3.3284624 -1.7713628 0.76953787
3.3205626 -1.709892 0.76908958
3.3142664 -1.6609002 0.76873231
3.3079915 -1.6120754 0.76837623
3.3017385 -1.5634172 0.76802123
3.2939522 -1.5028355 0.76757944
3.2861974 -1.4424938 0.76713932
3.2800179 -1.3944111 0.76678878
3.2738593 -1.3464909 0.76643926
3.2661901 -1.2868129 0.76600409
3.2692535 -1.3106519 0.76617789
3.261605 -1.2511349 0.76574391
3.2555084 -1.2036977 0.76539791
3.2489252 -1.1542424 0.77209496
3.2430375 -1.1096041 0.77645981
3.2370026 -1.062641 0.7760976
3.2291501 -1.0044678 0.78735262
3.2216659 -0.94621879 0.786879
3.2157016 -0.8998006 0.78650171
3.2097566 -0.85353667 0.78612542
3.2038317 -0.80742615 0.78575057
3.197927 -0.76146829 0.78537685
3.1905732 -0.70424253 0.78491139
3.1832488 -0.64723682 0.78444803
3.1774118 -0.60180736 0.78407866
3.1715939 -0.55652732 0.78371048
3.1657951 -0.51139569 0.78334367
3.1585743 -0.4551968 0.7828868
3.1508949 -0.39715007 0.78928256
3.1453168 -0.35488155 0.79350352
3.1396029 -0.31040865 0.79312325
3.1327605 -0.25786233 0.79551929
3.1250706 -0.2001407 0.80354762
3.1194217 -0.15616986 0.80315334
3.1137917 -0.11234129 0.80276036
3.1067803 -0.057761878 0.80227089
3.0997953 -0.0033873003 0.80178338
3.0942278 0.039948758 0.80139446
3.0900633 0.072364122 0.80110377
3.4852886 -2.9916503 0.77843726
3.4801323 -2.9515262 0.77814478
3.4749913 -2.9115212 0.77785307
3.4681568 -2.8583395 0.77746522
3.4609897 -2.8056908 0.78953385
3.4538472 -2.7532287 0.80157053
3.4470863 -2.7006083 0.80114281
3.4403489 -2.648174 0.80071652
3.4336357 -2.5959249 0.80029166
3.4269457 -2.5438597 0.79986835
3.420279 -2.4919777 0.79944652
3.4136362 -2.4402778 0.79902613
3.4086688 -2.4016163 0.7987119
3.4037154 -2.3630679 0.79839844
3.3971307 -2.3118196 0.7979818
3.390569 -2.2607501 0.79756665
3.3823979 -2.1971576 0.79704952
3.3856618 -2.2225595 0.79725599
3.3775134 -2.1591442 0.79674041
3.3710198 -2.1086054 0.79632956
3.3645484 -2.0582423 0.79592007
3.3575687 -2.005743 0.80276483
3.3515062 -1.9609877 0.81207317
3.3445735 -1.9088402 0.81887043
3.3381925 -1.8591661 0.818425
3.3318331 -1.8096629 0.81798112
3.3239138 -1.7480171 0.81742823
3.3270769 -1.7726415 0.81764913
3.3191798 -1.7111647 0.81709778
3.3128853 -1.6621684 0.81665838
3.306613 -1.6133391 0.81622046
3.3003619 -1.564676 0.81578416
3.2925785 -1.5040888 0.81524086
3.284826 -1.4437411 0.81469971
3.2786489 -1.3956538 0.81426853
3.2724922 -1.3477292 0.81383866
3.2648251 -1.2880458 0.81330341
3.2678876 -1.3118869 0.81351721
3.2602413 -1.2523644 0.81298351
3.2538066 -1.2052289 0.82434916
3.2479005 -1.1604275 0.82863384
3.2413404 -1.1111244 0.83521432
3.2353082 -1.0641558 0.83475369
3.227797 -1.0056742 0.83418041
3.2203147 -0.94741994 0.83360922
3.2143528 -0.90099734 0.8331539
3.2084098 -0.85472929 0.83270025
3.2024872 -0.80861449 0.83224809
3.196584 -0.76265234 0.83179742
3.1892328 -0.70542127 0.83123612
3.1819108 -0.64841032 0.83067709
3.1760755 -0.6029768 0.83023173
3.1702595 -0.55769259 0.82978767
3.1639736 -0.5104779 0.83622104
3.1569116 -0.45664188 0.84027195
3.1498754 -0.40300059 0.84430212
3.1436594 -0.35631537 0.8506788
3.137948 -0.31183738 0.85020542
3.1308362 -0.25645071 0.84961617
3.1237509 -0.20127375 0.84902894
3.1181045 -0.15729903 0.84856093
3.1124763 -0.11346638 0.84809452
3.1054671 -0.058882013 0.84751374
3.0984843 -0.0045028264 0.84693497
3.0929186 0.038837221 0.84647352
3.0890827 0.071532562 0.83487183
3.0884285 0.070978135 0.85738516
3.4838533 -2.9930487 0.82859313
3.4786985 -2.95292 0.8282333
3.4735594 -2.9129112 0.82787454
3.4667265 -2.8597236 0.8273977
3.4595611 -2.80707 0.83937871
3.4524214 -2.7546027 0.85132831
3.4456623 -2.701977 0.85081238
3.4384851 -2.645062 0.84612155
3.4402525 -2.6629658 0.86282802
3.4322157 -2.5972831 0.84978586
3.4255283 -2.5452132 0.84927541
3.418864 -2.4933264 0.84876662
3.4122231 -2.4416213 0.84825957
3.4072573 -2.4029562 0.84788048
3.4023056 -2.364404 0.84750241
3.3957229 -2.3131504 0.84699994
3.3891633 -2.2620757 0.84649903
3.3809948 -2.1984775 0.84587556
3.3842578 -2.2238817 0.84612471
3.376112 -2.16046 0.84550279
3.3696206 -2.1099167 0.84500724
3.3631513 -2.0595484 0.84451336
3.3565381 -2.0123153 0.86102426
3.3495841 -1.9599825 0.86774534
3.3431823 -1.9101318 0.8672148
3.3368032 -1.8604531 0.86668617
3.330446 -1.810945 0.86615926
3.3225293 -1.7492934 0.86550313
3.3256917 -1.7739205 0.86576521
3.3177967 -1.7124376 0.86511093
3.3115046 -1.6634365 0.86458939
3.305234 -1.6146027 0.86406976
3.2989848 -1.5659351 0.8635518
3.2912042 -1.505342 0.86290693
3.2834544 -1.4449887 0.86226469
3.2772787 -1.396897 0.86175287
3.2711244 -1.3489678 0.86124277
3.2631185 -1.289587 0.87243468
3.2661798 -1.3134309 0.87269837
3.2585366 -1.2539015 0.87203991
3.252104 -1.2067604 0.88330722
3.2460332 -1.1594713 0.88276428
3.2399828 -1.1123407 0.88222331
3.233952 -1.0653678 0.88168406
3.2264433 -1.0068809 0.88101268
3.2189639 -0.94862115 0.88034379
3.2130036 -0.90219444 0.87981087
3.2070627 -0.85592192 0.87927961
3.2011421 -0.80980277 0.87875021
3.1952403 -0.7638365 0.87822247
3.1878922 -0.70660019 0.87756526
3.1805727 -0.64958405 0.87691075
3.1744051 -0.60443866 0.8879295
3.168591 -0.55914938 0.88739055
3.1629527 -0.51637793 0.89147937
3.1552489 -0.45808709 0.89766347
3.1480615 -0.4020898 0.89697385
3.1423333 -0.35746244 0.89642423
3.1366239 -0.3129805 0.89587635
3.1295142 -0.25758892 0.89519423
3.1224318 -0.20240687 0.89451462
3.1167867 -0.15842822 0.89397299
3.1111603 -0.11459174 0.89343309
3.1041539 -0.060002286 0.89276069
3.0971737 -0.0056181918 0.89209092
3.0912819 0.037447732 0.90282845
3.0836995 0.090884231 0.92463911
3.087121 0.069869317 0.90241563
3.4824171 -2.9944463 0.87875414
3.4772644 -2.954314 0.87832719
3.4721265 -2.9143012 0.87790138
3.465296 -2.8611083 0.87733525
3.458133 -2.8084497 0.88922888
3.450995 -2.7559769 0.90109134
3.4442384 -2.7033463 0.90048718
3.4358251 -2.6378138 0.89973491
3.4391854 -2.6639895 0.90003526
3.4307964 -2.5986421 0.8992852
3.4241107 -2.5465665 0.89868736
3.4174488 -2.4946747 0.89809173
3.4108102 -2.442965 0.89749819
3.4058454 -2.4042959 0.8970542
3.4008958 -2.3657398 0.89661157
3.3943152 -2.3144813 0.89602315
3.3877573 -2.2634017 0.89543676
3.3795917 -2.1997972 0.89470661
3.3828533 -2.2252035 0.89499825
3.3747106 -2.1617761 0.89427018
3.3682213 -2.1112278 0.89368993
3.3614044 -2.0611813 0.90526223
3.3546119 -2.0113068 0.9167943
3.3481905 -1.9612792 0.91617811
3.3417914 -1.9114238 0.91556406
3.3354139 -1.8617405 0.9149521
3.3290591 -1.8122276 0.91434228
3.3214915 -1.7502509 0.90156239
3.323137 -1.7670959 0.91779196
3.3164141 -1.7137107 0.91312885
3.3101242 -1.6647048 0.9125253
3.3038554 -1.6158663 0.91192383
3.2976081 -1.5671941 0.91132438
3.28983 -1.5065954 0.91057795
3.2820828 -1.4462365 0.90983444
3.2753954 -1.3959259 0.9163335
3.2694149 -1.3505161 0.92050481
3.2614119 -1.2911283 0.93157262
3.264472 -1.314975 0.93188632
3.2568319 -1.2554387 0.93110317
3.2507422 -1.2079858 0.93047899
3.2446735 -1.1606922 0.92985702
3.2386248 -1.1135572 0.92923695
3.2325962 -1.0665802 0.92861897
3.2250896 -1.0080875 0.92784947
3.2176132 -0.94982243 0.92708319
3.2116547 -0.90339142 0.92647231
3.2057161 -0.85711461 0.92586356
3.1997969 -0.81099135 0.92525679
3.1938977 -0.76502079 0.92465216
3.1862161 -0.70807397 0.93548334
3.1788993 -0.65105128 0.93470943
3.1727343 -0.60590082 0.94563389
3.1669233 -0.5606063 0.94500017
3.1611311 -0.51546031 0.94436848
3.1539183 -0.45924351 0.943582
3.1467333 -0.40324104 0.94279855
3.1410072 -0.35860971 0.94217408
3.1352999 -0.31412366 0.94155174
3.1281924 -0.25872707 0.94077665
3.1211123 -0.20354016 0.94000453
3.115469 -0.15955746 0.93938929
3.1093662 -0.11369729 0.94554448
3.1025116 -0.061403118 0.9493258
3.0955343 -0.0070126336 0.94854206
3.0896454 0.036057893 0.95918977
3.0827188 0.090054087 0.9583891
3.0854859 0.068483345 0.95870894
3.4809816 -2.9958448 0.92892069
3.4758301 -2.9557083 0.92842638
3.4706938 -2.9156914 0.92793339
3.4638655 -2.862493 0.92727828
3.4567041 -2.8098292 0.93908417
3.4495685 -2.7573512 0.95085949
3.4428144 -2.7047155 0.95016712
3.4344034 -2.6391764 0.94930512
3.437763 -2.6653545 0.94964939
3.4293766 -2.6000009 0.94878978
3.422693 -2.5479207 0.94810462
3.4160328 -2.4960232 0.94742209
3.4093966 -2.4443085 0.94674176
3.404434 -2.4056356 0.94623315
3.3994856 -2.3670757 0.9457258
3.3929074 -2.3158123 0.94505149
3.3863518 -2.2647278 0.94437939
3.3781884 -2.201117 0.94354284
3.381449 -2.2265258 0.94387704
3.3733087 -2.1630921 0.94304246
3.3662877 -2.1102121 0.94964504
3.3596575 -2.0628147 0.96601838
3.3532162 -2.0126085 0.96531588
3.3467972 -1.962576 0.96461594
3.3404002 -1.9127162 0.96391839
3.3340249 -1.8630276 0.9632231
3.3276718 -1.8135101 0.96253031
3.3213406 -1.7641625 0.9618398
3.3150308 -1.7149838 0.96115178
3.3087428 -1.6659732 0.96046603
3.3024762 -1.61713 0.95978254
3.296231 -1.5684536 0.95910162
3.2884555 -1.5078489 0.95825362
3.2803676 -1.4477963 0.96930367
3.2743676 -1.4022195 0.97339272
3.2677047 -1.3520646 0.97977394
3.2600462 -1.2923615 0.97888857
3.2631054 -1.3162105 0.97924221
3.2554679 -1.2566686 0.97835922
3.2493806 -1.2092111 0.97765559
3.2433133 -1.1619133 0.97695434
3.2372668 -1.1147739 0.97625518
3.23124 -1.0677924 0.97555846
3.2237363 -1.0092944 0.97469115
3.2162619 -0.95102388 0.97382706
3.2103055 -0.90458852 0.97313845
3.2043688 -0.85830742 0.97245216
3.1981153 -0.81247717 0.98339683
3.1922185 -0.76650119 0.98269582
3.1845407 -0.70954788 0.9934082
3.1772258 -0.65251875 0.99251461
3.1713977 -0.60707057 0.99180275
3.1655886 -0.56177181 0.99109286
3.1597981 -0.51662189 0.99038583
3.1525879 -0.46039993 0.98950487
3.1454053 -0.40439239 0.98862761
3.1396811 -0.35975695 0.98792833
3.1339755 -0.31526694 0.98723155
3.1268704 -0.2598654 0.98636353
3.1194627 -0.20495687 0.99687344
3.113822 -0.16096924 0.99616593
3.1083488 -0.11942507 1.0000291
3.1008697 -0.062803783 1.0058974
3.0938954 -0.0084073879 1.0049996
3.0883355 0.034946095 1.0042837
3.0814116 0.088946857 1.0033926
3.0841777 0.067374244 1.0037487
3.4795454 -2.9972429 0.9790923
3.4743953 -2.9571023 0.97853076
3.4692605 -2.9170814 0.9779709
3.462435 -2.8638783 0.9772265
3.455276 -2.8112087 0.98894495
3.4481423 -2.7587259 1.0006331
3.4413896 -2.7060845 0.99985248
3.432982 -2.6405394 0.99888062
3.4363403 -2.6667202 0.99926871
3.4279566 -2.6013596 0.99829948
3.4212751 -2.5492742 0.99752706
3.4146175 -2.4973722 0.99675751
3.4079831 -2.4456522 0.99599051
3.4030218 -2.4069757 0.99541694
3.3980753 -2.3684123 0.99484527
3.3914988 -2.3171434 0.99408484
3.3849454 -2.2660542 0.99332726
3.3767848 -2.2024372 0.9923839
3.3800445 -2.2278483 0.9927606
3.3713717 -2.1620739 0.99909645
3.3652554 -2.1168332 1.0081503
3.3582597 -2.0641212 1.0146291
3.3518205 -2.0139103 1.0138426
3.3454032 -1.9638728 1.0130585
3.3390086 -1.9140081 1.0122775
3.3326354 -1.8643152 1.0114988
3.3262842 -1.8147928 1.0107232
3.3199553 -1.7654405 1.00995
3.3136473 -1.7162573 1.0091795
3.3073616 -1.6672421 1.0084115
3.3010972 -1.6183941 1.0076464
3.2948534 -1.569713 1.0068839
3.2864354 -1.506312 1.0148239
3.2786522 -1.4493562 1.02878
3.2724841 -1.4012486 1.0279859
3.2663367 -1.3533037 1.0271947
3.2586808 -1.2935948 1.0262094
3.261739 -1.3174462 1.0266029
3.2541039 -1.2578986 1.0256202
3.2480183 -1.2104367 1.024837
3.2419531 -1.1631343 1.0240562
3.235909 -1.1159905 1.0232784
3.2298839 -1.0690048 1.0225029
3.2223825 -1.0105014 1.0215373
3.2149105 -0.95222539 1.0205755
3.2086186 -0.90608519 1.0314778
3.2026842 -0.85979879 1.0306945
3.1964333 -0.81396306 1.0415435
3.1905394 -0.76798195 1.0407461
3.1831992 -0.71072716 1.0397534
3.1758873 -0.65369284 1.0387641
3.1700609 -0.60824054 1.0379759
3.1642535 -0.56293768 1.0371903
3.1584649 -0.51778352 1.0364075
3.151257 -0.46155649 1.0354323
3.1440768 -0.40554392 1.0344611
3.1383548 -0.36090443 1.0336871
3.1323195 -0.31669632 1.0443375
3.1252179 -0.26128834 1.0433537
3.1178124 -0.20637386 1.0537488
3.1121745 -0.16238119 1.0529491
3.1065543 -0.1185309 1.052152
3.0995557 -0.063924581 1.0511594
3.0925837 -0.0095232408 1.0501705
3.0870259 0.033833988 1.0493821
3.0801046 0.087839678 1.0484003
3.0828693 0.066265084 1.0487926
3.4781094 -2.9986413 1.0292695
3.4729605 -2.958497 1.0286405
3.4678276 -2.9184718 1.0280135
3.4610038 -2.8652632 1.0271801
3.4538472 -2.8125887 1.038811
3.4467156 -2.7601006 1.0504116
3.439965 -2.7074542 1.0495428
3.4315608 -2.641902 1.048461
3.4349177 -2.6680858 1.0488931
3.4265361 -2.6027193 1.0478142
3.4198573 -2.5506284 1.0469546
3.4132016 -2.4987209 1.046098
3.4065695 -2.446996 1.0452446
3.4016097 -2.4083157 1.0446062
3.3966649 -2.3697484 1.0439695
3.3900907 -2.318475 1.0431235
3.3835392 -2.2673802 1.0422801
3.3753812 -2.2037573 1.0412301
3.3786402 -2.229171 1.0416495
3.3703387 -2.1687186 1.0577183
3.3633215 -2.115818 1.0641187
3.3568621 -2.065428 1.0632447
3.350425 -2.0152123 1.062374
3.3440099 -1.96517 1.0615064
3.3376169 -1.9153005 1.0606414
3.3312461 -1.8656027 1.0597798
3.3248968 -1.8160757 1.058921
3.3185697 -1.7667185 1.0580651
3.312264 -1.7175306 1.0572121
3.3059797 -1.6685108 1.056362
3.2997174 -1.6196582 1.0555151
3.2931325 -1.5712872 1.0666184
3.285609 -1.5143068 1.072413
3.2772799 -1.4506043 1.0763664
3.2711136 -1.402492 1.0754919
3.2649682 -1.3545427 1.07462
3.2576568 -1.29452 1.061703
3.2592394 -1.3108333 1.0777677
3.2527399 -1.2591286 1.072886
3.2466559 -1.2116624 1.072023
3.2405927 -1.1643556 1.0711629
3.23455 -1.1172076 1.0703062
3.228528 -1.0702173 1.0694519
3.2204564 -1.0085016 1.0733438
3.2132213 -0.95372754 1.0790182
3.2069318 -0.90758187 1.0898238
3.201 -0.86129016 1.0889436
3.1950877 -0.81515205 1.0880662
3.1891956 -0.76916665 1.0871917
3.1818583 -0.71190655 1.0861028
3.1745491 -0.65486699 1.0850183
3.1687236 -0.60941064 1.0841537
3.1629181 -0.56410366 1.0832922
3.1571319 -0.5189454 1.0824337
3.1493728 -0.45963076 1.0862211
3.1424165 -0.40698338 1.0917596
3.1366963 -0.3623389 1.0908918
3.1306636 -0.31812581 1.10145
3.1235647 -0.26271164 1.1003501
3.1164927 -0.20750737 1.099254
3.1108563 -0.16351086 1.0983807
3.1052382 -0.11965673 1.0975101
3.0982416 -0.065045238 1.096426
3.0912724 -0.010639231 1.0953461
3.0857165 0.032721929 1.0944849
3.0787969 0.086732455 1.0934124
3.0815613 0.06515602 1.093841
3.4766726 -3.0000401 1.0794519
3.4715257 -2.9598913 1.0787556
3.4663944 -2.9198623 1.0780615
3.4595728 -2.8666487 1.0771388
3.4524183 -2.8139687 1.0886821
3.4452889 -2.7614753 1.1001958
3.4385407 -2.7088239 1.0992386
3.4301383 -2.643265 1.0980468
3.4334946 -2.6694517 1.0985228
3.4251161 -2.6040783 1.0973345
3.4184394 -2.5519826 1.0963875
3.4117856 -2.5000703 1.0954438
3.4051557 -2.4483399 1.0945034
3.4001977 -2.4096563 1.0938003
3.3952541 -2.3710847 1.093099
3.3886821 -2.3198061 1.092167
3.382133 -2.268707 1.091238
3.3739774 -2.2050776 1.0900813
3.3757985 -2.2223518 1.1026036
3.3684015 -2.1677001 1.1137856
3.3619215 -2.1171298 1.1128238
3.355464 -2.0667346 1.1118656
3.3490286 -2.0165143 1.1109105
3.3426158 -1.9664673 1.109959
3.336225 -1.916593 1.1090107
3.3298562 -1.8668903 1.1080655
3.3235092 -1.8173587 1.1071236
3.3171842 -1.7679967 1.1061851
3.3108807 -1.7188041 1.1052496
3.3045988 -1.6697798 1.1043174
3.2979937 -1.6212385 1.1153576
3.29141 -1.572862 1.1263602
3.2836432 -1.5122373 1.1251566
3.2759078 -1.4518527 1.1239578
3.2697432 -1.4037359 1.1230025
3.2635999 -1.3557819 1.1220505
3.2574773 -1.3079898 1.1211017
3.2513752 -1.2603588 1.1201562
3.2452936 -1.2128882 1.1192136
3.2392325 -1.1655772 1.1182743
3.2331915 -1.1184247 1.1173384
3.2266672 -1.069266 1.1233996
3.2196255 -1.0162119 1.1299441
3.2115321 -0.95522982 1.1374671
3.2055824 -0.90877938 1.1365061
3.199652 -0.86248338 1.1355481
3.193742 -0.81634098 1.1345935
3.1878517 -0.77035147 1.1336421
3.180517 -0.71308613 1.1324571
3.1732099 -0.65604126 1.1312767
3.1673865 -0.6105808 1.130336
3.1615827 -0.56526965 1.1293985
3.1554654 -0.52039772 1.1399727
3.1485391 -0.46703714 1.1417136
3.1407554 -0.4084231 1.1490644
3.1350384 -0.36377358 1.1481034
3.1293395 -0.31926939 1.1471454
3.1222425 -0.26385036 1.1459523
3.1151726 -0.20864101 1.1447638
3.1095383 -0.16464062 1.1438167
3.1039219 -0.12078249 1.1428727
3.0969279 -0.066166349 1.1416968
3.0894854 -0.0097508114 1.1472536
3.084079 0.031331722 1.1508694
3.0771623 0.085348055 1.149684
3.0799253 0.063769355 1.1501575
3.4752355 -3.0014386 1.1296395
3.4700906 -2.9612863 1.1288761
3.4649608 -2.921253 1.1281148
3.4581413 -2.8680339 1.1271027
3.450989 -2.8153491 1.1385586
3.4438615 -2.7628503 1.149985
3.4371159 -2.7101936 1.1489396
3.4287162 -2.6446288 1.1476378
3.432071 -2.6708174 1.1481577
3.4236953 -2.605438 1.1468598
3.4170208 -2.5533369 1.1458255
3.4103694 -2.5014193 1.1447947
3.4037418 -2.4496841 1.1437678
3.3987849 -2.4109962 1.1429995
3.3938434 -2.3724215 1.1422338
3.3872736 -2.3211379 1.1412157
3.3807263 -2.2700338 1.1402011
3.3740363 -2.2221119 1.1563481
3.3669996 -2.1690171 1.1625807
3.3605213 -2.1184418 1.1615343
3.3540659 -2.068042 1.1604915
3.3476326 -2.0178165 1.1594523
3.341222 -1.9677646 1.1584167
3.3348331 -1.9178857 1.1573848
3.3284664 -1.8681782 1.1563562
3.3221216 -1.8186417 1.1553313
3.3157985 -1.7692752 1.15431
3.3094969 -1.7200776 1.1532919
3.3028719 -1.6713659 1.1642687
3.2962689 -1.6228193 1.1752079
3.2900326 -1.5741216 1.1741593
3.2822683 -1.5134913 1.1728539
3.2745349 -1.453101 1.171554
3.268373 -1.4049797 1.170518
3.2622311 -1.3570213 1.1694856
3.2561109 -1.3092248 1.1684568
3.2500107 -1.2615892 1.1674312
3.2439311 -1.2141141 1.1664093
3.2378719 -1.1667985 1.1653907
3.2314935 -1.1199459 1.1761358
3.2256398 -1.0754131 1.1798499
3.2176435 -1.0147266 1.1855359
3.21018 -0.95643181 1.184232
3.2042325 -0.90997708 1.183193
3.1983047 -0.86367667 1.1821574
3.1923964 -0.81753016 1.1811254
3.1865075 -0.77153629 1.1800965
3.1791749 -0.71426582 1.1788157
3.1718712 -0.6572156 1.1775399
3.1657157 -0.61204356 1.1880705
3.159914 -0.56672746 1.1870379
3.1537986 -0.52185035 1.1975185
3.1465988 -0.46560538 1.1962135
3.1394269 -0.40957505 1.1949136
3.1337109 -0.36492139 1.1938777
3.1280141 -0.32041332 1.1928449
3.1209202 -0.26498905 1.1915591
3.1138523 -0.20977493 1.1902781
3.1082196 -0.1657705 1.189257
3.1021276 -0.11988766 1.1949915
3.0952849 -0.067567676 1.1982917
3.0884671 -0.015434276 1.2015746
3.0824418 0.029941274 1.2072605
3.0755274 0.083963551 1.2059616
3.0782895 0.062382437 1.2064803
3.4737988 -3.0028377 1.1798326
3.4673958 -2.9538946 1.1829911
3.463078 -2.9180844 1.1739079
3.4567101 -2.8694196 1.1770722
3.4497559 -2.8195145 1.1934881
3.4424348 -2.7642255 1.1997795
3.4356909 -2.7115633 1.1986457
3.4272943 -2.645992 1.197234
3.4306483 -2.6721833 1.1977981
3.4222748 -2.6067975 1.1963904
3.4156022 -2.5546916 1.1952688
3.4089532 -2.5027688 1.1941509
3.4023271 -2.4510283 1.193037
3.397373 -2.4123368 1.1922041
3.3924322 -2.3737581 1.1913735
3.3858647 -2.3224697 1.1902695
3.378782 -2.2690082 1.196457
3.3720953 -2.2210906 1.2125162
3.365597 -2.1703341 1.211381
3.3591211 -2.1197538 1.2102497
3.3526673 -2.0693491 1.2091223
3.3462367 -2.019119 1.2079989
3.339828 -1.9690623 1.2068794
3.3334408 -1.9191784 1.2057638
3.3270762 -1.8694661 1.2046518
3.3207335 -1.8199251 1.2035439
3.3144124 -1.7705537 1.2024398
3.3075912 -1.7190868 1.2084889
3.3011444 -1.6729525 1.2242272
3.294889 -1.624084 1.2230933
3.288655 -1.5753816 1.2219633
3.2808931 -1.5147456 1.2205563
3.2731621 -1.4543494 1.2191551
3.2670019 -1.4062238 1.2180384
3.2608626 -1.3582606 1.2169256
3.2547438 -1.3104597 1.2158163
3.2486458 -1.2628198 1.2147111
3.2420602 -1.213154 1.220632
3.2361712 -1.1683255 1.2242926
3.2297952 -1.1214676 1.2349399
3.2237792 -1.0744619 1.2338098
3.2162893 -1.0159341 1.232403
3.2088284 -0.95763385 1.2310016
3.2028828 -0.91117489 1.2298845
3.1969564 -0.86487031 1.2287713
3.1910501 -0.81871945 1.2276618
3.1851635 -0.77272147 1.2265561
3.1772718 -0.71230608 1.2300645
3.1701968 -0.6586839 1.2353755
3.1640437 -0.61350662 1.2458118
3.1582448 -0.56818521 1.2446841
3.1524646 -0.52301252 1.2435603
3.145268 -0.46676242 1.2421613
3.138098 -0.41072702 1.2407671
3.1323843 -0.36606935 1.2396562
3.126689 -0.32155722 1.2385491
3.119597 -0.266128 1.2371702
3.1122017 -0.21119231 1.2471771
3.1065714 -0.16718309 1.2460639
3.1011078 -0.1256184 1.2495452
3.0936422 -0.068969101 1.2548931
3.0866804 -0.014546119 1.2534937
3.0811312 0.028828792 1.2523781
3.0742197 0.082855932 1.2509887
3.0769808 0.061272871 1.2515438
3.4723616 -3.0042365 1.230031
3.4655104 -2.950721 1.2288343
3.460387 -2.9107037 1.2279392
3.4552786 -2.8708053 1.2270468
3.447773 -2.8184552 1.2508054
3.4410079 -2.7656007 1.2495792
3.4342661 -2.7129335 1.2483572
3.4258716 -2.6473556 1.2468355
3.4292247 -2.6735494 1.2474433
3.4208543 -2.6081569 1.245926
3.4141839 -2.556046 1.2447171
3.407537 -2.504118 1.2435122
3.4009135 -2.4523728 1.2423115
3.3959601 -2.4136775 1.2414138
3.3910213 -2.3750951 1.2405185
3.3844557 -2.3238018 1.2393284
3.3777473 -2.2757032 1.2553426
3.3706903 -2.2224123 1.2614063
3.3641944 -2.1716511 1.2601862
3.3577204 -2.1210661 1.25897
3.3512695 -2.0706565 1.2577583
3.34484 -2.0204215 1.2565504
3.3384333 -1.9703599 1.2553469
3.3320489 -1.9204712 1.2541478
3.3256862 -1.8707545 1.2529525
3.319345 -1.8212081 1.2517614
3.3125029 -1.7695595 1.2577329
3.3065591 -1.7255276 1.2662692
3.2997625 -1.6742219 1.2721995
3.2935092 -1.6253484 1.2709838
3.287277 -1.5766418 1.2697719
3.2795179 -1.5159999 1.2682635
3.2717893 -1.4555981 1.2667607
3.2656312 -1.4074678 1.2655635
3.2594941 -1.3595002 1.2643701
3.2533772 -1.3116947 1.2631809
3.2467716 -1.2618567 1.2690268
3.2410316 -1.2193657 1.2773954
3.2344697 -1.169853 1.2832016
3.228436 -1.122685 1.2819886
3.2224224 -1.0756751 1.2807798
3.2149346 -1.0171417 1.2792748
3.2074761 -0.95883614 1.2777755
3.2015326 -0.91237277 1.2765808
3.1956081 -0.86606401 1.2753899
3.1897042 -0.8199088 1.2742031
3.1833239 -0.77178788 1.2799284
3.1764379 -0.71985185 1.2861104
3.1685224 -0.66015226 1.2932175
3.1627064 -0.61467707 1.2920101
3.1569092 -0.56935167 1.2908063
3.1511312 -0.52417487 1.2896068
3.1439362 -0.46791968 1.2881132
3.1367693 -0.41187903 1.2866254
3.1310573 -0.36721742 1.2854395
3.124881 -0.32065055 1.2910527
3.1179433 -0.26755196 1.2941905
3.1105514 -0.21261007 1.3040828
3.1049235 -0.1685957 1.3028769
3.0993135 -0.12472388 1.3016756
3.0923278 -0.07009054 1.3001792
3.0853679 -0.015662532 1.2986884
3.0798209 0.027715899 1.2975003
3.0729115 0.081748091 1.2960202
3.0756717 0.060162876 1.2966114
3.4709244 -3.0056355 1.2802348
3.4640753 -2.9521146 1.2789482
3.4589536 -2.9120936 1.2779862
3.4538472 -2.8721912 1.277027
3.4463437 -2.8198359 1.3006991
3.4395797 -2.7669759 1.2993841
3.4328408 -2.7143037 1.2980738
3.4244494 -2.6487193 1.2964423
3.4278009 -2.674916 1.2970939
3.4194331 -2.6095169 1.2954669
3.412765 -2.5574007 1.2941706
3.4061203 -2.5054679 1.2928786
3.3994989 -2.4537175 1.2915914
3.3945472 -2.4150181 1.2906283
3.3896103 -2.3764319 1.2896686
3.3825078 -2.322773 1.2956859
3.3758025 -2.274678 1.3116115
3.3692853 -2.2237346 1.3103018
3.3627915 -2.1729681 1.3089964
3.3563199 -2.1223783 1.3076954
3.3498704 -2.071964 1.306399
3.3434436 -2.0217242 1.3051071
3.337039 -1.9716576 1.3038197
3.3306565 -1.9217643 1.3025366
3.3242958 -1.8720425 1.3012582
3.3179572 -1.8224916 1.299984
3.3114703 -1.7760236 1.3156265
3.3046527 -1.7245368 1.3214788
3.2983804 -1.6754913 1.3201766
3.2921288 -1.6266133 1.3188789
3.2858992 -1.577902 1.3175855
3.2781422 -1.5172544 1.3159752
3.2704165 -1.456847 1.3143715
3.2642603 -1.408712 1.3130934
3.2581251 -1.3607401 1.3118196
3.2514999 -1.3107285 1.3175898
3.2457426 -1.2680904 1.3258995
3.2391608 -1.2184058 1.3316305
3.2331088 -1.1710749 1.3303342
3.227077 -1.1239026 1.3290421
3.2210653 -1.0768882 1.3277544
3.2135799 -1.0183494 1.3261514
3.2061243 -0.96003836 1.3245541
3.2001822 -0.91357082 1.3232815
3.1942599 -0.86725765 1.3220129
3.1880214 -0.82139564 1.3323858
3.1822982 -0.77780312 1.3358155
3.1744785 -0.71839553 1.3411074
3.1671829 -0.66132712 1.3394965
3.1613686 -0.61584783 1.3382126
3.1555731 -0.57051814 1.336933
3.149797 -0.52533734 1.3356576
3.1426051 -0.46907699 1.3340696
3.1354401 -0.41303134 1.3324878
3.1297297 -0.36836571 1.3312269
3.1244016 -0.32764465 1.333883
3.1166203 -0.26869109 1.3398111
3.1095605 -0.21346065 1.3382292
3.1039343 -0.1694434 1.3369683
3.0983257 -0.12556855 1.3357114
3.0913417 -0.070931613 1.3341466
3.0843837 -0.01650002 1.3325874
3.0788381 0.0268817 1.3313446
3.0719306 0.080917187 1.3297966
3.0746899 0.059330732 1.3304149
3.4694874 -3.0070348 1.3304437
3.46264 -2.9535086 1.3290676
3.4575202 -2.9134834 1.3280382
3.452415 -2.8735771 1.3270121
3.4449136 -2.8212166 1.3505981
3.4381528 -2.7683516 1.3491944
3.4314153 -2.7156739 1.3477956
3.4230266 -2.6500831 1.346054
3.4263775 -2.6762822 1.3467498
3.4180124 -2.6108768 1.3450131
3.4113462 -2.5587556 1.3436291
3.4047036 -2.5068176 1.3422501
3.3980842 -2.4550624 1.3408759
3.3931346 -2.4163592 1.3398483
3.3881989 -2.377769 1.3388236
3.3812852 -2.3267984 1.3497244
3.3743951 -2.276005 1.3605975
3.3678806 -2.2250564 1.3592021
3.3613884 -2.1742857 1.3578116
3.3549187 -2.1236908 1.3564255
3.3484721 -2.0732718 1.3550447
3.3420472 -2.0230269 1.3536687
3.3356445 -1.9729557 1.3522972
3.3292637 -1.9230572 1.3509303
3.3229055 -1.873331 1.3495685
3.3162212 -1.8240964 1.3602688
3.309561 -1.7750294 1.3709327
3.3032682 -1.7258112 1.3695433
3.2969983 -1.6767607 1.3681588
3.2907491 -1.6278782 1.3667791
3.2845209 -1.5791624 1.365404
3.2767665 -1.518509 1.3636918
3.2690437 -1.4580957 1.3619866
3.2628891 -1.4099563 1.3606278
3.2567558 -1.3619797 1.3592736
3.2510378 -1.318246 1.3619826
3.2442098 -1.2668198 1.368403
3.2381387 -1.2193258 1.3670423
3.2320883 -1.1719913 1.3656865
3.2260575 -1.1248158 1.3643352
3.2200477 -1.0777981 1.3629884
3.212564 -1.0192553 1.3613113
3.2051098 -0.96094024 1.3596411
3.1991696 -0.91446942 1.3583097
3.1932485 -0.8681531 1.3569829
3.4680502 -3.0084343 1.3806583
3.461205 -2.9549029 1.3791921
3.4560866 -2.9148736 1.378096
3.450983 -2.8749633 1.3770026
3.4434841 -2.8225973 1.4005021
3.4367249 -2.7697272 1.3990099
3.4299901 -2.7170446 1.3975228
3.4216042 -2.6514473 1.3956711
3.4249535 -2.6776488 1.3964107
3.4165909 -2.6122372 1.3945644
3.4099274 -2.5601106 1.393093
3.4032869 -2.5081677 1.391627
3.3966696 -2.4564068 1.3901658
3.3917212 -2.4177003 1.3890734
3.3867872 -2.3791063 1.3879838
3.3806562 -2.3321774 1.3907441
3.3733399 -2.2770009 1.3973401
3.3668265 -2.2260487 1.3958805
3.3603363 -2.1752737 1.3944261
3.3538682 -2.1246753 1.3929766
3.3474228 -2.0742524 1.3915323
3.3409994 -2.024004 1.3900931
3.3345988 -1.9739294 1.3886585
3.3282197 -1.9240273 1.387229
3.3218622 -1.8742973 1.3858044
3.4669716 -3.0094841 1.4183224
3.4601288 -2.9559486 1.4167891
3.4550111 -2.915916 1.4156423
3.4499092 -2.8760028 1.4144987
3.5233412 -2.6640806 -1.4960941
3.5170169 -2.6156783 -1.4941987
3.5091226 -2.5552573 -1.4918329
3.5028167 -2.5069976 -1.489943
3.4965198 -2.4588029 -1.4880561
3.4902313 -2.4106736 -1.4861712
3.4855206 -2.3746173 -1.4847594
3.5220752 -2.6649408 -1.4603052
3.5157521 -2.616538 -1.4584341
3.5078585 -2.5561166 -1.4560987
3.5015538 -2.5078559 -1.4542332
3.4952576 -2.4596608 -1.4523702
3.4889703 -2.4115307 -1.4505098
3.4826293 -2.3608932 -1.4556855
3.4768405 -2.3151813 -1.4586676
3.4705784 -2.2672467 -1.4568068
3.4648042 -2.2216551 -1.4597824
3.4584975 -2.1712875 -1.4649396
3.45226 -2.1235473 -1.4630783
3.4460313 -2.0758717 -1.4612194
3.439811 -2.02826 -1.459363
3.4320471 -1.9688338 -1.457046
3.4351509 -1.9925915 -1.4579724
3.4258459 -1.9213719 -1.4551955
3.4181051 -1.8621243 -1.4528856
3.411922 -1.8148005 -1.4510404
3.4057472 -1.7675401 -1.4491976
3.3995812 -1.7203434 -1.4473574
3.3934231 -1.6732099 -1.4455199
3.3872728 -1.6261396 -1.4436847
3.3811314 -1.5791324 -1.4418517
3.3749983 -1.5321882 -1.4400215
3.3673434 -1.4735994 -1.4377373
3.3597009 -1.415102 -1.4354565
3.3535962 -1.368377 -1.4336348
3.3474996 -1.3217144 -1.4318153
3.3414111 -1.2751139 -1.4299983
3.3353305 -1.2285758 -1.4281839
3.3292584 -1.1820995 -1.4263719
3.3231943 -1.1356852 -1.4245623
3.3156259 -1.0777571 -1.4223037
3.3080692 -1.0199192 -1.4200486
3.3024457 -0.97344053 -1.4298936
3.2964168 -0.92730331 -1.4280871
3.2903967 -0.88122725 -1.426283
3.2828825 -0.8237161 -1.424031
3.2858868 -0.84670842 -1.4249315
3.2783804 -0.78925824 -1.4226818
3.2708864 -0.73190445 -1.4204359
3.2634044 -0.67463905 -1.4181936
3.2574279 -0.62889737 -1.4164026
3.2514596 -0.58321619 -1.4146137
3.2454984 -0.53759533 -1.4128275
3.238059 -0.48065692 -1.4105977
3.2306309 -0.42380598 -1.4083716
3.2246976 -0.37839517 -1.4065936
3.2187719 -0.33304417 -1.4048176
3.2128541 -0.28775269 -1.4030441
3.5203874 -2.6660883 -1.4125865
3.5140655 -2.6176846 -1.4107478
3.5061734 -2.5572622 -1.4084529
3.4998698 -2.5090008 -1.4066198
3.4935749 -2.4608047 -1.4047891
3.4872885 -2.412674 -1.4029609
3.4810107 -2.3646088 -1.4011353
3.4747407 -2.3166084 -1.3993121
3.4684801 -2.2686727 -1.3974915
3.4621663 -2.2182393 -1.402694
3.4564023 -2.1727116 -1.4057043
3.4501665 -2.1249704 -1.403883
3.4443576 -2.077009 -1.4138951
3.4381378 -2.0293965 -1.4120708
3.4303756 -1.9699694 -1.4097935
3.4334788 -1.9937273 -1.4107039
3.4241755 -1.9225066 -1.4079748
3.4164362 -1.8632579 -1.4057046
3.4102542 -1.8159333 -1.403891
3.4040806 -1.7686723 -1.4020802
3.3979156 -1.7214749 -1.4002717
3.3917584 -1.6743405 -1.3984655
3.3856099 -1.6272694 -1.3966619
3.3794694 -1.5802615 -1.3948605
3.373337 -1.5333165 -1.3930616
3.3656838 -1.4747267 -1.3908165
3.3580422 -1.4162283 -1.388575
3.3519385 -1.3695025 -1.3867844
3.3458436 -1.3228389 -1.3849963
3.339756 -1.2762378 -1.3832108
3.3336766 -1.2296989 -1.3814275
3.3276052 -1.1832219 -1.3796467
3.3215425 -1.1368067 -1.3778679
3.3139751 -1.0788778 -1.3756483
3.3064203 -1.0210387 -1.3734319
3.3007975 -0.97455931 -1.3833081
3.2947705 -0.92842126 -1.3815324
3.2887511 -0.88234454 -1.3797588
3.2816494 -0.82455331 -1.389167
3.2842417 -0.84782505 -1.3784305
3.2771475 -0.79009503 -1.387835
3.2696552 -0.73274034 -1.385618
3.2621737 -0.67547441 -1.3834045
3.2561979 -0.62973213 -1.3816363
3.2502303 -0.58405036 -1.3798707
3.2442703 -0.53842884 -1.3781071
3.2368314 -0.48148975 -1.3759061
3.2294047 -0.42463806 -1.3737086
3.2234724 -0.37922668 -1.3719532
3.2175477 -0.33387503 -1.3702003
3.2116303 -0.28858316 -1.3684494
3.5191219 -2.666949 -1.3767976
3.5858083 -2.6474853 -1.3534641
3.6829355 -2.6603303 -1.3629172
3.7817755 -2.623353 -1.3463467
3.8912954 -2.6362514 -1.3561764
3.5123789 -2.6188312 -1.3630615
3.678781 -2.611223 -1.3371024
3.8869421 -2.5840087 -1.3287151
4.0035233 -2.596046 -1.3382927
4.123425 -2.5530915 -1.3191864
4.2564998 -2.5648935 -1.3291049
3.504488 -2.5584078 -1.3608069
3.4981856 -2.5101452 -1.3590063
3.4918919 -2.4619486 -1.3572079
3.4856062 -2.4138172 -1.355412
3.4793298 -2.3657508 -1.3536185
3.4730616 -2.3177497 -1.3518275
3.4668014 -2.2698135 -1.350039
3.4605498 -2.2219419 -1.3482528
3.4543068 -2.1741352 -1.3464689
3.4480727 -2.1263931 -1.3446876
3.4422648 -2.0784307 -1.3547397
3.4360471 -2.0308175 -1.3529551
3.4282866 -1.9713893 -1.3507278
3.4313886 -1.9951476 -1.3516183
3.4225054 -1.9236416 -1.3607541
3.414767 -1.8643919 -1.3585235
3.4085865 -1.8170666 -1.3567418
3.4024141 -1.7698047 -1.3549625
3.39625 -1.7226061 -1.3531854
3.390094 -1.6754711 -1.351411
3.3839464 -1.6283993 -1.3496389
3.3778071 -1.5813905 -1.347869
3.371676 -1.5344446 -1.3461016
3.3640244 -1.4758538 -1.3438958
3.3563838 -1.4173545 -1.3416934
3.3502815 -1.370628 -1.3399342
3.3441873 -1.3239636 -1.3381773
3.3381007 -1.2773619 -1.3364229
3.3320229 -1.230822 -1.3346708
3.3259528 -1.1843442 -1.332921
3.3198907 -1.1379282 -1.3311735
3.312325 -1.0799983 -1.3289927
3.3047712 -1.0221583 -1.3268151
3.2987378 -0.97595787 -1.325076
3.2927115 -0.92981887 -1.3233389
3.2866936 -0.88374114 -1.3216041
3.2795939 -0.8259486 -1.3310602
3.2821858 -0.84922081 -1.3203045
3.2750931 -0.7914896 -1.3297571
3.2676022 -0.73413378 -1.3275882
3.2601225 -0.67686653 -1.3254225
3.254611 -0.63329768 -1.3284137
3.2485912 -0.58516258 -1.3335463
3.2426326 -0.53954017 -1.3318136
3.2351954 -0.48260006 -1.3296506
3.2277699 -0.42574751 -1.3274913
3.2218382 -0.38033545 -1.3257662
3.2159147 -0.33498302 -1.3240438
3.2099993 -0.28969017 -1.3223233
3.2051589 -0.25603455 -1.3095086
3.5079556 -2.5955052 -1.3264067
3.581733 -2.5997903 -1.3283888
3.7775223 -2.5727108 -1.3197258
3.5024178 -2.555433 -1.3169849
3.5776529 -2.552067 -1.3032985
3.6746187 -2.5620844 -1.3112705
3.8825862 -2.5317323 -1.3012363
3.999064 -2.542062 -1.3099176
4.1188531 -2.4972472 -1.2898343
4.2518144 -2.5070963 -1.2987275
3.4965017 -2.5112901 -1.3113928
3.6704438 -2.5129135 -1.2854198
3.7732661 -2.5220373 -1.2930884
3.8782277 -2.479423 -1.2737399
3.9946008 -2.4880433 -1.2815237
4.2471256 -2.4492588 -1.268329
3.4902089 -2.4630926 -1.3096267
3.4839246 -2.4149604 -1.3078629
3.477649 -2.3668933 -1.3061018
3.4713817 -2.3188913 -1.3043429
3.4651232 -2.2709539 -1.3025864
3.4588728 -2.2230818 -1.3008323
3.4526308 -2.1752744 -1.2990804
3.4463975 -2.1275313 -1.2973312
3.4401727 -2.0798526 -1.2955842
3.4339559 -2.0322385 -1.2938395
3.4261968 -1.9728087 -1.2916619
3.4292989 -1.9965677 -1.2925327
3.4204173 -1.9250602 -1.3017279
3.4126811 -1.8658092 -1.2995468
3.4065018 -1.8184825 -1.297805
3.4007471 -1.7709368 -1.3078448
3.3945842 -1.7237376 -1.3060994
3.3884294 -1.6766018 -1.3043565
3.3822832 -1.6295291 -1.3026156
3.3761451 -1.5825195 -1.3008775
3.3700149 -1.5355728 -1.2991416
3.3623643 -1.4769812 -1.2969751
3.3547258 -1.4184808 -1.2948118
3.3486242 -1.3717535 -1.293084
3.342531 -1.3250885 -1.2913585
3.3364458 -1.2784857 -1.2896353
3.3303688 -1.231945 -1.2879142
3.3243001 -1.1854664 -1.2861956
3.318239 -1.1390496 -1.2844793
3.3106749 -1.0811188 -1.2823371
3.3031223 -1.0232778 -1.2801982
3.2970896 -0.97707665 -1.2784899
3.2910647 -0.93093693 -1.2767838
3.2850482 -0.88485831 -1.27508
3.2775381 -0.82734406 -1.2729534
3.2805405 -0.85033745 -1.2738035
3.2730384 -0.79288423 -1.271679
3.2655497 -0.73552722 -1.2695582
3.2580712 -0.67825878 -1.2674406
3.2520459 -0.63006198 -1.2726165
3.2465429 -0.58655274 -1.275641
3.2405858 -0.54092944 -1.2739462
3.2331502 -0.48398817 -1.2718312
3.2261858 -0.42929569 -1.2744246
3.2202044 -0.38144413 -1.2795793
3.214282 -0.33609089 -1.2778871
3.2083673 -0.29079741 -1.276197
3.2024601 -0.24556342 -1.274509
3.1976271 -0.21195154 -1.2617263
3.4936643 -2.5000911 -1.2752469
3.5735707 -2.5043166 -1.2781938
3.4881423 -2.4601274 -1.2658668
3.5694859 -2.4565387 -1.2530746
3.666266 -2.4637132 -1.2595537
3.768996 -2.471329 -1.266431
3.8738637 -2.4270794 -1.2462252
3.9901345 -2.4339886 -1.2531111
4.1142778 -2.4413648 -1.2604624
4.2424335 -2.3913803 -1.2379094
3.4822426 -2.4161036 -1.260314
3.6620853 -2.414484 -1.2336724
3.7647178 -2.420588 -1.2397559
3.9856656 -2.3798983 -1.2246798
4.1097002 -2.3854449 -1.2310703
3.4759681 -2.3680358 -1.2585849
4.2377386 -2.3334615 -1.2074679
3.469702 -2.3200328 -1.2568582
3.4634447 -2.2720947 -1.2551339
3.4571953 -2.2242217 -1.2534117
3.4509544 -2.1764133 -1.2516921
3.4447224 -2.1286695 -1.2499747
3.4384987 -2.0809901 -1.2482595
3.4322834 -2.033375 -1.2465469
3.4245253 -1.9739444 -1.2444092
3.4276271 -1.9977038 -1.2452638
3.4183295 -1.9264787 -1.2427016
3.4105947 -1.8672266 -1.2405704
3.4044168 -1.8198991 -1.2388679
3.398664 -1.7723522 -1.2489473
3.3925025 -1.725152 -1.2472415
3.3863492 -1.678015 -1.245538
3.3802042 -1.6309415 -1.2438368
