# .PCD v0.7 - Point Cloud Data file format
VERSION 0.7
FIELDS x y z
SIZE 4 4 4
TYPE F F F
COUNT 1 1 1
WIDTH 1487
HEIGHT 1
VIEWPOINT 0 0 0 1 0 0 0
POINTS 1487
DATA ascii
2.7168951 -0.18846428 1.094614
2.7101245 -0.13858829 1.0938569
2.7033598 -0.088752016 1.0931005
2.6966012 -0.038961109 1.0923446
2.6898479 0.010790155 1.0915895
2.6831007 0.060496151 1.090835
2.6763587 0.11016258 1.090081
2.6696234 0.15978399 1.0893279
2.6628931 0.20936587 1.0885751
2.6561687 0.2589027 1.0878232
2.6494498 0.30840033 1.0870718
2.6427374 0.357853 1.0863212
2.6360297 0.40726638 1.0855712
2.6293285 0.45663506 1.0848217
2.6226325 0.5059644 1.0840731
2.6159422 0.55524939 1.0833249
2.6092572 0.60449511 1.0825773
2.6025789 0.65369636 1.0818306
2.5945716 0.71268445 1.080935
2.5879052 0.76179677 1.0801896
2.5812445 0.81086463 1.0794448
2.5748677 0.85796744 1.0827169
2.567971 0.90896338 1.0879207
2.5613267 0.95790941 1.0871733
2.5546889 1.0068114 1.0864269
2.5480561 1.0556748 1.085681
2.541429 1.1044941 1.0849357
2.5348074 1.153275 1.0841911
2.5281918 1.2020119 1.083447
2.5215819 1.2507107 1.0827037
2.5149775 1.2993653 1.0819609
2.508378 1.3479818 1.0812187
2.5017846 1.3965548 1.0804774
2.4938798 1.4547896 1.0795883
2.487298 1.5032749 1.0788482
2.9159136 -1.6533314 1.1575923
2.9117479 -1.6226455 1.1571159
2.9048107 -1.5715371 1.1563226
2.8978784 -1.5204701 1.1555297
2.8909526 -1.4694501 1.1547378
2.8840327 -1.4184713 1.1539464
2.8785014 -1.3777212 1.1533138
2.8715925 -1.3268244 1.1525236
2.8646891 -1.2759686 1.1517342
2.8577919 -1.2251596 1.1509455
2.8509004 -1.1743915 1.1501573
2.8440154 -1.1236699 1.14937
2.8371358 -1.0729892 1.1485832
2.8302624 -1.0223551 1.1477971
2.823395 -0.97176129 1.1470116
2.8179049 -0.931319 1.1463839
2.8110483 -0.88080651 1.1455997
2.8041973 -0.83033466 1.1448162
2.7959833 -0.76982719 1.1438768
2.8000891 -0.80007243 1.1443464
2.7905123 -0.72952372 1.1432512
2.7836795 -0.6791845 1.1424696
2.7768519 -0.62888563 1.1416889
2.7700303 -0.57863283 1.1409087
2.7632458 -0.52833402 1.1502166
2.7564356 -0.47816724 1.1494336
2.7496316 -0.42804062 1.1486511
2.7428331 -0.37795973 1.1478693
2.7360406 -0.32791877 1.1470882
2.7306106 -0.287918 1.1464639
2.7238288 -0.23795688 1.1456839
2.7170522 -0.18803564 1.1449046
2.7102821 -0.13815984 1.1441259
2.7035167 -0.088323869 1.1433481
2.6967583 -0.038533133 1.1425709
2.6900051 0.011217899 1.1417943
2.6832573 0.060923636 1.1410184
2.6765156 0.11058991 1.1402431
2.66978 0.16021104 1.1394684
2.6630497 0.20979273 1.1386945
2.6563251 0.25932938 1.1379212
2.6496067 0.30882674 1.1371485
2.6428933 0.35827908 1.1363765
2.6361856 0.40769231 1.1356053
2.6294844 0.45706069 1.1348346
2.6227887 0.50639004 1.1340646
2.6160982 0.55567455 1.1332952
2.6094136 0.60492015 1.1325265
2.602735 0.65412116 1.1317586
2.5947275 0.71310908 1.1308377
2.5880611 0.76222104 1.130071
2.5810332 0.81412762 1.1335343
2.5747762 0.86040229 1.1385076
2.5681269 0.90938687 1.1377387
2.5614824 0.95833284 1.1369704
2.5548449 1.0072346 1.1362028
2.5482116 1.0560979 1.1354361
2.541585 1.1049169 1.1346695
2.5349631 1.1536976 1.133904
2.5283477 1.2024343 1.133139
2.5217369 1.2511328 1.1323745
2.5151322 1.2997872 1.131611
2.5085332 1.3484035 1.1308479
2.5019393 1.3969761 1.1300853
2.4940348 1.4552108 1.1291714
2.487453 1.5036958 1.1284102
2.9160726 -1.6528962 1.2085137
2.911907 -1.6222103 1.2080241
2.9049692 -1.571102 1.2072088
2.898037 -1.5200356 1.2063941
2.8911111 -1.4690157 1.2055801
2.8841913 -1.4180373 1.2047668
2.8786597 -1.3772873 1.2041166
2.8717508 -1.3263905 1.2033045
2.8648474 -1.2755352 1.2024932
2.8579502 -1.2247263 1.2016824
2.851059 -1.1739584 1.2008725
2.8441739 -1.1232371 1.2000633
2.8372939 -1.0725566 1.1992546
2.8304205 -1.0219226 1.1984468
2.8235531 -0.97132915 1.1976397
2.818063 -0.9308871 1.1969944
2.8112063 -0.88037491 1.1961886
2.8043549 -0.82990319 1.1953833
2.7961414 -0.76939607 1.1944178
2.8002467 -0.79964101 1.1949004
2.7906704 -0.72909272 1.1937748
2.7838368 -0.67875367 1.1929717
2.777009 -0.6284551 1.1921692
2.7701874 -0.57820249 1.1913675
2.7633715 -0.52798998 1.1905664
2.7565615 -0.47782338 1.1897659
2.7495039 -0.42564118 1.1949809
2.7429905 -0.37753022 1.1982416
2.7361979 -0.32748953 1.197439
2.7307677 -0.28748891 1.1967973
2.7239859 -0.23752806 1.1959959
2.7172093 -0.18760701 1.1951953
2.710439 -0.13773148 1.1943952
2.7036736 -0.087895676 1.1935956
2.6969149 -0.03810522 1.1927971
2.6901619 0.011645633 1.191999
2.6834145 0.061351176 1.1912018
2.6766722 0.11101715 1.1904049
2.6699367 0.16063809 1.1896089
2.6632063 0.21021952 1.1888137
2.6564817 0.25975597 1.188019
2.6497629 0.30925304 1.1872251
2.64305 0.35870525 1.186432
2.636342 0.40811828 1.1856393
2.6296408 0.45748651 1.1848475
2.6229446 0.50681543 1.184056
2.6162543 0.55609977 1.1832657
2.6095695 0.60534519 1.1824757
2.602891 0.65454596 1.1816863
2.5948837 0.71353352 1.1807402
2.588217 0.76264542 1.1799525
2.581897 0.80928183 1.1816972
2.5749319 0.86082625 1.1883466
2.5682826 0.90981078 1.1875567
2.5616381 0.95875627 1.1867675
2.5550003 1.0076581 1.1859789
2.5483673 1.0565208 1.1851909
2.5417402 1.1053398 1.1844035
2.5351183 1.1541202 1.1836169
2.5285029 1.2028568 1.1828308
2.5218923 1.2515547 1.1820456
2.5152876 1.3002092 1.1812608
2.5086882 1.3488251 1.1804768
2.5020943 1.3973976 1.1796935
2.4941895 1.4556319 1.1787543
2.4876077 1.5041168 1.1779726
2.9161994 -1.652548 1.2492509
2.9120338 -1.6218623 1.2487507
2.9047732 -1.5681347 1.2555083
2.8981955 -1.5196009 1.2572581
2.8912699 -1.4685813 1.2564222
2.8843498 -1.417603 1.2555869
2.8788183 -1.3768531 1.2549193
2.8719094 -1.3259569 1.2540853
2.8650055 -1.2751018 1.2532519
2.8581088 -1.2242931 1.2524195
2.8512168 -1.1735255 1.2515876
2.8443322 -1.1228044 1.2507566
2.8374519 -1.072124 1.2499262
2.8305788 -1.0214901 1.2490964
2.8237107 -0.97089696 1.2482675
2.8182211 -0.93045503 1.2476048
2.8113642 -0.87994313 1.2467773
2.8045127 -0.82947159 1.2459502
2.7962992 -0.76896483 1.2449589
2.8004045 -0.79920959 1.2454543
2.790828 -0.72866154 1.2442983
2.7839942 -0.67832285 1.2434735
2.7771666 -0.62802434 1.2426494
2.770345 -0.57777196 1.2418259
2.7635291 -0.52755982 1.2410033
2.7567189 -0.47739342 1.2401813
2.7501988 -0.42923698 1.2434239
2.7431476 -0.37710074 1.2486137
2.7363553 -0.32706022 1.2477896
2.7309251 -0.28705984 1.2471306
2.7241433 -0.2370992 1.246308
2.717366 -0.18717845 1.2454855
2.7105961 -0.13730305 1.2446642
2.7038307 -0.087467507 1.2438432
2.6970718 -0.037677277 1.243023
2.6903183 0.012073291 1.2422035
2.6835709 0.061778642 1.2413849
2.6768289 0.11144442 1.2405667
2.6700931 0.1610651 1.2397494
2.6633627 0.21064632 1.2389327
2.6566384 0.26018256 1.2381169
2.649919 0.30967942 1.2373016
2.6432064 0.35913137 1.2364872
2.6364985 0.40854418 1.2356732
2.6297967 0.45791212 1.2348601
2.6231012 0.50724095 1.2340475
2.6164105 0.55652517 1.2332358
2.6097255 0.60577017 1.2324246
2.6030474 0.65497088 1.2316144
2.5950394 0.71395802 1.2306426
2.5883727 0.76306981 1.2298337
2.5817435 0.81222177 1.2389976
2.5750878 0.86125034 1.2381858
2.5684383 0.91023439 1.2373748
2.5617938 0.95917964 1.2365643
2.5551558 1.0080813 1.2357546
2.5485229 1.0569439 1.2349455
2.5418956 1.1057626 1.2341373
2.5352738 1.1545429 1.2333297
2.5286582 1.2032793 1.2325227
2.5220473 1.251977 1.2317163
2.5154426 1.3006312 1.2309108
2.5088437 1.3492467 1.2301058
2.5022497 1.397819 1.2293015
2.4943447 1.4560533 1.2283372
2.4877629 1.5045379 1.2275345
2.9163582 -1.6521127 1.3001722
2.9121926 -1.6214272 1.2996588
2.9056692 -1.5731891 1.3046676
2.8983545 -1.5191665 1.3081222
2.8914287 -1.4681469 1.3072644
2.8845086 -1.4171689 1.3064071
2.8789768 -1.3764193 1.3057219
2.8720677 -1.3255233 1.3048658
2.865164 -1.2746682 1.3040107
2.8582668 -1.2238598 1.3031564
2.8513753 -1.1730922 1.3023026
2.8444898 -1.1223716 1.3014498
2.83761 -1.0716915 1.3005974
2.8307364 -1.0210578 1.2997462
2.8238688 -0.97046489 1.2988954
2.8183789 -0.93002307 1.2982152
2.8115218 -0.8795113 1.2973658
2.8046708 -0.82904005 1.2965173
2.7964568 -0.76853353 1.2954996
2.8005624 -0.79877824 1.2960081
2.7909858 -0.72823054 1.2948219
2.7841523 -0.67789197 1.2939756
2.7773244 -0.62759382 1.2931297
2.7705028 -0.57734168 1.2922846
2.7636867 -0.52712965 1.2914402
2.7568762 -0.47696349 1.2905966
2.7500722 -0.42683741 1.2897537
2.7432735 -0.3767572 1.2889115
2.7365122 -0.32663104 1.2981402
2.7310822 -0.28663078 1.2974641
2.7242999 -0.23667037 1.2966197
2.7175233 -0.18674979 1.295776
2.7107532 -0.13687466 1.294933
2.7039878 -0.087039329 1.2940906
2.6972287 -0.037249334 1.293249
2.6904755 0.012501068 1.2924081
2.6837277 0.062206138 1.2915682
2.6769855 0.11187168 1.2907286
2.6702497 0.16149217 1.2898899
2.6635191 0.21107318 1.2890519
2.6567948 0.26060915 1.2882146
2.6500757 0.31010583 1.287378
2.6433623 0.35955757 1.2865421
2.6366549 0.40897012 1.2857071
2.6299529 0.45833778 1.2848727
2.6232572 0.50766653 1.2840389
2.6165667 0.55695039 1.283206
2.6098816 0.60619521 1.2823737
2.6032033 0.65539575 1.2815421
2.5951958 0.71438265 1.2805452
2.5885286 0.76349407 1.2797149
2.5818992 0.81264597 1.2888577
2.5752435 0.86167413 1.2880247
2.5685937 0.91065812 1.2871926
2.5619495 0.95960331 1.2863612
2.5553119 1.0085044 1.2855303
2.5486784 1.0573668 1.2847002
2.5420511 1.1061854 1.2838711
2.5354292 1.1549654 1.2830423
2.5288136 1.2037015 1.2822144
2.5222025 1.2523991 1.281387
2.5155981 1.301053 1.2805604
2.5089986 1.3496686 1.2797346
2.5024049 1.3982404 1.2789094
2.4944997 1.4564744 1.2779202
2.4879179 1.504959 1.2770965
2.9165173 -1.6516776 1.3510933
2.9123516 -1.6209921 1.3505667
2.9054139 -1.5698848 1.3496896
2.8984814 -1.5188186 1.3488133
2.8915558 -1.4677994 1.3479378
2.8846352 -1.4168215 1.3470629
2.8788459 -1.3739834 1.3524247
2.8722262 -1.3250896 1.3556464
2.8653226 -1.2742345 1.3547695
2.8584254 -1.2234265 1.3538932
2.8515337 -1.172659 1.3530177
2.8446479 -1.1219386 1.3521428
2.8377683 -1.0712588 1.3512688
2.8308947 -1.0206255 1.3503956
2.8240268 -0.97003275 1.3495229
2.818537 -0.92959112 1.3488255
2.8116798 -0.87907958 1.3479543
2.8048286 -0.82860857 1.3470839
2.7966149 -0.76810235 1.3460404
2.8007202 -0.79834688 1.3465621
2.7911432 -0.72779948 1.3453451
2.7843101 -0.67746115 1.3444772
2.777482 -0.62716329 1.3436097
2.7706602 -0.57691133 1.3427429
2.7638438 -0.52669948 1.341877
2.7570341 -0.4765335 1.3410118
2.7502294 -0.42640781 1.3401473
2.7434309 -0.37632772 1.3392836
2.7366693 -0.32620183 1.3484906
2.7312393 -0.28620172 1.3477974
2.7244575 -0.23624149 1.3469315
2.7176802 -0.1863212 1.3460662
2.7109098 -0.13644631 1.3452017
2.7041447 -0.086611159 1.3443381
2.6973855 -0.036821406 1.343475
2.6906323 0.012928765 1.3426127
2.6838844 0.062633619 1.3417512
2.6771424 0.11229897 1.3408904
2.6704063 0.16191919 1.3400302
2.663676 0.21149997 1.3391709
2.656951 0.26103574 1.3383124
2.6502321 0.31053224 1.3374544
2.6435192 0.35998371 1.3365973
2.636811 0.40939608 1.3357408
2.6301093 0.45876357 1.3348852
2.6234133 0.50809199 1.3340303
2.6167228 0.55737555 1.333176
2.6100378 0.60662025 1.3323224
2.6033592 0.65582049 1.3314697
2.5953515 0.71480733 1.3304472
2.5884366 0.76593292 1.3355472
2.5820549 0.81307012 1.3387176
2.5753992 0.86209798 1.3378637
2.5687497 0.91108173 1.3370104
2.5621052 0.96002674 1.3361577
2.5554667 1.0089277 1.335306
2.5488338 1.0577898 1.334455
2.5422065 1.1066083 1.3336047
2.5355849 1.155388 1.3327551
2.5289688 1.2041237 1.3319061
2.5223577 1.2528213 1.3310578
2.5157533 1.301475 1.3302103
2.5091536 1.3500904 1.3293632
2.5025599 1.3986621 1.3285174
2.4946547 1.4568956 1.327503
2.4880731 1.5053798 1.3266585
2.9166758 -1.6512425 1.4020145
2.9125104 -1.620557 1.4014747
2.9055722 -1.5694498 1.4005755
2.8986402 -1.518384 1.3996773
2.8917146 -1.467365 1.3987799
2.8847938 -1.4163873 1.3978831
2.8795512 -1.3776401 1.4012659
2.8723845 -1.3246555 1.406427
2.8654809 -1.2738011 1.4055279
2.8585837 -1.222993 1.4046299
2.8516917 -1.1722262 1.4037325
2.8448064 -1.1215059 1.4028358
2.8379264 -1.0708261 1.40194
2.8310525 -1.0201931 1.401045
2.8241849 -0.9696005 1.4001504
2.8186948 -0.9291591 1.3994356
2.8118377 -0.87864786 1.398543
2.8049865 -0.82817709 1.3976506
2.7967725 -0.76767105 1.3965809
2.8008785 -0.79791534 1.3971158
2.791301 -0.72736847 1.3958685
2.7844675 -0.67703038 1.3949789
2.7776396 -0.62673265 1.3940897
2.770818 -0.57648093 1.3932015
2.7640011 -0.52626938 1.3923137
2.7571914 -0.4761036 1.391427
2.750387 -0.42597809 1.390541
2.7435882 -0.37589824 1.3896556
2.7367954 -0.32585835 1.3887711
2.7313652 -0.28585845 1.3880639
2.7246144 -0.23581268 1.3972431
2.7178373 -0.18589258 1.3963563
2.711067 -0.13601789 1.3954704
2.7043016 -0.086183004 1.3945853
2.6975424 -0.036393467 1.3937007
2.6907892 0.013356487 1.392817
2.6840413 0.063061133 1.391934
2.677299 0.1127262 1.3910518
2.6705632 0.16234624 1.3901703
2.6638324 0.21192679 1.3892897
2.6571076 0.26146236 1.38841
2.6503885 0.31095856 1.3875306
2.6436753 0.36040989 1.3866524
2.6369672 0.40982199 1.3857745
2.6302657 0.45918927 1.3848976
2.6235695 0.5085175 1.3840214
2.6168792 0.55780101 1.383146
2.610194 0.60704541 1.3822713
2.6035151 0.65624517 1.3813974
2.5955076 0.71523172 1.3803495
2.5891194 0.76241314 1.383502
2.5822108 0.81349415 1.3885776
2.5755548 0.86252195 1.3877025
2.5689049 0.91150522 1.3868281
2.5622609 0.96045017 1.3859545
2.5556223 1.0093508 1.3850816
2.5489893 1.0582131 1.3842094
2.5423625 1.107031 1.383338
2.5357399 1.1558106 1.3824673
2.5291243 1.2045462 1.3815974
2.5225129 1.2532433 1.3807282
2.5159085 1.3018968 1.3798598
2.5093086 1.3505119 1.378992
2.5027149 1.3990835 1.3781252
2.4948096 1.4573168 1.3770857
2.4882278 1.5058008 1.3762205
2.9168348 -1.6508069 1.4529353
2.9126694 -1.6201218 1.4523824
2.9057312 -1.569015 1.4514613
2.8987985 -1.5179493 1.450541
2.8918729 -1.4669306 1.4496216
2.8849523 -1.4159532 1.4487027
2.8794208 -1.3752042 1.4479686
2.8725111 -1.3243086 1.447051
2.8656073 -1.2734543 1.4461347
2.8583891 -1.2200419 1.4527833
2.85185 -1.171793 1.4544472
2.8449645 -1.121073 1.4535288
2.8380847 -1.0703936 1.4526111
2.8312106 -1.0197606 1.4516945
2.824343 -0.96916842 1.4507781
2.8188527 -0.92872721 1.4500458
2.8119957 -0.87821603 1.4491313
2.8051443 -0.8277455 1.4482173
2.7969298 -0.76723987 1.4471216
2.8010361 -0.79748416 1.4476693
2.7914588 -0.72693741 1.4463918
2.7846255 -0.6765995 1.4454803
2.7777975 -0.626302 1.4445696
2.7709751 -0.57605058 1.4436598
2.764159 -0.52583915 1.4427503
2.7573485 -0.47567376 1.441842
2.7505443 -0.42554834 1.4409343
2.7437456 -0.37546876 1.4400274
2.7369525 -0.32542911 1.4391212
2.7315221 -0.28542942 1.4383972
2.7247715 -0.23538382 1.4475547
2.7179945 -0.18546396 1.4466466
2.7112241 -0.1355895 1.4457392
2.7044587 -0.085754834 1.4448324
2.6976993 -0.035965528 1.4439266
2.6909461 0.013784226 1.4430214
2.6841981 0.06348861 1.442117
2.6774559 0.11315349 1.4412134
2.6707196 0.16277328 1.4403106
2.6639891 0.21235365 1.4394087
2.6572642 0.26188895 1.4385074
2.6505451 0.31138498 1.4376068
2.6438315 0.360836 1.4367071
2.6371238 0.41024795 1.4358082
2.6304216 0.45961487 1.4349099
2.6237259 0.5089429 1.4340125
2.6170352 0.55822617 1.4331158
2.6103501 0.60747039 1.43222
2.6036711 0.65667003 1.4313247
2.5956635 0.71565646 1.4302516
2.5890274 0.76485199 1.4393342
2.5823665 0.81391829 1.4384371
2.5757108 0.8629458 1.4375411
2.569061 0.91192925 1.4366459
2.5624166 0.96087366 1.4357511
2.5557778 1.0097743 1.4348572
2.5491447 1.058636 1.433964
2.5425177 1.1074536 1.4330716
2.5358956 1.1562332 1.4321798
2.5292795 1.2049685 1.4312888
2.5226684 1.2536656 1.4303988
2.5160637 1.3023186 1.4295094
2.509464 1.3509337 1.4286206
2.5028701 1.3995049 1.4277328
2.4949646 1.457738 1.4266682
2.4883828 1.5062219 1.425782
2.9169617 -1.6504589 1.4936723
2.9127963 -1.6197736 1.4931086
2.905858 -1.5686669 1.4921699
2.8989258 -1.5176017 1.491232
2.8919995 -1.466583 1.4902952
2.8850794 -1.415606 1.4893588
2.8795474 -1.3748569 1.4886104
2.8726382 -1.3239617 1.4876755
2.8657343 -1.2731074 1.4867415
2.8595421 -1.2273357 1.490975
2.8519766 -1.1714467 1.4950191
2.8450909 -1.1207267 1.494083
2.8382108 -1.0700475 1.4931479
2.8313377 -1.0194148 1.4922136
2.8244693 -0.96882284 1.4912802
2.8189795 -0.92838156 1.4905338
2.8121221 -0.87787074 1.4896017
2.8052704 -0.82740027 1.4886702
2.7970564 -0.76689494 1.4875541
2.8011625 -0.79713899 1.488112
2.791585 -0.72659254 1.4868104
2.7847514 -0.67625481 1.4858816
2.7779231 -0.62595755 1.4849534
2.7711012 -0.57570618 1.4840262
2.7642848 -0.52549505 1.4830996
2.7574747 -0.47532988 1.4821739
2.75067 -0.42520455 1.481249
2.7438712 -0.37512523 1.480325
2.7370782 -0.32508576 1.4794017
2.7316482 -0.28508615 1.4786636
2.7248659 -0.23512651 1.4777417
2.7180886 -0.1852068 1.4768206
2.711318 -0.13533251 1.4759003
2.7045527 -0.085497931 1.4749808
2.6977935 -0.035708766 1.4740618
2.6910398 0.014040805 1.4731438
2.6842921 0.063745111 1.4722266
2.6775496 0.11340985 1.4713101
2.670814 0.16302958 1.4703947
2.6640828 0.21260972 1.4694798
2.6573582 0.26214492 1.4685659
2.6506388 0.31164074 1.4676524
2.6439254 0.36109167 1.46674
2.6372175 0.41050348 1.4658282
2.6305156 0.45987046 1.4649174
2.6238194 0.50919813 1.4640071
2.6171286 0.55848128 1.4630978
2.6104436 0.60772544 1.4621892
2.603765 0.65692514 1.4612813
2.5957568 0.71591109 1.4601928
4.3369684 -2.4285243 -1.1574166
4.3367858 -2.428051 -1.111744
3.0937853 -0.49480322 -1.0990677
3.1534657 -0.49324423 -1.1023705
3.3092363 -0.46459156 -1.0986935
3.3778932 -0.46227697 -1.1022325
3.6381235 -0.42636943 -1.1020726
3.9434662 -0.38423714 -1.101885
4.336545 -2.4274213 -1.0508541
3.1801331 -0.46894392 -1.092039
3.2433724 -0.46681195 -1.0952986
3.4088807 -0.43584147 -1.0911286
3.4819498 -0.43282229 -1.0946169
3.5582893 -0.42966804 -1.0982616
3.7599268 -0.39321947 -1.0938226
3.8494692 -0.38883728 -1.097756
3.0287158 -0.45154929 -1.0729793
3.0609291 -0.47296259 -1.0858946
3.1055846 -0.44837782 -1.0766516
3.1587241 -0.43435931 -1.0732743
3.2073216 -0.44416955 -1.0815061
3.253396 -0.43020737 -1.0776737
3.300694 -0.41569436 -1.0736494
3.3540008 -0.42553961 -1.082221
3.4000018 -0.38540936 -1.0652936
3.4566729 -0.39507023 -1.0740029
3.5150709 -0.40520275 -1.0830666
3.5489099 -0.37698466 -1.0712661
3.5929964 -0.40138906 -1.0864897
3.6515012 -0.38494107 -1.0822642
3.7117617 -0.367771 -1.0777975
3.7498484 -0.33746323 -1.0652423
3.7990437 -0.36283287 -1.0812982
3.8390794 -0.331732 -1.0684793
3.8906126 -0.35765225 -1.084971
3.9327464 -0.32571596 -1.0718777
3.9867926 -0.3522107 -1.0888283
4.0311885 -0.31939313 -1.0754493
3.0090988 -0.41869944 -1.055205
3.0531886 -0.42780727 -1.0627772
3.0781198 -0.40362036 -1.0523837
3.1374185 -0.40026543 -1.054762
3.1991029 -0.39677554 -1.057236
3.2633204 -0.39314228 -1.0598116
3.3452992 -0.37591788 -1.0568036
3.4315255 -0.35790867 -1.0536934
3.5058279 -0.3531363 -1.056389
3.5834899 -0.34814823 -1.0592067
3.6647453 -0.3429293 -1.0621547
3.7888186 -0.30645192 -1.0523953
3.8800676 -0.29989147 -1.0553559
3.9759073 -0.29300103 -1.0584652
4.3363647 -2.4269488 -1.0051913
2.9661446 -0.4099555 -1.0478926
3.0454576 -0.38270527 -1.0396868
3.1035221 -0.37897593 -1.0417935
3.1638989 -0.37509799 -1.0439841
3.2267287 -0.37106249 -1.0462633
3.2921631 -0.36685979 -1.0486372
3.3911343 -0.33504382 -1.0394926
3.463717 -0.32982546 -1.0418477
3.5395436 -0.32437381 -1.0443077
3.6188366 -0.31867298 -1.0468804
3.701839 -0.31270549 -1.0495732
3.9220426 -0.26728457 -1.0419164
4.0201344 -0.25947848 -1.044722
2.9059227 -0.36992857 -1.0237472
2.9409316 -0.36741576 -1.0248859
2.9950109 -0.36352786 -1.0266421
3.037734 -0.33765671 -1.0166235
3.0829575 -0.34558058 -1.0236814
3.1426034 -0.34106112 -1.0255009
3.1908951 -0.34944025 -1.0329959
3.2366626 -0.33405805 -1.0284321
3.2836435 -0.31808755 -1.0236572
3.3366082 -0.3263607 -1.031419
3.4385808 -0.29273269 -1.0215731
3.4965975 -0.30114093 -1.029748
3.5301895 -0.2718356 -1.0173866
3.5916054 -0.2799601 -1.0256521
3.6549749 -0.28853744 -1.0342778
3.6919317 -0.25771928 -1.0213897
3.7397845 -0.28178841 -1.0367035
3.7786093 -0.25015429 -1.023535
3.8287044 -0.27471229 -1.0392467
3.8695388 -0.24221823 -1.0257857
3.96504 -0.23388316 -1.0281492
2.8479259 -0.3313815 -1.0004938
2.8876414 -0.33871576 -1.006881
2.9512177 -0.32236651 -1.0030529
3.0057995 -0.31760281 -1.0044054
3.0624897 -0.31265503 -1.00581
3.1214111 -0.30751258 -1.0072691
3.1826975 -0.30216369 -1.008786
3.2464967 -0.29659548 -1.0103651
3.3279288 -0.27686781 -1.0060674
3.3822782 -0.28474489 -1.0137258
3.4135747 -0.2562272 -1.0016013
3.4873798 -0.24921639 -1.0031433
3.5645173 -0.24188906 -1.0047548
3.6452181 -0.23422322 -1.0064408
3.7297356 -0.22619484 -1.0082065
3.818346 -0.21777767 -1.0100577
3.911355 -0.20894265 -1.0120009
4.0090976 -0.19965804 -1.0140429
4.3330503 -2.4109221 -0.95934212
2.8197241 -0.31263742 -0.98918647
2.8694441 -0.3079145 -0.99022657
2.9209964 -0.30301753 -0.99130493
2.9744828 -0.29793683 -0.99242389
3.0300159 -0.2926617 -0.99358547
3.0877132 -0.28718099 -0.99479234
3.1477041 -0.28148246 -0.9960469
3.2101264 -0.2755529 -0.99735069
3.2751346 -0.26937771 -0.99870902
3.445533 -0.22710618 -0.98922032
3.5208492 -0.21936974 -0.9905026
3.5996034 -0.21128008 -0.99184346
3.6820381 -0.20281239 -0.99324709
3.7684155 -0.1939397 -0.99471748
3.8590257 -0.1846322 -0.99626017
3.9541891 -0.17485704 -0.99788064
2.7784383 -0.28519711 -0.97263342
2.8267391 -0.28005043 -0.97336435
2.8767931 -0.27471694 -0.97412175
2.9287 -0.26918608 -0.97490728
2.9825633 -0.26344678 -0.97572243
3.0384953 -0.25748709 -0.97656918
3.0798192 -0.24136683 -0.97133267
3.1265175 -0.24799119 -0.97784257
3.1881752 -0.24141674 -0.97877324
3.238101 -0.24841362 -0.98568869
3.2854941 -0.23116922 -0.9803049
3.3341684 -0.21327019 -0.97468084
3.3734348 -0.23451211 -0.987993
3.4046168 -0.20548812 -0.97560728
3.4781744 -0.19736259 -0.97657466
3.5115211 -0.16697612 -0.96365565
3.5725293 -0.17328368 -0.97098452
3.6354752 -0.17998634 -0.9786433
3.6721587 -0.14798464 -0.96514481
3.7197006 -0.1706824 -0.97975099
3.7582357 -0.13780816 -0.96594256
3.8080027 -0.1609281 -0.98091233
3.8485284 -0.12713324 -0.96677941
3.9220188 -0.13330628 -0.97489482
4.0205708 -0.12203287 -0.97599727
2.7381351 -0.25840998 -0.95647418
2.7850671 -0.25286144 -0.95691049
2.8336802 -0.24711412 -0.95736229
2.8840661 -0.24115723 -0.95783055
2.9363239 -0.23497905 -0.95831621
2.9905601 -0.22856696 -0.95882034
3.0468881 -0.22190753 -0.95934379
3.105433 -0.21498607 -0.9598881
3.1663263 -0.20778692 -0.96045393
3.2297144 -0.20029287 -0.9610433
3.2957487 -0.1924859 -0.96165556
3.3646023 -0.18434568 -0.9622938
3.4364593 -0.17585033 -0.96296
3.7976744 -0.10416347 -0.95181036
3.8900287 -0.092526674 -0.95230716
3.9870763 -0.080298483 -0.95282912
2.7139537 -0.24072185 -0.94688821
2.7579525 -0.23517014 -0.94620419
2.8056395 -0.22916152 -0.94646198
2.8550494 -0.22293578 -0.946729
2.9062786 -0.21648085 -0.94700587
2.9594269 -0.20978408 -0.94729304
3.0146058 -0.20283143 -0.94759119
3.071934 -0.195608 -0.94790113
3.1315396 -0.1880976 -0.94822311
3.1935604 -0.18028291 -0.94855845
3.2581468 -0.17214492 -0.94890738
3.325458 -0.16366354 -0.94927007
3.3956718 -0.15481649 -0.9496479
3.4689817 -0.14557932 -0.95004243
3.5455971 -0.13592567 -0.95045447
3.6257463 -0.12582672 -0.95088565
3.7096808 -0.11525081 -0.95133704
2.7135787 -0.19668446 -0.93510967
2.7667778 -0.19200344 -0.92521322
2.8148813 -0.18519208 -0.92509782
2.864732 -0.17813326 -0.92497808
2.9164288 -0.17081311 -0.92485422
2.970073 -0.16321717 -0.92472565
3.02578 -0.15532917 -0.92459184
3.064059 -0.14990421 -0.9244979
3.1034737 -0.14432783 -0.92440563
3.1644776 -0.13568978 -0.92425925
3.221334 -0.15223348 -0.93642688
3.2684088 -0.13352473 -0.93028927
3.3167548 -0.11412211 -0.92389137
3.3712597 -0.11922884 -0.93017596
3.427398 -0.12466345 -0.9367348
3.4598012 -0.093866549 -0.92354596
3.5191813 -0.098854557 -0.93010318
3.580425 -0.10418935 -0.93696141
3.6160319 -0.071744077 -0.92316729
3.6622932 -0.093235925 -0.93708289
3.6996756 -0.059899956 -0.92296457
3.7480717 -0.081759274 -0.93720984
3.7873614 -0.047483496 -0.92275196
3.8587189 -0.052086588 -0.92993599
3.9325371 -0.057078958 -0.93748319
3.9760916 -0.02075904 -0.92229432
4.031888 -0.043786403 -0.9376303
2.7014532 -0.14994827 -0.92712015
2.7441952 -0.15332171 -0.90431631
2.7915857 -0.14586885 -0.90383118
2.840687 -0.13814695 -0.90332842
2.8915935 -0.13014117 -0.90280753
2.9444053 -0.12183574 -0.90226698
2.9992328 -0.11321331 -0.90170568
3.2129638 -0.104235 -0.91184157
3.2785671 -0.094432272 -0.91142768
3.3469672 -0.084211536 -0.91099578
3.4183486 -0.073545396 -0.91054493
3.4929044 -0.062404867 -0.91007251
3.5708559 -0.050756954 -0.90957838
3.6524422 -0.038565911 -0.90906137
3.7379222 -0.025793048 -0.90851939
3.8275824 -0.012395556 -0.90795147
3.921736 0.001673394 -0.90735465
4.020731 0.016465709 -0.90672714
2.6945188 -0.099626169 -0.92743564
2.6875858 -0.049312875 -0.927751
2.6806533 0.00099039404 -0.92806649
2.6737235 0.05128514 -0.9283821
2.6667938 0.10156969 -0.92869717
2.6598661 0.15184568 -0.92901248
2.6529393 0.20211156 -0.92932761
2.646014 0.25236878 -0.92964268
2.6390896 0.30261606 -0.92995793
2.6321671 0.35285458 -0.93027294
2.6266296 0.39303848 -0.93052483
2.6197093 0.44325966 -0.93083966
2.6127899 0.49347198 -0.93115455
2.6058724 0.54367441 -0.93146932
2.5989549 0.5938679 -0.93178391
2.5920403 0.64405191 -0.93209863
2.5851259 0.69422686 -0.93241328
2.5782135 0.7443921 -0.93272781
2.5713017 0.79454851 -0.93304229
2.5643914 0.84469503 -0.93335688
2.5574825 0.89483285 -0.93367112
2.5505745 0.94496053 -0.93398541
2.5436683 0.99507982 -0.93429965
2.5367634 1.045189 -0.934614
2.5298595 1.0952897 -0.93492806
2.5243371 1.1353632 -0.93517929
2.5174363 1.1854464 -0.93549329
2.5105355 1.235521 -0.93580729
2.5036364 1.2855858 -0.93612123
2.4967387 1.3356414 -0.93643498
2.4912217 1.3756794 -0.93668604
4.0586309 -2.305135 -0.86638224
4.1576548 -2.293627 -0.86765432
4.2621236 -2.2814865 -0.86899626
2.7177143 -0.13669252 -0.89418501
2.7642109 -0.129015 -0.8935262
2.8123701 -0.12106295 -0.89284396
2.8622832 -0.11282134 -0.89213687
2.9140472 -0.10427403 -0.89140373
2.9677668 -0.09540385 -0.8906427
3.0235558 -0.086192012 -0.88985234
3.0561931 -0.10425548 -0.90112269
3.0984738 -0.08578039 -0.89477378
3.1594336 -0.075956754 -0.89403135
3.2046044 -0.056297243 -0.8872878
3.2411919 -0.075161755 -0.89922905
3.3080604 -0.0646457 -0.89854473
3.3778105 -0.053676505 -0.89783067
3.4506323 -0.042224184 -0.89708543
3.5267296 -0.030256802 -0.89630502
3.6063306 -0.01773835 -0.8954885
3.6896851 -0.0046296534 -0.89463311
3.7770643 0.0091120303 -0.89373654
3.8687675 0.02353373 -0.89279574
3.9651241 0.038687203 -0.89180744
2.6972182 -0.094613336 -0.88007265
2.7416899 -0.090645261 -0.8727895
2.7891388 -0.08206287 -0.87174344
2.8442781 -0.082981303 -0.87597662
2.8954508 -0.073925361 -0.87494832
2.9485476 -0.064528912 -0.8738814
3.0036783 -0.054772466 -0.87277365
3.0609629 -0.044634812 -0.87162268
3.1073647 -0.048450381 -0.8767072
3.1512375 -0.028781043 -0.86986977
3.1962559 -0.0084200781 -0.86276478
3.2513607 -0.036131911 -0.88039964
3.2993779 -0.015233769 -0.87323105
3.3535287 -0.018726004 -0.8786841
3.4093046 -0.02249717 -0.88438809
3.4414701 0.0093470188 -0.87065864
3.5004621 0.0061197439 -0.87631053
3.5613005 0.0026003961 -0.88223386
3.5966432 0.036190592 -0.86784881
3.6426053 0.016025484 -0.88108009
3.679709 0.050560258 -0.86634302
3.7472854 0.047857072 -0.87231815
3.8171329 0.044843491 -0.87860382
3.8581617 0.081431106 -0.8631084
3.9109521 0.060334943 -0.87727273
4.0095916 0.076622315 -0.87587303
2.6908665 -0.050266456 -0.87209797
2.8263566 -0.053547367 -0.86002505
2.8769419 -0.043997757 -0.85870981
2.929419 -0.034091 -0.85734493
2.983896 -0.023806689 -0.85592854
3.0404897 -0.01312281 -0.85445678
3.0993261 -0.0020155115 -0.85292697
3.2614257 0.003367801 -0.86132777
3.329371 0.015657665 -0.85982966
3.4002731 0.028482346 -0.85826629
3.474329 0.04187749 -0.85663348
3.5517542 0.055882081 -0.85492623
3.6327822 0.070538335 -0.85313916
3.9541738 0.098040402 -0.86136806
2.6806173 0.0014102637 -0.87725002
2.673687 0.051703867 -0.87756997
2.6667576 0.10198738 -0.87789005
2.6598296 0.15226224 -0.87821007
2.6529038 0.20252721 -0.87852991
2.6459782 0.2527833 -0.87884974
2.6390541 0.30302954 -0.87916958
2.6321313 0.35326698 -0.87948948
2.6265943 0.39345008 -0.87974507
2.6196742 0.44367015 -0.88006479
2.6127543 0.4938814 -0.88038415
2.6058369 0.54408288 -0.88070369
2.5989206 0.59427547 -0.88102329
2.592005 0.64445812 -0.88134253
2.5850914 0.69463211 -0.88166177
2.5781789 0.74479622 -0.88198096
2.5712671 0.79495174 -0.8823002
2.5643575 0.84509718 -0.88261932
2.5574479 0.89523393 -0.88293844
2.5505407 0.9453606 -0.88325739
2.5436344 0.99547875 -0.88357639
2.5367293 1.0455869 -0.88389528
2.5298254 1.0956866 -0.88421404
2.5243037 1.1357591 -0.88446915
2.5174024 1.1858414 -0.88478774
2.5105026 1.2359151 -0.88510656
2.503603 1.2859786 -0.88542497
2.496706 1.3360335 -0.8857438
2.4911892 1.3760703 -0.88599855
3.9071908 -2.2132068 -0.79772168
3.9985416 -2.1997666 -0.79717559
4.0947146 -2.1856146 -0.79659957
4.1961079 -2.1706946 -0.7959922
4.3031554 -2.1549428 -0.79535115
2.6861405 -0.03857819 -0.8465026
2.748174 -0.032942209 -0.84436601
2.8087037 -0.024289671 -0.84418029
2.8587153 -0.014252142 -0.84258127
2.8992383 -0.017387247 -0.84692311
2.952616 -0.006887767 -0.84532368
3.0080469 0.0040156147 -0.84366274
3.0656521 0.01534671 -0.84193653
3.1430511 0.018335884 -0.84573823
3.1879175 0.039396554 -0.83827275
3.2385762 0.036873445 -0.84300214
3.2907059 0.034113657 -0.84795052
3.3599892 0.04719314 -0.84614879
3.4323201 0.060847931 -0.84426814
3.5079038 0.075116821 -0.84230268
3.5869644 0.090042025 -0.8402468
3.6697466 0.10566988 -0.83809406
3.7176685 0.085892521 -0.85126567
3.806699 0.10199624 -0.84930056
3.9001851 0.11890595 -0.84723705
3.9984701 0.1366836 -0.84506774
2.6881113 0.0060298485 -0.83220404
2.7534966 0.0072986167 -0.82459921
2.8015947 0.017716976 -0.8226788
2.851449 0.028515738 -0.82068849
2.8918467 0.025981495 -0.82472122
2.9271533 0.033482969 -0.82338476
2.9817147 0.045081951 -0.82131618
3.0451889 0.046803527 -0.82479906
3.0912974 0.044362422 -0.82917595
3.1348753 0.065394245 -0.8216368
3.17959 0.087152801 -0.81381184
3.2300849 0.08538226 -0.81815356
3.2820454 0.083396763 -0.82270277
3.3358433 0.081510402 -0.82732832
3.3912537 0.079393193 -0.83217978
3.4231827 0.1122788 -0.81791329
3.4817832 0.11080197 -0.82266253
3.5422177 0.1090882 -0.82765591
3.577297 0.14381641 -0.81268352
3.622968 0.12497191 -0.8252365
3.7075632 0.14161201 -0.82270169
3.7565155 0.12205032 -0.83583575
3.7962811 0.15906303 -0.82004148
3.8475716 0.13924012 -0.83346617
3.8894341 0.17738643 -0.81724787
3.9432404 0.15730079 -0.83097619
3.9873657 0.19664982 -0.81431139
2.6736507 0.052122567 -0.82676047
2.7365086 0.035486352 -0.80933493
2.7840672 0.046355609 -0.80715233
2.8333538 0.057619732 -0.80489028
3.0248244 0.077790998 -0.80790317
3.0832787 0.090683542 -0.80545408
3.311821 0.11526382 -0.80879849
3.3822463 0.13023552 -0.80612838
3.6597922 0.16069806 -0.80988395
3.7462621 0.17839316 -0.8069495
2.6667218 0.10240509 -0.82708508
2.6597939 0.15267889 -0.82740974
2.6528673 0.20294271 -0.82773429
2.6459422 0.25319782 -0.82805902
2.6390183 0.30344298 -0.82838351
2.6320958 0.35367939 -0.82870793
2.6265585 0.39386171 -0.82896739
2.6196384 0.44408068 -0.82929164
2.6127198 0.49429095 -0.82961607
2.6058021 0.54449123 -0.82994026
2.5988851 0.59468275 -0.83026421
2.5919704 0.64486444 -0.83058846
2.5850565 0.69503736 -0.83091235
2.5781448 0.74520057 -0.83123654
2.5712326 0.79535478 -0.83156025
2.5643229 0.84549928 -0.83188415
2.5574141 0.89563507 -0.83220798
2.5505068 0.94576061 -0.83253163
2.5436006 0.99587798 -0.83285552
2.5366957 1.045985 -0.833179
2.5297923 1.0960836 -0.83350259
2.5242705 1.1361552 -0.83376133
2.517369 1.1862364 -0.83408475
2.5104692 1.2363089 -0.83440804
2.5035703 1.2863716 -0.83473122
2.4966729 1.3364254 -0.83505458
2.4911566 1.3764615 -0.83531314
3.6860318 -2.142194 -0.73597163
2.6968777 0.057917021 -0.79540122
2.743094 0.069032691 -0.79300344
2.790966 0.080546655 -0.79051954
2.8550272 0.084850885 -0.7927506
2.8957341 0.083223172 -0.79635084
2.9375002 0.08142174 -0.8001104
2.9767673 0.10195861 -0.79252386
3.0498075 0.1070888 -0.79495633
3.1267097 0.11239403 -0.79756528
3.171272 0.1348487 -0.7893818
3.2216043 0.13382885 -0.79333669
3.2733963 0.13261567 -0.79748809
3.3422158 0.1477944 -0.79460466
3.414058 0.1636398 -0.79159433
3.4724629 0.16303454 -0.79589438
3.5326955 0.16221963 -0.8004244
3.6131654 0.17932676 -0.79737341
3.6974659 0.19724818 -0.79417735
3.7858748 0.2160431 -0.79082537
3.8369977 0.19696106 -0.80386889
3.8787005 0.23577687 -0.78730518
3.9323244 0.21646857 -0.80063194
2.6740253 0.10466284 -0.77916288
2.7361562 0.11019276 -0.77193737
2.7838771 0.1224372 -0.76907778
2.8309395 0.12345546 -0.77178931
2.8883195 0.12668018 -0.77410322
2.9299562 0.12549934 -0.77754349
2.9690919 0.14665009 -0.7696408
3.0227008 0.14817637 -0.77254611
3.0752695 0.13694799 -0.78176111
3.1185539 0.15933545 -0.77352369
3.1809802 0.17434955 -0.77028501
3.2272754 0.1982123 -0.7615155
3.2647588 0.18177059 -0.77230608
3.3182051 0.18148172 -0.7761085
3.3732507 0.18100952 -0.78011191
3.4257498 0.20634681 -0.77102947
3.4797575 0.23262735 -0.76157826
3.5231864 0.21527626 -0.77323079
3.5676432 0.19751436 -0.78515923
3.6033771 0.23360337 -0.76955032
3.668617 0.23422417 -0.77370495
3.7360177 0.23465075 -0.77810419
3.77548 0.27293634 -0.76165169
3.8264353 0.25459316 -0.77431566
3.9214249 0.27554393 -0.77033514
3.9762793 0.25652117 -0.78360349
2.6670613 0.14882891 -0.77297252
2.7426398 0.14422132 -0.7553575
2.8697228 0.15579 -0.7582677
2.9224205 0.1695254 -0.75500262
3.0672705 0.1831558 -0.75809729
3.1276858 0.19841652 -0.75459766
3.2943168 0.21460806 -0.75790149
3.5580027 0.25113583 -0.7576741
3.8679767 0.29407585 -0.75740671
2.6528316 0.20335825 -0.77694082
2.6459067 0.25361231 -0.77727014
2.6389828 0.3038564 -0.77759928
2.6320601 0.35409176 -0.77792847
2.6265233 0.39427316 -0.77819175
2.6196032 0.44449106 -0.77852088
2.6126842 0.49470031 -0.77884978
2.605767 0.5448997 -0.77917862
2.5988507 0.59509009 -0.77950758
2.5919356 0.64527082 -0.77983636
2.5850222 0.69544286 -0.7801649
2.57811 0.74560463 -0.78049362
2.5711985 0.79575813 -0.78082222
2.5642889 0.84590149 -0.78115088
2.5573802 0.89603615 -0.7814793
2.550473 0.94616085 -0.78180778
2.5435669 0.99627686 -0.78213626
2.5366626 1.046383 -0.7824645
2.5297587 1.0964805 -0.78279281
2.5242372 1.1365516 -0.78305537
2.5173359 1.1866317 -0.78338337
2.5104358 1.2367029 -0.78371149
2.5035374 1.2867643 -0.78403944
2.4966407 1.3368171 -0.78436744
2.4911234 1.3768525 -0.7846297
3.7665517 -2.1278403 -0.73396325
3.8510647 -2.1127746 -0.73185539
3.9398749 -2.0969427 -0.72964036
4.0333185 -2.0802851 -0.72730964
4.1317682 -2.0627346 -0.72485411
4.2356381 -2.0442183 -0.72226351
2.6727102 0.16050529 -0.7444936
2.725744 0.17193809 -0.74033535
2.7767959 0.16428131 -0.7476598
2.8261003 0.17772737 -0.7443074
2.8772347 0.19167252 -0.74083078
2.9614263 0.1912888 -0.74678463
3.0176992 0.20618072 -0.74318588
3.0762062 0.22166392 -0.73944426
3.1726282 0.22218271 -0.74578375
3.2187653 0.2467667 -0.73664272
3.2561321 0.23086156 -0.74715704
3.3244896 0.24812834 -0.74319726
3.3642676 0.23171534 -0.75413048
3.4165835 0.2578671 -0.74462807
3.5136895 0.26825827 -0.74607539
3.6167638 0.27915806 -0.74767685
3.677314 0.3082746 -0.73725468
3.7257884 0.29082453 -0.74930203
3.8158853 0.3121365 -0.74480647
3.9105351 0.33452547 -0.74008369
3.96521 0.31629783 -0.75294405
2.6580398 0.2079265 -0.7307905
2.7188249 0.21298608 -0.71932667
2.7719655 0.21774273 -0.72058398
2.8188708 0.22027873 -0.72252542
2.8698416 0.23500508 -0.71864665
2.9201238 0.23802538 -0.720577
2.9694364 0.22859763 -0.72866833
3.0098596 0.25162515 -0.71991479
3.0681751 0.26800042 -0.71571392
3.1194978 0.24548817 -0.73048854
3.1642873 0.26995543 -0.72131366
3.2102654 0.29525855 -0.71180183
3.2665491 0.27203545 -0.7272718
3.3156443 0.29819542 -0.71754467
3.3552964 0.28235301 -0.72818387
3.4074295 0.30931711 -0.71826255
3.470401 0.28498501 -0.73474485
3.5042069 0.32116607 -0.71895814
3.5483768 0.30468136 -0.73022795
3.6069279 0.33361262 -0.71976161
3.7155747 0.34691483 -0.72054267
3.7651005 0.32974383 -0.73252231
3.8053508 0.36959198 -0.71534204
3.8572671 0.35228422 -0.72755378
3.9541495 0.37597799 -0.72233099
2.6458704 0.25402683 -0.72648335
2.7020495 0.24011165 -0.70460844
2.8259232 0.25596842 -0.70515358
2.9617424 0.27335423 -0.7057513
3.1113195 0.29250124 -0.70640951
3.2768586 0.31369126 -0.70713806
3.4610577 0.33727011 -0.70794868
3.6672609 0.36366552 -0.70885623
3.8996613 0.39341444 -0.70987898
2.6389468 0.30426979 -0.72681749
2.6320248 0.35450417 -0.72715133
2.6264875 0.3946847 -0.72741836
2.6195681 0.44490167 -0.72775191
2.612649 0.49510986 -0.7280857
2.6057315 0.54530793 -0.72841924
2.5988157 0.59549767 -0.72875279
2.5919008 0.64567715 -0.7290864
2.5849874 0.69584799 -0.72941971
2.5780754 0.74600899 -0.7297532
2.5711644 0.79616135 -0.73008651
2.5642545 0.8463034 -0.73041975
2.5573461 0.89643717 -0.730753
2.5504391 0.94656068 -0.73108608
2.5435331 0.99667585 -0.73141915
2.5366287 1.0467811 -0.73175222
2.5297251 1.0968773 -0.73208511
2.5242035 1.1369475 -0.73235136
2.5173025 1.1870265 -0.7326842
2.5104029 1.2370968 -0.73301703
2.5035048 1.2871573 -0.7333498
2.4968865 1.335176 -0.73772365
2.4910975 1.3771654 -0.74408442
3.5608063 -2.0640507 -0.67790186
3.6356206 -2.0483668 -0.67460638
3.7140148 -2.0319328 -0.67115331
3.7962499 -2.0146935 -0.66753107
3.8826165 -1.996588 -0.66372675
3.973434 -1.9775497 -0.65972644
4.069056 -1.957504 -0.65551472
4.1698728 -1.9363697 -0.65107381
4.27632 -1.9140545 -0.64638513
2.6629832 0.2597577 -0.69210643
2.7084782 0.27438557 -0.68790215
2.7591088 0.26878133 -0.69417095
2.8080211 0.28411129 -0.68984926
2.8624563 0.27828783 -0.69648802
2.915184 0.29437932 -0.6920467
3.0020297 0.29701495 -0.69667178
3.0601537 0.31428015 -0.69201243
3.1559565 0.3176676 -0.69687426
3.2017779 0.34368837 -0.68699294
3.2389121 0.32885206 -0.69695657
3.3068097 0.34819588 -0.69192618
3.3463371 0.33292279 -0.70227212
3.398288 0.36069688 -0.69193304
3.4947376 0.37399963 -0.69187897
3.538764 0.35815081 -0.70282084
3.5971065 0.38798869 -0.69188672
3.7053759 0.40292174 -0.69182599
3.7547367 0.38646576 -0.70343661
3.7948327 0.42695999 -0.68592268
3.8465736 0.41040277 -0.69774693
3.9431059 0.43556362 -0.69176626
2.6442232 0.30644253 -0.67793733
2.7015781 0.3153224 -0.6669504
2.7463157 0.31949732 -0.66792363
2.8008122 0.32654279 -0.66812867
2.8550804 0.32152092 -0.67435497
2.9076374 0.33841905 -0.66949832
2.9502182 0.3403829 -0.67143011
2.9942081 0.34234983 -0.67345661
3.0521419 0.3605029 -0.66834003
3.1031516 0.33945554 -0.68236059
3.1476362 0.36531943 -0.6724661
3.1933005 0.39205581 -0.66221583
3.249233 0.37044373 -0.6768558
3.2979877 0.39813024 -0.66634166
3.3530047 0.40141284 -0.66846484
3.409699 0.40461245 -0.6707443
3.4517276 0.38948274 -0.68118972
3.4852817 0.42675915 -0.66483772
3.529165 0.41154453 -0.67545259
3.6102328 0.43464059 -0.66944647
3.6572225 0.41897517 -0.68049943
3.6951921 0.45884529 -0.66315204
3.7443883 0.44310242 -0.67439473
3.8358965 0.46843159 -0.66798604
3.888804 0.45221141 -0.67972153
3.9320803 0.49505499 -0.66124982
2.6319888 0.35491648 -0.67637587
2.8624072 0.35825887 -0.65647739
3.0949941 0.38635147 -0.65834147
3.2594464 0.41251472 -0.65650785
3.5643649 0.44993186 -0.65865743
2.6264522 0.39509615 -0.67664665
2.6195328 0.44531211 -0.67698514
2.6126139 0.49551922 -0.67732346
2.6056969 0.5457164 -0.67766184
2.5987809 0.59590489 -0.67800015
2.5918665 0.64608335 -0.67833835
2.5849526 0.69625324 -0.67867655
2.5780411 0.74641329 -0.67901456
2.5711296 0.79656422 -0.67935258
2.5642204 0.84670562 -0.67969048
2.5573123 0.89683831 -0.68002838
2.5504053 0.94696075 -0.68036622
2.5434992 0.99707484 -0.68070394
2.5365951 1.0471787 -0.68104166
2.5296915 1.0972742 -0.68137926
2.5241704 1.1373435 -0.68164939
2.5172694 1.1874217 -0.68198699
2.51037 1.237491 -0.68232447
2.5034719 1.2875506 -0.68266189
2.4963033 1.339556 -0.6890946
2.4910648 1.3775563 -0.69340479
3.4180312 -2.0247588 -0.61482078
3.4657345 -2.0153103 -0.62057728
3.5156183 -2.0134225 -0.60985434
3.5664091 -2.003531 -0.61562985
3.6195362 -2.0013914 -0.60447919
3.6640677 -1.9873059 -0.62088281
3.7113113 -1.98937 -0.60265779
3.7685916 -1.9785017 -0.60857028
3.8180187 -1.9719554 -0.60773963
3.8582096 -1.9613979 -0.61803007
3.9213464 -1.95832 -0.60589987
3.9639821 -1.9472828 -0.61647558
4.0192404 -1.9398923 -0.61569762
4.0534754 -1.9380689 -0.60944343
4.0882726 -1.936275 -0.60296309
4.1592836 -1.9230902 -0.60968781
4.208447 -1.9204154 -0.60082555
4.2582569 -1.9079939 -0.61218935
2.646256 0.35500365 -0.64552408
2.6946847 0.3562147 -0.64602137
2.741508 0.37280852 -0.64092439
2.7936108 0.36892638 -0.6464324
2.8440108 0.38637626 -0.64115202
2.9000998 0.38240731 -0.64697629
2.9387126 0.40730554 -0.6371631
2.986397 0.38763043 -0.65026945
3.0441406 0.40666917 -0.64469683
3.0868468 0.43318912 -0.63435245
3.1393268 0.41291103 -0.64808863
3.184834 0.44036114 -0.63747066
3.2217371 0.42658839 -0.64688641
3.2891777 0.44799846 -0.64079112
3.3440115 0.45210207 -0.64249098
3.4005165 0.45614782 -0.64433414
3.4424102 0.44162306 -0.65446764
3.4758387 0.47944489 -0.63783431
3.5195794 0.4648625 -0.64812303
3.6003642 0.4891907 -0.64148116
3.6471987 0.47420341 -0.65218419
3.685024 0.51468587 -0.63452077
3.7340558 0.49965385 -0.64539653
3.7843308 0.48424071 -0.65654814
3.8252361 0.52637106 -0.63827097
3.8779635 0.51091647 -0.649611
2.6313174 0.39944401 -0.63169646
2.6898887 0.40874174 -0.61941522
2.7344739 0.41437584 -0.6196481
2.7805235 0.42028254 -0.61984473
2.8366559 0.42948553 -0.61908233
2.892571 0.42634431 -0.62448055
2.9467957 0.44556129 -0.61857802
2.990732 0.4491418 -0.61979377
3.0361488 0.45277879 -0.62108248
3.0787098 0.47996849 -0.61039317
3.1310275 0.46044245 -0.62374204
3.1763785 0.48860464 -0.61275715
3.2319617 0.46859533 -0.6265713
3.2803791 0.49780068 -0.61527431
3.3350308 0.50272322 -0.61655205
3.3913474 0.50761276 -0.61796021
3.4331059 0.49369112 -0.62778282
3.4664087 0.53205681 -0.61086869
3.5323279 0.51096272 -0.62593293
3.5905097 0.54366177 -0.61355644
3.6371899 0.52935082 -0.62391061
3.7237384 0.55612028 -0.61644185
3.7738445 0.54143417 -0.62721825
3.8671405 0.56953013 -0.61954761
3.9210715 0.5544523 -0.63078159
2.6199729 0.44324118 -0.62878454
3.8145921 0.58422136 -0.60860163
2.6125858 0.49584678 -0.63671529
2.6056688 0.54604304 -0.63705742
2.5987527 0.59623063 -0.63739944
2.5918384 0.64640838 -0.63774145
2.5849252 0.69657737 -0.63808328
2.5780132 0.74673641 -0.63842517
2.5711024 0.79688686 -0.63876694
2.564193 0.84702724 -0.63910866
2.5572851 0.89715922 -0.63945037
2.5503781 0.94728082 -0.63979185
2.5434723 0.99739408 -0.64013344
2.5365682 1.0474972 -0.64047498
2.529665 1.0975916 -0.64081627
2.5241437 1.1376604 -0.64108932
2.5172427 1.1877376 -0.64143062
2.5103433 1.2378061 -0.64177185
2.5034451 1.2878648 -0.64211303
2.4965487 1.3379145 -0.64245421
2.4910321 1.3779473 -0.64272696
3.468411 -2.0461249 -0.55523902
3.517638 -2.0368681 -0.56014574
3.5688119 -2.031317 -0.55671585
3.6215832 -2.0256014 -0.55316097
3.6757143 -2.0156071 -0.55816942
3.7133799 -2.014257 -0.54991394
3.7705991 -2.003788 -0.55500847
3.8201094 -1.9976348 -0.55332845
3.8710008 -1.991281 -0.55166322
3.9234557 -1.9847621 -0.54988348
3.9774168 -1.9780246 -0.54811764
4.0213666 -1.9670655 -0.55814451
4.0664034 -1.9558357 -0.56841928
4.1137776 -1.9582102 -0.54949945
4.1850905 -1.940699 -0.5652014
4.2105913 -1.9489772 -0.54034859
4.2604094 -1.9369333 -0.55092168
3.483475 -2.030174 -0.58422041
3.5677037 -2.019433 -0.58193737
3.656538 -2.0081046 -0.57952946
3.7503648 -1.996139 -0.57698619
3.8496187 -1.9834818 -0.57429576
3.8905249 -1.9729698 -0.58428025
3.9547839 -1.9700706 -0.57144517
3.9981995 -1.9590788 -0.58169609
4.1125669 -1.9443251 -0.57895112
4.2342677 -1.9286232 -0.5760296
2.6342292 0.46240497 -0.60114485
2.6677754 0.44363251 -0.600447
2.7251117 0.46599683 -0.59818023
2.7878032 0.47929412 -0.59614664
2.8183947 0.45695078 -0.60409254
2.8766439 0.47868246 -0.59999245
2.9462731 0.49294451 -0.59780604
3.0323827 0.50036412 -0.59871125
3.1168478 0.51834607 -0.59832382
3.1951563 0.54645979 -0.59547299
3.2233434 0.51757532 -0.60147816
3.2925415 0.55481064 -0.59531128
3.3106213 0.53452539 -0.59897184
3.3959701 0.5636797 -0.59513956
3.4238145 0.5456872 -0.60113466
3.5254831 0.5653742 -0.59920305
3.6271951 0.58441722 -0.59567839
3.6748705 0.57044351 -0.60593188
3.744307 0.6224708 -0.59465885
3.7633743 0.59854072 -0.59793282
3.8783736 0.63499147 -0.59443957
3.9100807 0.61375588 -0.60036165
2.6324682 0.49804422 -0.60033524
2.7109756 0.51544791 -0.59631228
2.7811191 0.5217306 -0.59619665
2.8549318 0.52834189 -0.59607506
2.9327095 0.53530836 -0.59594691
3.0147808 0.54265928 -0.59581172
3.0979364 0.57411373 -0.59575564
3.1896174 0.58302665 -0.59560698
3.2868152 0.59247595 -0.59544939
3.3900437 0.60251147 -0.59528202
3.4998822 0.6131897 -0.59510392
3.6169858 0.62457407 -0.59491396
3.7398946 0.65100408 -0.59476352
3.8737819 0.66453296 -0.59454817
2.6186821 0.54775506 -0.60259134
2.7048082 0.55693698 -0.5964644
2.7747762 0.56427497 -0.5963524
2.8467739 0.58290648 -0.59627485
2.9243076 0.59133577 -0.59615219
3.0061202 0.60023028 -0.59602278
3.0907893 0.62146676 -0.59592921
3.182236 0.63175994 -0.59578562
3.2791841 0.64267242 -0.59563339
3.3821459 0.65426183 -0.5954718
3.4916978 0.66659302 -0.59529984
3.608494 0.67973948 -0.5951165
3.733278 0.69378531 -0.59492064
3.8668976 0.70882535 -0.59471077
2.617934 0.59891033 -0.60083401
2.6971035 0.60877007 -0.59665477
2.7668538 0.61742604 -0.59654754
2.8386207 0.63743955 -0.59647477
2.9159107 0.64732987 -0.59635729
2.9974656 0.65776616 -0.59623355
3.0818605 0.68062276 -0.59614593
3.0854313 0.65696537 -0.59605926
3.174859 0.68046629 -0.59596419
3.2715571 0.69284016 -0.59581739
3.3742518 0.70598149 -0.59566146
3.4835184 0.71996379 -0.59549576
3.6000073 0.73487014 -0.59531885
3.7244611 0.75079596 -0.59512997
3.8577232 0.76784885 -0.59492773
2.6043868 0.64842546 -0.60315371
2.6894035 0.66057456 -0.59684491
2.7589362 0.67054737 -0.59674263
2.8321037 0.68104136 -0.59663486
2.9091978 0.69209868 -0.59652132
2.990545 0.70376647 -0.59640205
3.0765066 0.71609604 -0.59627593
3.1674857 0.72914541 -0.59614265
3.2639349 0.74297923 -0.59600121
3.3663626 0.75767076 -0.595851
3.4753439 0.77330214 -0.59569144
3.5915265 0.7899664 -0.59552109
3.7178516 0.79353082 -0.59528691
3.8508465 0.81209165 -0.59509021
2.6034124 0.69969159 -0.60133249
2.6817074 0.71234643 -0.59703511
2.7526054 0.7130205 -0.59689856
2.8255897 0.72462171 -0.59679496
2.9024894 0.73684531 -0.59668571
2.983629 0.74974287 -0.59657061
3.0693707 0.76337242 -0.5964492
3.1601164 0.77779752 -0.59632093
3.2563169 0.79308975 -0.59618503
3.3584785 0.80932951 -0.59604067
3.4692161 0.81328571 -0.59583819
3.5851686 0.83126682 -0.59567273
3.7112455 0.83624262 -0.59544373
3.8439739 0.85630965 -0.59525257
2.5901012 0.74902701 -0.60371566
2.6740167 0.76409018 -0.59722507
2.7446969 0.76608175 -0.5970934
2.817452 0.77906531 -0.59699488
2.8957846 0.781569 -0.59685004
2.9767179 0.7956959 -0.59673935
3.0622396 0.81062376 -0.59662247
3.1527522 0.82642281 -0.5964992
3.2487032 0.84317178 -0.59636879
3.3505993 0.86095798 -0.59622997
3.4630914 0.85324883 -0.59598482
3.5788147 0.87254578 -0.59582418
3.7024429 0.89316076 -0.59565276
3.8348157 0.91523403 -0.59546912
2.5889022 0.80038851 -0.60183048
2.6678665 0.80546224 -0.59737688
2.7367928 0.81911361 -0.59728813
2.8093183 0.83347768 -0.59719479
2.887408 0.83744073 -0.59705526
2.9698105 0.84162509 -0.59690815
3.0551136 0.85785002 -0.59679598
3.1453915 0.87502122 -0.59667742
3.2410944 0.8932249 -0.59655231
3.344692 0.89966023 -0.59637189
3.4549294 0.90650636 -0.5961802
3.5703466 0.92755538 -0.59602606
3.693646 0.95004189 -0.59586149
3.82795 0.95940232 -0.59563136
2.5758255 0.8495599 -0.60427725
2.6601837 0.857149 -0.59756678
2.7304735 0.86151493 -0.59744394
2.8028157 0.87698239 -0.59735459
2.8790369 0.89327919 -0.59726048
2.9611819 0.89900136 -0.59711897
3.0479908 0.90505087 -0.59696954
3.1380363 0.92359346 -0.596856
3.2334893 0.9432497 -0.59673572
3.3387887 0.93834376 -0.59651381
3.4467719 0.95973122 -0.59637547
3.5618837 0.9825303 -0.59622782
3.6870513 0.99267995 -0.59601814
