# .PCD v0.7 - Point Cloud Data file format
VERSION 0.7
FIELDS x y z
SIZE 4 4 4
TYPE F F F
COUNT 1 1 1
WIDTH 1496
HEIGHT 1
VIEWPOINT 0 0 0 1 0 0 0
POINTS 1496
DATA ascii
2.3506517 -0.035008501 -0.44617614
2.7408812 -0.089704476 -0.40098235
2.7607658 -0.055410828 -0.40064201
2.8873937 -0.081117623 -0.40005112
3.0396662 -0.084184557 -0.39916062
3.1975989 -0.10050519 -0.39832211
3.3701751 -0.11828198 -0.39740452
2.3528264 0.020148966 -0.44022346
2.5514545 0.023070479 -0.40138617
2.6494696 -0.020442253 -0.40108141
2.6619992 0.0019287568 -0.40086198
2.7875865 -0.0091537256 -0.40018281
2.9161792 -0.033241294 -0.39956972
3.0708892 -0.034198198 -0.39865118
3.2229636 -0.061492965 -0.39791843
3.3977563 -0.077619269 -0.39697739
3.4163475 -0.05021093 -0.39668962
2.3549981 0.075237378 -0.43427816
2.4594524 0.063913845 -0.40167215
2.5692124 0.055844974 -0.40106824
2.6809623 0.035787519 -0.40052983
2.8079374 0.025944445 -0.39983451
2.8216319 0.049562793 -0.3996
2.9453862 0.015334439 -0.39908138
3.1025882 0.016551375 -0.39813387
3.248596 -0.022067778 -0.39751053
3.2658665 0.0044950857 -0.39723566
3.4445412 -0.0086395796 -0.39625245
2.3567338 0.11925292 -0.42952797
2.3782074 0.11269753 -0.40184274
2.4818654 0.10661369 -0.40126249
2.5931482 0.10002197 -0.40063986
2.7065334 0.081444003 -0.40008211
2.8423674 0.085325114 -0.39924505
2.9750228 0.064625129 -0.3985858
3.1347749 0.068081699 -0.39760852
3.2920492 0.044766176 -0.39681908
2.3584671 0.16322137 -0.42478272
2.404829 0.16498075 -0.40134588
2.5102391 0.16066861 -0.4007436
2.6112969 0.1335182 -0.40031493
2.6235034 0.15604575 -0.40009645
2.7324543 0.12772526 -0.39962816
2.8632998 0.1214265 -0.39888674
2.8773878 0.14572327 -0.39864549
3.0050986 0.11464673 -0.39808294
3.1592257 0.10722735 -0.39720953
3.3274305 0.099185094 -0.39625606
2.3606315 0.21811327 -0.41885877
2.4318354 0.21801995 -0.40084186
2.533278 0.20455955 -0.40032241
2.6419744 0.19013667 -0.39976585
2.7587323 0.1746442 -0.39916795
2.8987222 0.18251753 -0.39828035
3.0356243 0.16541553 -0.39757243
3.1839943 0.14688098 -0.39680538
3.3543255 0.14055237 -0.39582798
2.362361 0.26197979 -0.41412458
2.4482408 0.25023949 -0.4005357
2.5195482 0.26644629 -0.41353852
2.5566139 0.24901715 -0.39989573
2.6668777 0.23609799 -0.3993201
2.7853749 0.22221419 -0.39870152
2.8647974 0.25326481 -0.4099431
2.9202611 0.21966581 -0.39791161
2.9347596 0.24467054 -0.39766347
3.0666091 0.21694842 -0.3970544
3.2174504 0.20044385 -0.39625934
3.3724513 0.16843088 -0.3955397
2.3391271 -0.36414751 -0.41570696
2.347662 -0.33291554 -0.41377544
2.4654672 -0.34897277 -0.40430316
2.5768871 -0.37253004 -0.40378854
2.5890017 -0.35163882 -0.40358144
2.7230141 -0.35449448 -0.40279818
2.8617542 -0.36899647 -0.40206167
3.0204451 -0.37295333 -0.40113783
3.1860869 -0.38968325 -0.40025491
3.3678184 -0.40803823 -0.39928606
2.3591485 -0.29109323 -0.41120023
2.393764 -0.26796705 -0.40420878
2.4939253 -0.29816324 -0.40380526
2.6135004 -0.30939153 -0.40316254
2.7494597 -0.31051543 -0.40235656
2.8903329 -0.323248 -0.40159589
3.0437489 -0.33711436 -0.40076756
3.2114618 -0.35227278 -0.39986199
2.3423638 -0.24011065 -0.41313818
2.4100103 -0.23798284 -0.40391803
2.5228121 -0.24658731 -0.40329927
2.6445336 -0.25587192 -0.4026317
2.7762759 -0.26592067 -0.4019087
2.9193287 -0.27683172 -0.40112332
3.0752161 -0.28872159 -0.40026739
2.3448126 -0.17851105 -0.41204587
2.4318976 -0.19758616 -0.40352619
2.546272 -0.20469999 -0.40288851
2.6697512 -0.21238014 -0.40219998
2.8034694 -0.22069709 -0.40145439
2.948751 -0.22973263 -0.40064368
2.3473439 -0.11583996 -0.4218556
2.3533838 -0.13370776 -0.41044417
2.4596615 -0.14634533 -0.40302926
2.576046 -0.15153871 -0.40236703
2.688879 -0.17939197 -0.40187255
2.7017462 -0.15719968 -0.40165225
2.8310471 -0.17483115 -0.40099326
2.3486526 -0.082657769 -0.41828793
2.3779471 -0.091361746 -0.40316248
2.4878371 -0.094343476 -0.40252492
2.6062794 -0.097557157 -0.40183774
2.7212245 -0.12360645 -0.40131891
2.3503952 -0.038454246 -0.41353512
2.3939404 -0.060893606 -0.40287006
2.4100986 -0.030110743 -0.40257466
2.5107148 -0.052120008 -0.40211535
2.6308424 -0.053700957 -0.40140751
2.3525712 0.016730808 -0.40760154
2.4318662 0.01135972 -0.40217671
2.5338871 -0.0093518347 -0.40170059
2.3543098 0.060831469 -0.40285984
2.3624287 0.081709273 -0.40213737
2.4483628 0.042786852 -0.40187502
3.325532 -0.14956805 0.40954357
3.1292787 -0.05750037 0.40723383
3.2247925 -0.1023085 0.40835795
2.4463305 0.051920306 0.4021531
2.5089738 0.017981084 0.40295404
3.0385938 -0.01495768 0.40616652
2.3862784 0.084455959 0.40138531
2.8703175 0.063985169 0.40418604
2.9523809 0.025487008 0.40515187
2.3542809 0.13420765 0.40406358
2.7921107 0.10067406 0.4032656
2.356472 0.18972276 0.40949208
2.6462283 0.16911136 0.40154868
2.7174947 0.13567834 0.40238744
3.3262138 0.12199867 0.40574464
3.4320545 0.079950511 0.40688381
2.358222 0.23407888 0.41382933
2.512882 0.23166849 0.39997935
2.5780904 0.20107664 0.40074673
3.1309197 0.19958471 0.40364265
3.2259798 0.16181925 0.4046658
2.3701549 0.28194869 0.41162112
2.4504173 0.26097372 0.39924434
3.0406411 0.23545021 0.40267095
2.3714929 0.31898332 0.4153136
2.4772182 0.32769778 0.4071579
2.8730576 0.3020272 0.40086719
2.9547932 0.26955554 0.40174696
3.3229516 0.29679692 0.45216721
3.3243356 -0.70160604 0.41727304
3.2225635 -0.63899159 0.41586703
3.1261256 -0.57965869 0.41453472
3.0346131 -0.52335566 0.41327047
2.5010569 -0.4148998 0.40898007
2.9476564 -0.46985626 0.41206914
2.4380558 -0.37145847 0.4080441
2.8649254 -0.41895622 0.41092619
3.324913 -0.42408437 0.41338637
2.3371794 -0.29497024 0.40719756
2.3776815 -0.32982847 0.40714714
2.7109625 -0.32423145 0.40879914
2.7861183 -0.37047052 0.40983745
3.2236636 -0.36922875 0.41209182
2.3385088 -0.261287 0.41047281
2.6392107 -0.28008646 0.40780789
3.1276934 -0.31723318 0.41086483
2.3402796 -0.21641648 0.41483587
2.5706363 -0.23789629 0.40686053
3.0365999 -0.26787978 0.40970013
2.3420484 -0.17159487 0.41919419
2.4422107 -0.15888306 0.40508631
2.5050323 -0.19753385 0.40595418
2.9500196 -0.22097173 0.40859315
2.344521 -0.10946218 0.41961059
2.3819976 -0.12183724 0.40425444
2.7891223 -0.13379973 0.40653595
2.8676257 -0.17633194 0.40753967
2.3465495 -0.058589134 0.4189367
2.7142396 -0.093229249 0.40557852
2.3483117 -0.013945278 0.42328385
2.5743792 -0.017454652 0.4037903
2.6427329 -0.054487891 0.40466425
2.3500712 0.030650161 0.42762625
2.3518291 0.075197242 0.43196392
2.3540242 0.13081069 0.43737924
2.3562164 0.18635388 0.44278768
2.3579676 0.23073234 0.44710895
2.3597171 0.27506277 0.45142558
2.3614638 0.31934538 0.45573747
3.0553229 0.30841443 0.49350363
3.1843834 0.30281201 0.47356966
2.3207748 -0.70644718 0.41256347
2.6320708 -0.73738831 0.41418019
2.3221183 -0.67240781 0.41585469
2.5630512 -0.6846115 0.41308215
2.9452708 -0.72119945 0.41557953
2.3239081 -0.62706345 0.42023903
2.4970469 -0.63414061 0.41203207
2.8621988 -0.66391873 0.41434535
2.3261421 -0.57045525 0.42571244
2.433866 -0.58582836 0.4110269
2.7830858 -0.60936797 0.41317001
2.3285823 -0.50932586 0.42407694
2.3733296 -0.53953868 0.4100638
2.7076557 -0.55735636 0.41204938
2.3302462 -0.4675132 0.42435139
2.6356568 -0.50771081 0.41097975
2.3320267 -0.42239913 0.42871964
2.5668607 -0.46027336 0.40995771
2.3338053 -0.37733418 0.43308312
2.3360257 -0.32107463 0.4385305
2.3382437 -0.26488668 0.44397098
2.3400152 -0.21999343 0.44831786
2.341785 -0.17514892 0.45265996
2.3439944 -0.11916447 0.45808074
2.3462014 -0.063251041 0.46349463
2.3479648 -0.018576937 0.46782029
2.3496079 0.022714922 0.46806988
2.3515713 0.071769319 0.4653272
2.3537672 0.12741095 0.47072238
2.3559606 0.18298219 0.47611076
2.357275 0.21628883 0.47934029
3.0697918 0.16365932 0.53670377
2.3593781 0.27062601 0.49582273
2.3611262 0.31493834 0.50011325
2.8220611 0.31854013 0.52953166
2.9348235 0.31364521 0.51211518
2.320231 -0.71742374 0.4417865
2.3218431 -0.67622012 0.44954148
2.3236337 -0.6308524 0.4539094
2.3264952 -0.55870366 0.45707512
2.325243 -0.58972675 0.46164963
2.3281021 -0.51765019 0.46480837
2.3298857 -0.47245595 0.4691596
2.3316674 -0.42731091 0.47350609
2.3335369 -0.38099417 0.46664968
2.3357587 -0.32470599 0.47207674
2.3379776 -0.2684893 0.47749695
2.3397503 -0.22357309 0.48182756
3.0015185 -0.21916039 0.55025941
3.0525768 -0.25825414 0.55189717
2.9519482 -0.18120581 0.5486694
2.5740979 -0.081056558 0.54339725
2.6132503 -0.11352405 0.54474324
2.8570185 -0.10852057 0.54562455
2.9038014 -0.14434126 0.5471251
2.4987674 -0.018588029 0.54080766
2.5359497 -0.049421776 0.54208583
2.789428 -0.05676895 0.54345655
3.0872946 -0.065158717 0.54505932
3.1407156 -0.10269927 0.54665089
2.4448361 0.02613478 0.53895366
2.724292 -0.0068958458 0.54136729
3.0354609 -0.028733887 0.54351503
2.392663 0.069399819 0.5371601
2.6416574 0.056375202 0.53871673
2.6824212 0.025163535 0.54002428
2.9362814 0.040961869 0.54056025
2.9851451 0.0066242507 0.54201603
2.3554604 0.12026202 0.53771788
2.5632803 0.11638639 0.53620279
2.601958 0.086772293 0.5374434
2.8426666 0.10674725 0.53777117
2.8888083 0.07432247 0.53914589
2.3554468 0.1762293 0.54285306
2.5072138 0.15931527 0.53440446
2.797802 0.13827495 0.53643453
2.3572016 0.22067496 0.54712617
2.4180512 0.22758707 0.5315448
2.4530067 0.20082127 0.53266591
2.7116954 0.19878417 0.53386921
2.7541611 0.16894235 0.53513438
2.3590391 0.26618373 0.5402748
2.3607881 0.31052583 0.54454386
2.5234005 0.3315047 0.57566106
2.6169481 0.3274439 0.56121236
2.7163143 0.32313052 0.54586476
2.3202233 -0.71411026 0.47998971
2.321568 -0.68003595 0.48325631
2.322912 -0.64598632 0.48652053
2.8865826 -0.55124474 0.5617798
2.9346943 -0.59423047 0.56354553
3.17854 -0.5822953 0.56417626
2.5962937 -0.48617887 0.55815923
2.8398395 -0.50948161 0.56006426
3.1234584 -0.53661835 0.56228268
2.5572054 -0.44872096 0.55663294
2.7944067 -0.46888933 0.55839682
3.0700462 -0.4923259 0.56044656
2.4820089 -0.37666142 0.55369663
2.5191236 -0.41222739 0.55514592
2.7072594 -0.39102629 0.55519843
2.7502306 -0.42941955 0.55677551
2.9679363 -0.40765029 0.55693626
3.0182292 -0.44935596 0.55866528
2.335489 -0.32313961 0.5627653
2.4458268 -0.34198835 0.55228376
2.6654439 -0.35366601 0.55366373
2.9191015 -0.36715356 0.5552575
3.2153788 -0.38290739 0.55711907
3.2731118 -0.42711189 0.55897087
2.3372667 -0.27811322 0.56705719
2.3761203 -0.27518949 0.54956192
2.410542 -0.30817488 0.550906
2.5851007 -0.28188241 0.55071503
2.6247389 -0.31729776 0.5521698
2.8716624 -0.32781434 0.55362672
3.1594319 -0.34007055 0.55532455
2.3400693 -0.23219556 0.56023926
2.5464871 -0.24738298 0.54929787
2.7807384 -0.25241488 0.55050093
2.8255601 -0.28958359 0.55204183
3.1051905 -0.29853919 0.55358475
2.3409035 -0.18701865 0.5644322
2.4721818 -0.18099369 0.54657078
2.5088601 -0.21376452 0.54791689
2.7371449 -0.21626483 0.54900235
2.3431172 -0.13093917 0.56978536
2.4015305 -0.11786969 0.54397774
2.4364164 -0.14903882 0.54525816
2.6534467 -0.14685746 0.54612505
2.6947303 -0.1810921 0.54754424
2.3454685 -0.07199169 0.56864029
2.367492 -0.087457694 0.54272854
2.3471811 -0.029019283 0.56823224
2.3489454 0.01567425 0.57250464
2.3507078 0.060319237 0.57677239
2.3529074 0.11605482 0.58210033
2.3551044 0.17171985 0.58742148
2.3568599 0.21619551 0.59167302
2.3586137 0.26062292 0.59592003
2.3606722 0.31304094 0.60373861
2.4351766 0.33533445 0.58928764
3.4011919 0.30100325 0.66984618
2.3258536 -0.56409621 0.57390308
2.4920018 -0.57560915 0.56094205
2.3271952 -0.53011137 0.57712847
2.455394 -0.53813142 0.55942583
2.6776538 -0.56414557 0.56133616
2.3289819 -0.48483959 0.58142501
2.4022946 -0.48377109 0.55722654
2.6364293 -0.52464026 0.55972648
2.330946 -0.43543944 0.58232772
2.3405778 -0.44166645 0.57549173
2.3329518 -0.38506421 0.5823859
2.3350081 -0.33281049 0.58904958
2.3369997 -0.28172851 0.60070157
2.3387756 -0.23672821 0.60497236
2.3405504 -0.19177687 0.60923856
2.3427653 -0.13565925 0.61456442
2.3449776 -0.079612926 0.6198836
2.3467453 -0.034832764 0.62413353
2.348511 0.0098986793 0.62837881
2.3502748 0.054581419 0.63261944
2.3524768 0.11036407 0.63791364
2.3546758 0.16607608 0.64320099
2.3564329 0.21058922 0.64742559
2.3581882 0.25505409 0.6516456
2.3603792 0.31056491 0.65691388
3.122535 0.31256703 0.69679415
3.2568076 0.30699497 0.68380916
3.0544879 -1.3690557 0.59347576
3.259217 -1.35005 0.59370863
2.7787631 -1.2800688 0.58914137
3.0032868 -1.312772 0.59127575
3.2020934 -1.2910676 0.59138793
2.5416446 -1.2035415 0.58541381
2.7351499 -1.2291857 0.58716416
2.953583 -1.2581339 0.58914006
3.1467264 -1.2338995 0.58913851
2.3355539 -1.1370281 0.582174
2.505394 -1.1453491 0.58486992
2.5569823 -1.1357518 0.59380436
2.6927173 -1.1796811 0.58524054
2.9053106 -1.2050692 0.58706582
3.0930374 -1.1784632 0.58695734
2.6667826 -1.1395628 0.58494127
2.7222981 -1.141983 0.59299999
2.779701 -1.1444856 0.60133255
2.8584092 -1.1535116 0.58505052
2.9054275 -1.1488855 0.59210885
2.9692624 -1.151649 0.60088241
3.0354278 -1.1545135 0.60997647
3.1067343 -1.1570295 0.60526246
3.1808221 -1.1596442 0.60038006
3.2549932 -1.1628327 0.61000228
2.3254893 -0.56911492 0.61894602
2.3268316 -0.53510666 0.62215489
2.3286195 -0.48980382 0.6264295
2.3304067 -0.44455081 0.6306994
2.3328326 -0.38329372 0.63420641
2.3316548 -0.41187003 0.64514744
2.3348634 -0.33163416 0.64135373
2.336643 -0.28655395 0.64560735
2.3384206 -0.24152286 0.64985633
2.3401966 -0.19654106 0.65410066
2.3424132 -0.14038524 0.65939927
2.3446271 -0.084300801 0.66469121
2.346396 -0.039490297 0.66891932
2.3481631 0.0052714329 0.67314291
2.3499281 0.049984455 0.67736191
2.3521311 0.10580489 0.68262887
2.3543327 0.1615545 0.68788922
2.3560903 0.20609777 0.69209212
2.3578477 0.25059253 0.69629049
2.3600397 0.30614078 0.70153177
2.6679296 0.3314324 0.74075729
2.7707763 0.32716441 0.73081136
2.8803546 0.32261711 0.72021443
2.9973476 0.31776211 0.70890051
3.2337563 -1.8108989 0.60976797
2.978791 -1.7433105 0.60627568
3.1768653 -1.7445256 0.60718888
2.9293108 -1.6822147 0.60391432
2.7117944 -1.6274649 0.60103714
2.8812604 -1.622884 0.60162121
3.1217301 -1.6802003 0.60468936
2.3473716 -1.5357379 0.59621668
2.5191607 -1.5789781 0.59848911
2.6695724 -1.5724279 0.59892029
2.8345776 -1.5652423 0.59939337
3.0682693 -1.6178288 0.60226578
3.2756939 -1.6122222 0.60298067
2.3140826 -1.4876965 0.59438467
2.4453669 -1.4776599 0.5946095
2.481791 -1.52767 0.59652442
2.6284821 -1.5188656 0.59686023
2.7892051 -1.5092188 0.59722805
3.0164084 -1.5573241 0.59991473
3.217777 -1.5485553 0.60049206
2.2910757 -1.4355673 0.59475684
2.409852 -1.4288993 0.59274232
2.5884776 -1.4667194 0.59485453
2.7450895 -1.4547466 0.59512275
2.9660771 -1.4986032 0.59763306
3.1616573 -1.4868647 0.59808069
2.2929049 -1.3892406 0.59909618
2.3752141 -1.3813419 0.59092134
2.5495174 -1.4159336 0.59290123
2.7021782 -1.4017617 0.59307492
2.9172072 -1.4415884 0.59541756
3.1072536 -1.4270599 0.59574306
2.2947314 -1.3429652 0.60343069
2.3414204 -1.3349435 0.58914465
2.5115607 -1.3664563 0.59099829
2.6604228 -1.3502041 0.59108222
2.8697376 -1.3862065 0.59326553
2.3005176 -1.2943813 0.60097724
2.4745688 -1.3182369 0.58914363
2.6197779 -1.3000172 0.5891425
2.8236084 -1.3323886 0.5911743
2.2984753 -1.249194 0.60072148
2.403338 -1.2253857 0.58557242
2.4385061 -1.2712283 0.58733565
2.5801988 -1.2511466 0.58725369
2.3007505 -1.1915618 0.60612768
2.369031 -1.180666 0.58385247
2.3070614 -1.1363703 0.61202919
2.3576252 -1.1288323 0.60988343
2.4051311 -1.1304812 0.60605675
2.4522223 -1.1325701 0.61380196
2.5007861 -1.134724 0.62178934
2.5508919 -1.1369467 0.63003027
2.6088777 -1.1380303 0.60173815
2.6046994 -1.1388377 0.62628639
2.6603274 -1.1407924 0.6224041
2.7156539 -1.1432295 0.63107604
2.7728584 -1.1457494 0.64004236
2.8367374 -1.1475021 0.62308389
2.8981421 -1.1501883 0.63223428
2.961746 -1.1529707 0.64171231
3.0276666 -1.1558537 0.65153557
3.098707 -1.1583925 0.64763945
3.1725166 -1.1610281 0.64357537
3.2463987 -1.1642369 0.65401471
3.324713 -1.0763037 0.68861878
3.2913148 -1.0314052 0.68763214
3.0404539 -0.9604429 0.68507373
3.2263334 -0.94404858 0.6857124
3.2585266 -0.98732728 0.68666345
2.794981 -0.86039084 0.6820122
2.9838545 -0.87983686 0.68331921
3.0119119 -0.91979486 0.6841889
2.7703292 -0.82329208 0.68121189
2.956269 -0.84055066 0.68246412
2.4116066 -0.72829711 0.67767137
2.5701182 -0.75607103 0.67897701
2.7460675 -0.78678054 0.68042409
2.3924532 -0.69632477 0.67699212
2.5382025 -0.7054342 0.67789316
2.7221863 -0.75084215 0.67964864
2.3549476 -0.63371861 0.67566204
2.3735683 -0.66480166 0.67632234
2.5173438 -0.67233932 0.67718494
2.3289449 -0.58378208 0.66770053
2.326468 -0.54010844 0.66723764
2.3282571 -0.49477446 0.67149019
2.3300447 -0.44949019 0.6757381
2.3332584 -0.36913845 0.67190379
2.3320804 -0.39772105 0.68286866
2.3345056 -0.33649647 0.68633759
2.3362863 -0.29138538 0.69056916
2.3380651 -0.24632366 0.69479626
2.3398423 -0.20131114 0.69901872
2.3420608 -0.14511718 0.70428997
2.3442762 -0.088994563 0.70955461
2.3460464 -0.044153649 0.71376091
2.3478146 0.00063849968 0.71796268
2.3495812 0.045381822 0.72215986
2.3517859 0.10124002 0.72739965
2.3539884 0.15702735 0.73263282
2.3557482 0.20160064 0.73681408
2.357506 0.2461255 0.74099076
2.3597002 0.30171114 0.74620497
2.3940995 0.34279588 0.76723832
2.480093 0.33922729 0.75892222
2.5712128 0.33544597 0.75011039
3.0433624 -2.0596712 0.61766052
3.2500398 -2.0782371 0.61922038
2.9917312 -1.9923689 0.61507201
3.1923587 -2.0070148 0.61646771
2.9416273 -1.9270568 0.61256003
3.1364734 -1.9380103 0.6138007
2.8929822 -1.8636471 0.61012113
3.0823011 -1.8711206 0.61121547
2.6788702 -1.7982566 0.60688549
2.8457336 -1.8020579 0.60775232
3.0297647 -1.806251 0.60870826
2.6373255 -1.7412159 0.6047014
2.799823 -1.7422129 0.60545051
2.5968874 -1.6856958 0.60257542
2.7551944 -1.6840382 0.60321307
2.3814883 -1.5849733 0.59809434
2.5575128 -1.6316351 0.60050535
2.2875755 -1.5210258 0.621369
2.2889507 -1.4861916 0.62461752
2.2907827 -1.4397892 0.62894469
2.2926128 -1.3934381 0.63326716
2.2944405 -1.3471383 0.63758481
2.2962663 -1.3008898 0.64189768
2.2983441 -1.2480433 0.64912617
2.3005681 -1.1921353 0.64973921
2.3034027 -1.1398704 0.65705973
2.3485382 -1.130715 0.66648734
2.3976617 -1.1320084 0.65206528
2.4445531 -1.1341169 0.66050333
2.494874 -1.1359 0.65737259
2.361558 -1.0917305 0.68404222
2.3804963 -1.1265284 0.68477196
2.4983985 -1.1282711 0.68315965
2.5448163 -1.1381382 0.66616648
2.5984483 -1.1400455 0.66301584
2.648447 -1.1324924 0.67674172
2.7090256 -1.144472 0.66905272
2.7660296 -1.1470077 0.67864907
2.8150008 -1.1446003 0.6872927
2.8296902 -1.1487826 0.66242218
2.8908734 -1.1514858 0.6722489
2.9542441 -1.1542853 0.68242705
2.9793077 -1.1377848 0.68799716
3.0933638 -1.1592952 0.67580795
3.1642275 -1.1624045 0.68664187
3.3202238 -1.1680446 0.67979527
2.3428862 -1.0574217 0.68332279
2.4649065 -1.0480808 0.68376797
2.4852307 -1.0837061 0.68451977
2.6193113 -1.0750066 0.68503743
2.765172 -1.0655428 0.68560064
2.7898853 -1.1047522 0.68643981
2.9516401 -1.0961483 0.6870988
3.1291134 -1.0867078 0.68782187
3.1597233 -1.1303012 0.68877077
2.3164594 -1.0074834 0.68242234
2.4448771 -1.0129722 0.68302715
2.575259 -1.0014725 0.6834752
2.5971177 -1.0379596 0.68425035
2.7408519 -1.0269566 0.68477476
2.9244368 -1.0552094 0.68621558
3.0990412 -1.0438805 0.68688977
2.3102543 -0.94551736 0.68650144
2.4154074 -0.96131551 0.68193716
2.5537286 -0.96553278 0.6827116
2.7051344 -0.97028691 0.68356192
2.8713744 -0.97535563 0.68449265
2.8976851 -1.0149506 0.68534696
3.0694928 -1.0017984 0.68597382
2.3125148 -0.88825846 0.69183326
2.3770406 -0.89406401 0.68051803
2.5220704 -0.91268748 0.68158889
2.670157 -0.91479146 0.68237412
2.8454936 -0.93640733 0.68365234
2.3143213 -0.8425101 0.6960932
2.3489385 -0.84480464 0.67947853
2.4910319 -0.8608771 0.68048811
2.6473176 -0.87855488 0.68159848
2.8200331 -0.89809108 0.68282568
2.319891 -0.79725122 0.6895662
2.4607434 -0.81031835 0.67941397
2.6137528 -0.82530183 0.68045872
2.3180201 -0.74987632 0.69328213
2.4310358 -0.76072848 0.67836046
2.3198197 -0.70428658 0.69753367
2.3220668 -0.64737248 0.7028411
2.324311 -0.59053129 0.7081418
2.3261034 -0.54511631 0.71237689
2.3278942 -0.49975118 0.71660727
2.3296831 -0.45443591 0.72083312
2.3319161 -0.39786428 0.72610861
2.3341467 -0.34136486 0.73137748
2.3361073 -0.29205918 0.73218346
2.3353944 -0.3087143 0.74579823
2.3377092 -0.25113043 0.73979223
2.3394876 -0.20608722 0.74399275
2.3417075 -0.14985488 0.74923664
2.3439248 -0.093694128 0.75447387
2.3456964 -0.048822731 0.75865835
2.3474658 -0.0040002414 0.76283818
2.3492336 0.040773422 0.76701361
2.3514404 0.096669473 0.77222615
2.3536441 0.15249456 0.77743208
2.3554049 0.19709799 0.78159153
2.3571641 0.24165291 0.78574651
2.3592749 0.29616609 0.80212724
2.3610291 0.34062383 0.80626684
2.2871816 -1.5267177 0.66704053
2.2885582 -1.4918592 0.67027205
2.290391 -1.445424 0.67457664
2.2922223 -1.3990406 0.67887652
2.2940519 -1.3527085 0.68317163
2.2958791 -1.306428 0.68746191
2.2981603 -1.2486514 0.69281799
2.3004382 -1.1909494 0.69816709
2.3022585 -1.1448479 0.7024408
2.3040764 -1.0987971 0.7067098
2.3058927 -1.0527971 0.71097422
2.3077073 -1.0068481 0.7152338
2.3099718 -0.94948554 0.72055149
2.3122337 -0.89219654 0.72586232
2.3140411 -0.84642476 0.73010546
2.3158457 -0.80070293 0.73434401
2.3176491 -0.75503147 0.7385779
2.3194506 -0.70941037 0.74280709
2.3216987 -0.652457 0.74808681
2.3239448 -0.59557664 0.75335979
2.3257737 -0.54861128 0.76456887
2.3274395 -0.50598127 0.77308607
2.3292301 -0.46062705 0.77728426
2.3314657 -0.40400687 0.7825253
2.333698 -0.34745908 0.78775954
2.3354819 -0.30227864 0.7919417
2.3375311 -0.25178307 0.78143567
2.3369963 -0.26251227 0.8108027
2.3390436 -0.21206601 0.80029213
2.3412654 -0.15578574 0.8055017
2.3434851 -0.099577226 0.81070465
2.345258 -0.054667652 0.81486166
2.3470292 -0.0098070428 0.81901413
2.348963 0.039473213 0.82681614
2.3511393 0.094030917 0.82579058
2.3532131 0.14682037 0.83351225
2.3549759 0.19146149 0.83764452
2.3567362 0.23605406 0.84177208
2.358849 0.29061303 0.85813051
2.3606052 0.33510822 0.86224288
3.1925924 0.31689551 0.90869296
3.3324115 0.31136161 0.90328121
2.2867875 -1.5324168 0.71276993
2.2881649 -1.4975339 0.71598446
2.2899997 -1.4510664 0.72026646
2.291832 -1.4046503 0.72454369
2.293663 -1.3582858 0.72881621
2.2954912 -1.3119726 0.7330839
2.2978635 -1.2514433 0.74360496
2.2999578 -1.1977813 0.75513601
2.3017797 -1.1516393 0.75938165
2.3035994 -1.1055485 0.76362258
2.3054173 -1.0595087 0.7678588
2.3072336 -1.0135194 0.77209038
2.3095005 -0.95610732 0.77737296
2.311764 -0.89876878 0.78264874
2.3135731 -0.85295689 0.78686398
2.3153801 -0.8071959 0.79107463
2.3171849 -0.76148474 0.79528058
2.3189878 -0.71582419 0.79948181
2.321239 -0.65882194 0.80472672
2.3234859 -0.60189259 0.8099649
2.3251562 -0.55918205 0.81846946
2.3269844 -0.51222044 0.82964766
2.3287764 -0.46682724 0.8338179
2.3310139 -0.41015863 0.83902431
2.3332486 -0.35356233 0.84422392
2.3350344 -0.30834323 0.84837842
2.3368175 -0.26317367 0.85252833
2.3391333 -0.20558301 0.84642512
2.3384206 -0.22221024 0.86008984
2.3408234 -0.16172528 0.86184877
2.3430443 -0.10546882 0.86701721
2.3448193 -0.060521025 0.87114674
2.3465919 -0.015622321 0.8752718
2.348805 0.040429655 0.8804214
2.3510156 0.096410327 0.88556463
2.3527815 0.14113791 0.88967395
2.3545456 0.18581682 0.89377862
2.3563077 0.2304471 0.89787906
2.3585081 0.2861641 0.90299797
2.3602653 0.33068937 0.90708852
2.5265763 0.34325585 0.93447101
2.6207421 0.33952883 0.93082631
2.7208004 0.33556861 0.92695361
2.8273208 0.33135265 0.9228307
2.9409513 0.32685524 0.91843265
3.0624282 0.32204729 0.91373098
2.2863927 -1.5381235 0.75855744
2.2860966 -1.5424078 0.79293442
2.2876728 -1.504638 0.77320957
2.2895088 -1.4581292 0.7774632
2.2913432 -1.4116726 0.781712
2.2931757 -1.3652676 0.78595626
2.2951744 -1.3143473 0.79391456
2.2972913 -1.2610438 0.79548585
2.2994769 -1.2046232 0.81218922
2.3013003 -1.1584409 0.81640643
2.3031218 -1.1123097 0.82061911
2.3049409 -1.0662297 0.82482713
2.3067589 -1.0202007 0.82903051
2.3090281 -0.96273851 0.83427799
2.3112938 -0.90535045 0.83951879
2.3131044 -0.85949886 0.84370589
2.3149135 -0.81369829 0.84788853
2.3167198 -0.76794761 0.85206646
2.3185241 -0.72224778 0.8562398
2.3207769 -0.665196 0.86144972
2.3230269 -0.60821772 0.86665308
2.3248243 -0.56269348 0.87081033
2.3266203 -0.51721925 0.87496299
2.328413 -0.47179464 0.87911099
2.3306522 -0.4150871 0.8842895
2.3328888 -0.35845211 0.88946152
2.3346756 -0.31320187 0.89359373
2.3364599 -0.26800144 0.89772141
2.338243 -0.22285046 0.90184462
2.3414466 -0.14276701 0.89775944
2.3402729 -0.17122708 0.90883857
2.3426917 -0.11018894 0.91213286
2.3444676 -0.065210596 0.91624039
2.3462415 -0.020281309 0.92034328
2.3484566 0.035808772 0.92546546
2.3506684 0.09182743 0.93058109
2.3524356 0.13658538 0.93466836
2.3542008 0.18129458 0.93875116
2.3559647 0.22595502 0.94282967
2.3581665 0.2817097 0.94792122
2.3603644 0.33739373 0.95300609
2.4377968 0.34676966 0.9379071
2.2858 -1.5466965 0.82734782
2.2877381 -1.4986866 0.82010615
2.2869935 -1.5161074 0.83399063
2.2890179 -1.4652029 0.83474463
2.290854 -1.4187056 0.838965
2.2926881 -1.3722595 0.84318072
2.2949777 -1.3142776 0.84844351
2.2972646 -1.2563705 0.85369956
2.2990913 -1.2101046 0.85789895
2.3009162 -1.1638904 0.86209363
2.3027389 -1.1177269 0.86628366
2.3045602 -1.0716147 0.87046909
2.3063791 -1.0255537 0.87464994
2.3086498 -0.96805155 0.87986916
2.3109174 -0.91062349 0.88508177
2.3127294 -0.86474031 0.8892464
2.3145392 -0.81890774 0.89340633
2.3163471 -0.77312547 0.89756191
2.318604 -0.71597153 0.9027496
2.3208582 -0.65889102 0.90793055
2.322659 -0.61328524 0.91207004
2.3244581 -0.56772959 0.91620499
2.3262551 -0.52222419 0.92033529
2.3280492 -0.4767684 0.92446101
2.3302896 -0.42002174 0.9296115
2.3325276 -0.36334783 0.93475556
2.334316 -0.31806672 0.9388656
2.336102 -0.27283528 0.94297105
2.3378861 -0.22765343 0.94707215
2.3401136 -0.1712482 0.95219177
2.342871 -0.10247624 0.9470281
2.3421602 -0.11906118 0.96073043
2.3441153 -0.069905952 0.96139014
2.3458905 -0.024946047 0.96547109
2.3481073 0.03118212 0.9705655
2.3503206 0.087238885 0.97565365
2.3520892 0.13202719 0.97971892
2.3538561 0.17676666 0.98377973
2.3556209 0.22145736 0.98783618
2.3578238 0.27724981 0.99290025
2.360024 0.33297139 0.99795777
2.2854037 -1.5524212 0.87328088
2.2867851 -1.5174522 0.87643564
2.2891824 -1.4578155 0.8702085
2.2884381 -1.4752216 0.88411409
2.2904615 -1.42434 0.88483524
2.2922974 -1.3778617 0.88902813
2.294589 -1.3198389 0.89426249
2.2968771 -1.2618911 0.89949006
2.2987053 -1.2155931 0.90366662
2.3005316 -1.1693465 0.90783864
2.3023562 -1.1231511 0.91200602
2.3041782 -1.0770065 0.91616869
2.3064532 -1.0194005 0.9213655
2.3087251 -0.96186918 0.92655545
2.3105404 -0.91590315 0.93070215
2.3123531 -0.8699882 0.93484408
2.3141651 -0.82412356 0.93898171
2.315974 -0.77830988 0.94311464
2.318233 -0.72111654 0.94827414
2.3204885 -0.6639964 0.95342708
2.3222909 -0.61835921 0.95754409
2.3240907 -0.57277209 0.96165651
2.3258891 -0.52723533 0.96576458
2.3276854 -0.48174855 0.96986794
2.3299272 -0.42496255 0.97499043
2.3321669 -0.36824971 0.98010665
2.3339562 -0.32293773 0.98419422
2.3357439 -0.27767527 0.98827744
2.3375294 -0.23246239 0.99235618
2.3397582 -0.17601864 0.99744803
2.341984 -0.11964691 1.0025333
2.3442953 -0.062179226 0.99630439
2.3435853 -0.07874985 1.0100272
2.3455396 -0.029616665 1.010655
2.3478465 0.02926174 1.0208533
2.3498857 0.081494816 1.0320762
2.351656 0.12632114 1.036114
2.3534243 0.17109856 1.0401472
2.3551903 0.21582714 1.044176
2.3573959 0.27166674 1.0492057
2.3595977 0.32743546 1.0542288
2.2850077 -1.558153 0.91927248
2.2863898 -1.5231596 0.92240989
2.2882302 -1.4765447 0.92658913
2.290627 -1.4169383 0.9203189
2.2898831 -1.4343297 0.93424547
2.2920921 -1.3791286 0.93145281
2.2913492 -1.3964972 0.94537705
2.2941992 -1.3254071 0.94013953
2.2964892 -1.2674191 0.94533855
2.2983189 -1.2210885 0.94949234
2.3001471 -1.1748096 0.95364159
2.3019724 -1.1285816 0.9577862
2.3037958 -1.0824052 0.96192616
2.3060722 -1.0247591 0.96709448
2.3083463 -0.96718752 0.97225618
2.3101625 -0.92118949 0.97638011
2.3119774 -0.87524271 0.98049968
2.3137901 -0.82934642 0.98461449
2.3156006 -0.78350097 0.98872483
2.3178611 -0.72626781 0.99385625
2.3201182 -0.66910827 0.99898088
2.3219223 -0.62343949 1.0030754
2.3237236 -0.57782108 1.0071653
2.3255231 -0.53225279 1.0112509
2.3275354 -0.48065841 1.0227677
2.3296082 -0.4279972 1.0292078
2.3317149 -0.37438619 1.0368782
2.3335059 -0.32903516 1.0409379
2.335295 -0.28373393 1.0449932
2.3370821 -0.23848231 1.049044
2.339313 -0.18199031 1.0541009
2.3415413 -0.12557049 1.0591515
2.3433218 -0.080492295 1.0631868
2.3457201 -0.021876087 1.0455884
2.3449757 -0.03818091 1.0715435
2.3475327 0.025712812 1.0681238
2.3466113 0.0042198193 1.0859956
2.3494499 0.075742379 1.0885812
2.3512223 0.12060677 1.092591
2.3529918 0.1654222 1.0965966
2.3547597 0.21018872 1.1005976
2.3569672 0.26607561 1.1055928
2.3591712 0.32189152 1.1105814
2.3604069 0.35424048 1.1248471
2.3964756 0.35413805 1.1127639
2.4829993 0.35088032 1.1144556
2.5747085 0.34742734 1.1162486
2.6720836 0.343761 1.1181525
2.7756662 0.33986101 1.1201779
2.88607 0.33570412 1.1223365
3.0039914 0.33126423 1.124642
3.1302247 0.32651135 1.1271102
3.2656817 0.32141122 1.1297586
3.411411 0.31592429 1.1326079
2.2846107 -1.5638922 0.96532261
2.2859938 -1.5288743 0.96844274
2.2878358 -1.4822264 0.97259903
2.2896764 -1.4356307 0.97675073
2.2929895 -1.3528128 0.97251129
2.2917702 -1.3823917 0.98381805
2.2942677 -1.3193684 0.98710972
2.2961009 -1.2729537 0.99124521
2.2979319 -1.2265909 0.99537617
2.2997611 -1.1802795 0.99950254
2.3015881 -1.1340195 1.0036243
2.3034132 -1.0878106 1.0077417
2.3056915 -1.0301242 1.0128814
2.3079669 -0.97251254 1.0180146
2.3097844 -0.9264828 1.0221158
2.3115065 -0.88182044 1.037653
2.3133204 -0.83588445 1.0417393
2.3151326 -0.78999907 1.0458215
2.317395 -0.73271638 1.0509174
2.3196547 -0.67550749 1.0560068
2.3214602 -0.62979919 1.0600731
2.3232634 -0.58414137 1.0641348
2.3250649 -0.53853381 1.0681921
2.3271785 -0.48475307 1.0758506
2.329468 -0.42597163 1.0896971
2.3312624 -0.38053152 1.0937331
2.3330548 -0.33514157 1.0977646
2.3348455 -0.28980151 1.1017919
2.3366344 -0.24451119 1.1058146
2.3388674 -0.1879708 1.1108366
2.3410976 -0.13150272 1.1158522
2.34288 -0.086386062 1.1198596
2.3446593 -0.041318744 1.1238626
2.3468814 0.014943412 1.1288598
2.3492777 0.07526195 1.130408
2.3485696 0.05874908 1.1441792
2.3508737 0.11602867 1.1378385
2.3526452 0.1608745 1.1418217
2.3544145 0.2056714 1.1458008
2.3566236 0.2615962 1.1507682
2.3588293 0.31744987 1.1557292
2.3601511 0.35092553 1.1587023
2.2842133 -1.5696388 1.0114313
2.2855976 -1.534596 1.0145342
2.287441 -1.4879154 1.0186675
2.2892826 -1.4412868 1.0227962
2.2915816 -1.383077 1.0279503
2.2944341 -1.3119322 1.0226234
2.2936924 -1.3292798 1.0365889
2.2957454 -1.2770054 1.044317
2.2949615 -1.2942678 1.0706972
2.2974474 -1.233479 1.0528159
2.2992783 -1.1871271 1.0569136
2.3011072 -1.1408263 1.0610069
2.3029342 -1.0945773 1.0650954
2.3052144 -1.0368408 1.0701996
2.3074918 -0.97917885 1.075297
2.3093114 -0.93310881 1.07937
2.3110349 -0.88840806 1.0948905
2.3128505 -0.84243214 1.0989486
2.3146646 -0.79650694 1.1030022
2.3169293 -0.7391746 1.1080627
2.3191907 -0.68191606 1.1131166
2.320998 -0.63616836 1.1171545
2.322803 -0.59047103 1.121188
2.3246057 -0.54482412 1.1252171
2.3268566 -0.48783866 1.130247
2.3291047 -0.43092668 1.1352704
2.3308997 -0.38545507 1.1392835
2.3326938 -0.34003398 1.1432927
2.3344858 -0.29466271 1.1472974
2.3367229 -0.23802134 1.1522968
2.3389568 -0.18145256 1.1572899
2.3407421 -0.13625541 1.1612791
2.3425255 -0.09110789 1.1652641
2.3443067 -0.046009853 1.1692446
2.3465304 0.010290688 1.1742141
2.3487515 0.066519313 1.179177
2.3507025 0.1155694 1.1796945
2.3499954 0.099070981 1.1934861
2.3522985 0.15632115 1.1871034
2.354069 0.20114847 1.1910601
2.3562791 0.25711122 1.1959997
2.3584869 0.31300274 1.200933
2.3598099 0.34650105 1.2038896
2.283716 -1.5768324 1.0691531
2.2851009 -1.5417588 1.0722342
2.2869465 -1.4950368 1.0763386
2.2887897 -1.4483675 1.0804384
2.2910912 -1.3901064 1.0855565
2.2933893 -1.3319212 1.0906677
2.2951281 -1.2868217 1.1062672
2.2970598 -1.2389965 1.0988259
2.2968655 -1.241758 1.1218554
2.2987952 -1.1939847 1.1144097
2.3006256 -1.1476438 1.1184741
2.3027091 -1.0946875 1.1254412
2.3049381 -1.0386767 1.1257091
2.3070157 -0.9858548 1.1326642
2.3088374 -0.93974471 1.1367084
2.310657 -0.89368576 1.1407483
2.312474 -0.84767801 1.1447835
2.3142898 -0.80172098 1.1488142
2.3165555 -0.74434865 1.1538463
2.318819 -0.68705052 1.1588717
2.320627 -0.641271 1.162887
2.3224337 -0.59554207 1.1668977
2.3242378 -0.54986358 1.1709042
2.3264909 -0.49283898 1.1759056
2.3287401 -0.43588766 1.1809007
2.3305371 -0.39038491 1.1848915
2.3323319 -0.34493229 1.1888778
2.3341253 -0.29953 1.19286
2.336364 -0.2428498 1.1978313
2.3386002 -0.18624213 1.2027961
2.3403866 -0.14101413 1.206763
2.3421712 -0.095835693 1.2107255
2.3439534 -0.0507068 1.2146837
2.3461785 0.0056322077 1.2196251
2.3484018 0.061899088 1.22456
2.3501775 0.10685521 1.228503
2.3520381 0.15290256 1.2211001
2.3518641 0.15062164 1.2437834
2.3537228 0.19661988 1.236376
2.3559349 0.25262064 1.2412877
2.3581443 0.30855003 1.2461932
2.359468 0.34207106 1.2491331
2.2832174 -1.5840369 1.1269606
2.2846038 -1.5489322 1.13002
2.2864511 -1.5021695 1.1340953
2.2887573 -1.443792 1.1391832
2.2910602 -1.3854904 1.144264
2.2929003 -1.3389099 1.1483234
2.2947383 -1.292381 1.1523784
2.2965736 -1.2459041 1.1564288
2.2989628 -1.1865067 1.1499635
2.298223 -1.2038033 1.1639785
2.30024 -1.1531056 1.1645161
2.3025267 -1.0952139 1.1695614
2.3048103 -1.0373971 1.1746001
2.3066351 -0.99120355 1.1786258
2.3084579 -0.94506127 1.1826469
2.3102784 -0.89897031 1.1866637
2.3120971 -0.85293037 1.1906762
2.3143675 -0.79545474 1.1956853
2.3166349 -0.7380532 1.2006876
2.3184466 -0.69219148 1.2046845
2.320256 -0.64638025 1.2086769
2.3220642 -0.60061961 1.212665
2.3238699 -0.55490965 1.2166487
2.3261242 -0.49784562 1.2216219
2.3283751 -0.44085497 1.2265885
2.330174 -0.39532107 1.2305567
2.3319695 -0.34983695 1.2345203
2.3337646 -0.30440339 1.2384799
2.336005 -0.24768424 1.243423
2.3382423 -0.19103777 1.2483596
2.34003 -0.1457787 1.2523038
2.3418159 -0.10056935 1.2562438
2.3435998 -0.055409633 1.2601795
2.3458266 0.0009678402 1.2650927
2.3480515 0.057273135 1.2699999
2.349741 0.10110987 1.2852865
2.351516 0.146055 1.2891971
2.3539062 0.20443393 1.2713773
2.3531663 0.18825431 1.2974488
2.3556359 0.25008237 1.2953862
2.3544455 0.22233412 1.3187321
2.3577154 0.30297604 1.3028508
2.3594816 0.34770051 1.3067421
2.4404447 0.35832596 1.2902182
2.5297866 0.35513508 1.2971927
2.6245797 0.35174951 1.3045928
2.7253377 0.34815094 1.3124586
2.8326433 0.34431848 1.3208356
2.9471552 0.34022865 1.3297751
3.0696247 0.33585462 1.3393358
3.2009113 0.3311657 1.3495847
3.3420019 0.32612661 1.3605992
2.2828181 -1.5898092 1.1732757
2.2842057 -1.5546796 1.1763176
2.2860544 -1.5078837 1.1803696
2.2883623 -1.4494652 1.1854281
2.2906666 -1.3911223 1.1904801
2.2925084 -1.344509 1.1945164
2.2943475 -1.2979478 1.1985481
2.296185 -1.2514383 1.2025754
2.2980201 -1.2049804 1.2065983
2.3004079 -1.1456133 1.2000897
2.2996683 -1.1628947 1.2141256
2.3021417 -1.1006421 1.215633
2.3044274 -1.042785 1.2206429
2.3062534 -0.99655932 1.2246456
2.3080776 -0.95038456 1.2286438
2.3098996 -0.90426141 1.2326376
2.3117197 -0.85818946 1.2366271
2.313992 -0.80067402 1.2416074
2.3162608 -0.74323249 1.2465813
2.3180737 -0.6973387 1.2505553
2.3198848 -0.65149587 1.2545248
2.3216941 -0.60570359 1.2584901
2.3235009 -0.55996186 1.2624508
2.325757 -0.50285846 1.2673955
2.3280098 -0.44582856 1.2723339
2.3298099 -0.40026313 1.2762796
2.3316071 -0.35474783 1.2802204
2.3334031 -0.30928296 1.284157
2.3355553 -0.2537362 1.3004961
2.3377948 -0.19704106 1.3053973
2.3395841 -0.15174325 1.3093134
2.3413718 -0.10649519 1.3132253
2.3431571 -0.061296742 1.3171324
2.3453865 -0.0048711575 1.3220105
2.3476124 0.051482271 1.3268824
2.3493035 0.095356144 1.3421527
2.3510807 0.14033954 1.3460354
2.3528559 0.18527366 1.3499137
2.3560441 0.26491469 1.345329
2.3548772 0.23666061 1.3566407
2.3572857 0.29739398 1.359591
2.3590534 0.34215632 1.3634543
2.2824185 -1.595589 1.2196498
2.2838068 -1.5604343 1.2226743
2.2859147 -1.5068725 1.2296239
2.2881711 -1.450186 1.2298173
2.2902732 -1.3967615 1.2367551
2.2921159 -1.3501155 1.2407683
2.293957 -1.3035213 1.244777
2.2957954 -1.2569791 1.248781
2.297632 -1.2104886 1.2527804
2.2994664 -1.1640501 1.2567757
2.3023992 -1.0901746 1.2592455
2.3011143 -1.12198 1.2642807
2.304044 -1.0481796 1.2667441
2.3058717 -1.0019215 1.2707238
2.3076971 -0.95571476 1.2746989
2.30952 -0.90955937 1.2786697
2.3113415 -0.86345494 1.2826362
2.3136158 -0.80589962 1.2875879
2.3158863 -0.74841827 1.2925329
2.3177006 -0.70249265 1.2964842
2.3195131 -0.65661794 1.3004308
2.321358 -0.60926706 1.3114591
2.3230395 -0.56628656 1.319788
2.3252974 -0.5091337 1.3246969
2.3275521 -0.45205444 1.3295996
2.3293543 -0.40644994 1.3335167
2.3311534 -0.36089554 1.3374293
2.3329504 -0.31539127 1.3413376
2.3351047 -0.25979692 1.3576527
2.3373463 -0.20305316 1.3625185
2.3391378 -0.15771647 1.3664062
2.3409269 -0.11242963 1.3702898
2.3427138 -0.067192517 1.3741689
2.3449447 -0.010718632 1.3790115
2.3471732 0.045682918 1.3838481
2.348954 0.09074638 1.3877124
2.3507316 0.13576049 1.3915725
2.3525081 0.18072525 1.3954282
2.3547261 0.23685937 1.4002417
2.3574698 0.30524296 1.3946397
2.3567648 0.28881478 1.408519
2.3587105 0.33771455 1.4088901
2.2820182 -1.6013757 1.2660832
2.2834079 -1.5661964 1.2690901
2.2857218 -1.5076295 1.2740959
2.2880325 -1.4491391 1.2790949
2.2898788 -1.4024081 1.2830893
2.291723 -1.355729 1.2870791
2.2935653 -1.3091019 1.2910643
2.2954051 -1.262527 1.2950451
2.2972431 -1.2160041 1.2990215
2.2993352 -1.1628418 1.3059001
2.3015738 -1.1066077 1.3060368
2.3042135 -1.0406526 1.3023477
2.3034756 -1.0578905 1.3164226
2.3054891 -1.0072906 1.3168604
2.3073158 -0.96105158 1.3208123
2.3091404 -0.914864 1.3247601
2.3108683 -0.87004703 1.3402324
2.3131452 -0.81244147 1.3451482
2.3154173 -0.75490999 1.3500572
2.3172336 -0.7089445 1.3539796
2.3190477 -0.66303009 1.3578976
2.3207316 -0.61996752 1.3662131
2.3225775 -0.57262057 1.3772095
2.3248372 -0.51541817 1.3820828
2.3270941 -0.45828965 1.3869495
2.3288977 -0.41264573 1.3908381
2.3306992 -0.3670522 1.3947223
2.3324978 -0.32150874 1.3986019
2.3347437 -0.26465279 1.4034454
2.3369873 -0.20787001 1.4082829
2.3387799 -0.16250212 1.4121476
2.3405702 -0.11718418 1.4160085
2.3423586 -0.071916044 1.4198647
2.3445911 -0.015403451 1.4246789
2.3468211 0.041036658 1.4294873
2.3486028 0.086130962 1.4333289
2.3503826 0.13117573 1.4371663
2.3521602 0.17617115 1.4409995
2.3543794 0.23234351 1.4457849
2.3565962 0.28844407 1.4505641
2.3583667 0.33326724 1.4543828
2.3792419 0.36567307 1.4652627
2.4859366 0.36265889 1.4738189
2.5782433 0.35954165 1.4864501
2.2816174 -1.6071702 1.3125761
2.2830081 -1.5719658 1.3155652
2.2853239 -1.5133575 1.3205417
2.2876363 -1.4548259 1.3255117
2.2894843 -1.4080616 1.3294824
2.2913296 -1.3613497 1.3334488
2.2931728 -1.3146898 1.3374107
2.2950146 -1.268082 1.3413683
2.2968543 -1.2215264 1.3453212
2.2992399 -1.1606749 1.3554996
2.301347 -1.1067255 1.3667573
2.3031795 -1.0603428 1.3706893
2.3056588 -0.99974942 1.3524837
2.3048806 -1.0168645 1.3790433
2.3069685 -0.96488422 1.3741132
2.306191 -0.98197478 1.400673
2.3086653 -0.9215045 1.3824586
2.3103943 -0.87664884 1.3979142
2.3126726 -0.81899285 1.4027935
2.3149478 -0.76141149 1.4076667
2.316766 -0.71540594 1.4115601
2.3185811 -0.66945148 1.4154494
2.320395 -0.62354791 1.4193341
2.322207 -0.57769513 1.4232147
2.3244684 -0.52045316 1.428059
2.3267272 -0.46328515 1.4328972
2.328532 -0.41760969 1.4367627
2.3303344 -0.37198451 1.4406239
2.3321352 -0.32640991 1.4444809
2.334383 -0.26951465 1.4492955
2.3366277 -0.2126928 1.4541045
2.3384216 -0.16729377 1.4579465
2.3402135 -0.12194468 1.4617845
2.3420033 -0.076645523 1.4656181
2.3442373 -0.02009418 1.4704039
2.3464687 0.036384545 1.4751838
2.3482521 0.081509657 1.4790027
2.3500328 0.12658522 1.4828174
2.3518119 0.17161134 1.4866281
2.3540328 0.22782196 1.491385
2.3562508 0.28396073 1.4961362
2.3580229 0.32881439 1.4999322
2.3593504 0.36242393 1.5027764
2.6762853 0.35623071 1.4998659
2.7806141 0.35270751 1.514142
2.8918552 0.34895083 1.5293641
3.0107188 0.34493673 1.5456293
3.1380153 0.34063789 1.5630484
2.2812159 -1.6129719 1.3591285
2.2828665 -1.5709897 1.3650212
2.2851305 -1.514116 1.3651152
2.2872396 -1.4605198 1.3719878
2.2890887 -1.4137225 1.375935
2.290837 -1.368386 1.3914975
2.2926824 -1.321685 1.3954301
2.2945254 -1.2750362 1.3993585
2.2963669 -1.2284396 1.4032822
2.2985263 -1.1735181 1.4108332
2.300864 -1.1135383 1.4246577
2.3026984 -1.0671148 1.4285604
2.3045304 -1.0207433 1.4324585
2.306361 -0.97442359 1.4363528
2.308373 -0.92385697 1.4367104
2.307637 -0.94104898 1.4508386
2.3102701 -0.87527531 1.4470214
2.3124955 -0.81936508 1.4470547
2.3145716 -0.76662016 1.4538223
2.316391 -0.72058284 1.4576927
2.3182075 -0.67459625 1.4615586
2.3200228 -0.62866086 1.4654205
2.3220892 -0.57615292 1.4721597
2.3242986 -0.52066165 1.4721748
2.3263602 -0.46828702 1.4789028
2.328166 -0.42257985 1.4827452
2.3299699 -0.37692326 1.4865836
2.3317723 -0.33131719 1.4904175
2.3340213 -0.27438265 1.4952039
2.3362677 -0.21752168 1.499984
2.3380632 -0.17209142 1.5038031
2.3398559 -0.12671116 1.5076182
2.3416469 -0.081380926 1.5114291
2.343883 -0.024790818 1.5161864
2.3461163 0.031726599 1.5209377
2.3479002 0.076882571 1.524734
2.3496828 0.12198894 1.5285258
2.3514631 0.1670458 1.5323137
2.3537316 0.22525734 1.5458474
2.3558187 0.27834836 1.5531843
2.3575928 0.3232401 1.556952
2.3589218 0.35687819 1.5597751
3.2746758 0.33602279 1.5817488
2.2808139 -1.618781 1.4057405
2.2825711 -1.5732297 1.4213376
2.2848904 -1.5145391 1.4262471
2.2867429 -1.4676476 1.4301692
2.2885935 -1.4208091 1.4340872
2.290344 -1.3754327 1.4496325
2.292191 -1.3286906 1.453536
2.2940357 -1.2820005 1.4574348
2.2958786 -1.2353631 1.4613292
2.2981794 -1.1771418 1.4661912
2.3004768 -1.1189963 1.4710468
2.3023129 -1.0725404 1.474926
2.3041465 -1.0261365 1.4788009
2.3059781 -0.97978395 1.4826716
2.3078074 -0.93348324 1.4865381
2.3107319 -0.85983777 1.4887931
2.3094511 -0.89152688 1.4939363
2.3123724 -0.81795639 1.4961852
2.3141947 -0.77183557 1.5000367
2.3160155 -0.72576612 1.5038837
2.3178337 -0.67974764 1.5077264
2.3196507 -0.6337803 1.5115652
2.3219182 -0.57639533 1.5163571
2.3241827 -0.51908457 1.5211428
2.3259916 -0.47329512 1.5249667
2.3277996 -0.42755637 1.5287861
2.3296051 -0.38186824 1.5326012
2.3314085 -0.33623064 1.5364124
2.3336592 -0.279257 1.5411699
2.3359072 -0.2223566 1.5459208
2.3377035 -0.17689507 1.5497174
2.3394983 -0.13148369 1.5535095
2.3412905 -0.086122259 1.5572975
2.3434391 -0.030670224 1.5734982
2.3456745 0.025895633 1.5782139
2.3474605 0.071090251 1.5819815
2.3492444 0.11623518 1.585745
2.3510261 0.16133052 1.5895044
2.3530738 0.21376528 1.6004649
2.3553858 0.27272776 1.6103159
2.3571618 0.31765771 1.6140553
2.3587582 0.35843119 1.6212866
2.2804933 -1.6208972 1.47042
2.2822757 -1.5754687 1.4777271
2.2843909 -1.5217192 1.4845451
2.2862456 -1.4747864 1.4884378
2.2880983 -1.4279065 1.4923263
2.2899487 -1.3810788 1.4962101
2.2917974 -1.3343035 1.5000898
2.2936435 -1.2875806 1.5039653
2.2959487 -1.2292532 1.508803
2.2982502 -1.1710018 1.5136344
2.3000896 -1.1244614 1.5174949
2.3019266 -1.0779728 1.5213507
2.3037617 -1.0315363 1.5252022
2.3055949 -0.98515147 1.5290495
2.307426 -0.93881834 1.5328925
2.3097112 -0.88097703 1.5376902
2.3121777 -0.81892371 1.5389397
2.3114429 -0.83607185 1.5531067
2.3138177 -0.77705765 1.5463094
2.3156393 -0.7309559 1.5501332
2.3174589 -0.68490541 1.5539529
2.319277 -0.63890606 1.5577681
2.3215468 -0.58148134 1.5625312
2.323813 -0.52413076 1.567288
2.3256238 -0.47830969 1.5710888
2.3274326 -0.43253919 1.5748849
2.3292394 -0.38681951 1.5786771
2.3310437 -0.34115016 1.5824649
2.3332059 -0.28535867 1.5987117
2.3354559 -0.22840922 1.6034272
2.3372538 -0.18290854 1.6071945
2.3390498 -0.13745801 1.6109579
2.3408442 -0.09205769 1.6147174
2.3429952 -0.036558263 1.6308943
2.3452322 0.020056104 1.6355741
2.3470197 0.065289453 1.6393131
2.3488052 0.11047302 1.643048
2.3505888 0.1556069 1.6467788
2.3528156 0.21195188 1.6514364
2.3550391 0.26822472 1.6560878
2.3568163 0.31318527 1.6598046
2.3585908 0.3580966 1.6635166
2.4431207 0.37000525 1.6462797
2.5330322 0.36714455 1.663891
2.6284602 0.36410829 1.6825826
2.7299283 0.3608799 1.7024572
2.280273 -1.6215621 1.5235021
2.2821331 -1.5744907 1.5273798
2.2839913 -1.5274719 1.5312532
2.2858474 -1.4805058 1.5351224
2.2877011 -1.4335924 1.538987
2.2895529 -1.3867319 1.5428473
2.2914028 -1.3399235 1.5467033
2.2932503 -1.2931676 1.5505551
2.2955575 -1.234799 1.5553634
2.2978611 -1.1765068 1.5601655
2.2997017 -1.1299335 1.564002
2.3015399 -1.0834124 1.5678346
2.3033764 -1.0369431 1.5716627
2.3052108 -0.99052578 1.5754864
2.3070433 -0.94415992 1.5793061
2.3093305 -0.88627833 1.5840743
2.3116152 -0.8284716 1.5888364
2.3136237 -0.77800316 1.589094
2.3128893 -0.79513621 1.6032821
2.3152633 -0.73615241 1.5964415
2.3170843 -0.69006979 1.6002377
2.3189037 -0.64403856 1.6040299
2.3211744 -0.58657372 1.6087638
2.3233502 -0.5304479 1.6250548
2.3251629 -0.48458695 1.6288264
2.3269732 -0.43877691 1.6325936
2.3287814 -0.39301741 1.6363566
2.3305879 -0.3473089 1.640116
2.332752 -0.29146934 1.6563387
2.3350039 -0.2344708 1.6610179
2.3368034 -0.18893082 1.6647563
2.3386014 -0.14344123 1.6684911
2.3403969 -0.0980018 1.6722214
2.342639 -0.041275591 1.6768785
2.344878 0.015377644 1.6815296
2.3466666 0.060642011 1.6852456
2.3484533 0.10585652 1.6889576
2.3502386 0.15102126 1.6926655
2.3524666 0.20740476 1.6972946
2.3546922 0.26371598 1.7019174
2.3564703 0.30870724 1.7056113
2.3582461 0.35364917 1.7093006
2.8380299 0.35744041 1.7236314
2.9534357 0.35376853 1.7462361
2.2798693 -1.627389 1.5703177
2.2817314 -1.5802841 1.5741718
2.2835906 -1.533232 1.5780213
2.2854481 -1.4862328 1.5818664
2.2873037 -1.4392861 1.5857074
2.2891569 -1.3923923 1.5895439
2.291008 -1.3455507 1.5933764
2.2928572 -1.298762 1.5972044
2.2951658 -1.240352 1.6019832
2.2974713 -1.1820185 1.6067559
2.2993126 -1.1354125 1.6105688
2.3011529 -1.0888587 1.6143777
2.3029907 -1.0423568 1.6181824
2.3048265 -0.99590689 1.6219826
2.3066599 -0.94950849 1.6257787
2.3089495 -0.89158636 1.6305175
2.3112354 -0.83373922 1.6352502
2.3130622 -0.78752166 1.6390316
2.3149807 -0.74005401 1.6312095
2.3147922 -0.74265712 1.6544077
2.3167088 -0.6952408 1.6465815
2.3185298 -0.64917737 1.6503501
2.3208025 -0.59167272 1.6550552
2.3229795 -0.53550792 1.6713265
2.3247931 -0.48961514 1.6750749
2.3266046 -0.44377333 1.6788189
2.3284149 -0.39798224 1.6825589
2.3302226 -0.35224199 1.6862947
2.3324792 -0.29514036 1.6909583
2.3347328 -0.23811236 1.6956159
2.3365328 -0.19254875 1.699337
2.3383315 -0.14703561 1.7030543
2.3401287 -0.10157277 1.7067673
2.3423717 -0.044817299 1.7114029
2.3446119 0.011865111 1.7160325
2.3464017 0.057152733 1.7197312
2.3481894 0.1023905 1.723426
2.3499753 0.14757845 1.7271166
2.3522048 0.20399091 1.7317239
2.3544319 0.26033092 1.7363256
2.3562107 0.30534524 1.740002
2.3579874 0.35031009 1.7436745
3.0769141 0.34983981 1.7704221
3.2093408 0.34562635 1.7963605
3.3517253 0.34109607 1.8242497
2.5818172 0.37179115 1.8607824
2.6805351 0.36884391 1.8859718
2.7856205 0.36570659 1.9127862
2.897711 0.36236009 1.9413881
3.0175312 0.35878283 1.9719622
3.1459084 0.35495016 2.0047197
3.2837937 0.35083356 2.0399036
2.2804759 -1.3505266 -1.1299919
2.2828789 -1.3070709 -1.1265545
2.2858827 -1.2527539 -1.1222581
2.2882857 -1.2093022 -1.1188209
2.2912896 -1.1549902 -1.1145251
2.2942927 -1.1006809 -1.110229
2.2966952 -1.0572352 -1.1067927
2.2996986 -1.0029312 -1.1024971
2.3027015 -0.94862968 -1.0982021
2.3051038 -0.90519053 -1.0947658
2.3075061 -0.86175311 -1.0913302
2.3105085 -0.80745882 -1.0870354
2.3135109 -0.75316745 -1.0827411
2.3159127 -0.70973635 -1.0793056
2.3189149 -0.65544987 -1.0750117
2.3219166 -0.60116613 -1.0707178
2.3243182 -0.55774122 -1.0672827
2.3267195 -0.51431805 -1.063848
2.329721 -0.46004188 -1.0595548
2.3327227 -0.40576801 -1.0552619
2.3351238 -0.36235115 -1.0518277
