# .PCD v0.7 - Point Cloud Data file format
VERSION 0.7
FIELDS x y z
SIZE 4 4 4
TYPE F F F
COUNT 1 1 1
WIDTH 1506
HEIGHT 1
VIEWPOINT 0 0 0 1 0 0 0
POINTS 1506
DATA ascii
2.5077806 2.0442359 -0.37638542
2.6019392 2.0696983 -0.37856534
2.7030923 2.0970485 -0.38090727
2.8140836 2.115001 -0.38331249
2.9339557 2.1343904 -0.38591009
3.0638187 2.1553953 -0.3887243
3.2027206 2.1912444 -0.39191696
3.3542886 2.230365 -0.3954007
3.5227757 2.2589536 -0.39907134
3.7081223 2.2904034 -0.40310964
2.3254969 2.0657654 -0.3731313
2.409122 2.0802853 -0.37495697
2.4985168 2.0958068 -0.37690869
2.5923882 2.1231258 -0.37910843
2.6952081 2.1413865 -0.3813588
2.8059413 2.1610525 -0.38378239
2.9255383 2.1822929 -0.38639998
3.0551078 2.2053046 -0.38923568
3.1959519 2.2303188 -0.39231828
3.347266 2.2712326 -0.39582163
3.5130422 2.3160605 -0.39965981
3.6979969 2.3503838 -0.4037292
2.3167496 2.1140354 -0.37361965
2.4001193 2.1301718 -0.37546247
2.4892445 2.1474218 -0.37743253
2.5847406 2.1659055 -0.37954327
2.6873176 2.1857595 -0.38181072
2.7977927 2.2071419 -0.38425261
2.917114 2.2302368 -0.38689011
3.0463896 2.2552581 -0.38974768
3.1869187 2.2824578 -0.39285392
3.3402379 2.3121331 -0.39624298
3.5057414 2.3589299 -0.40010267
3.6903965 2.3954093 -0.40419433
2.3114972 2.1430168 -0.37391284
2.3929119 2.1701136 -0.3758671
2.4818201 2.1887491 -0.37785178
2.5770879 2.2087176 -0.37997854
2.6794212 2.2301672 -0.382263
2.7896373 2.253269 -0.38472328
2.9086828 2.2782211 -0.38738078
3.0376637 2.3052559 -0.39026001
3.1778777 2.3346453 -0.39339003
3.3308592 2.3667109 -0.39680511
3.498435 2.4018354 -0.40054587
3.6853318 2.4254501 -0.40450564
3.6802642 2.455507 -0.40481719
2.5713441 2.2408473 -0.3803052
2.6715183 2.27461 -0.38271552
2.7814751 2.2994335 -0.38519433
2.900244 2.3262465 -0.38787177
3.0289299 2.3552983 -0.39077288
3.1688285 2.3868811 -0.39392668
3.3214715 2.4213417 -0.39736778
3.4886842 2.4590912 -0.40113732
3.672657 2.5006242 -0.4052847
2.8939109 2.3622909 -0.38824034
3.0223749 2.3928573 -0.39115772
3.1597707 2.4391654 -0.39446369
3.3144257 2.4623475 -0.39779007
3.4813654 2.502069 -0.40158132
4.1997437 -0.90892041 -0.24591775
4.0146265 -0.89793915 -0.22031198
4.1049328 -0.90329623 -0.23280333
4.2132816 -0.85988355 -0.22030723
4.3138976 -0.86457014 -0.23351744
3.8462989 -0.88795388 -0.19702864
3.9340558 -0.86998379 -0.19638748
4.0264707 -0.851183 -0.19578008
4.1175904 -0.85542685 -0.20774359
4.2269855 -0.81026167 -0.19439095
4.3285728 -0.81369168 -0.20701124
3.7774825 -0.83958662 -0.16308945
3.8566937 -0.84327543 -0.17348947
3.9508212 -0.80093694 -0.1600827
4.0384536 -0.80389571 -0.1709694
4.1303992 -0.80700046 -0.18239194
4.1433601 -0.75800598 -0.15674287
4.2408566 -0.76004332 -0.16816303
4.3434324 -0.76218665 -0.18017805
3.7063477 -0.81444788 -0.14171436
3.7873378 -0.79541618 -0.13977297
3.8672063 -0.79811317 -0.14969513
3.9621658 -0.75421959 -0.13551901
4.0505748 -0.75606698 -0.14587459
4.2548947 -0.70921654 -0.14161749
4.3584752 -0.71004111 -0.15301146
4.1564736 -0.70843309 -0.13079107
3.5678561 -0.78800541 -0.11250649
3.6378791 -0.79036981 -0.12120553
3.7203135 -0.74916613 -0.10718998
3.7972989 -0.75077486 -0.11620753
3.8778329 -0.75245744 -0.12564078
3.8885763 -0.70630038 -0.1013222
3.9736388 -0.70697749 -0.11067911
4.0628347 -0.70768756 -0.12049074
4.1697421 -0.65827155 -0.10453106
4.2691045 -0.65777087 -0.11474872
3.4608202 -0.74952942 -0.076630674
3.5084474 -0.74473917 -0.082373351
3.5760894 -0.74615264 -0.090296455
3.646647 -0.74762702 -0.098561153
3.6877391 -0.71488529 -0.078956939
3.737283 -0.70742619 -0.084617354
3.8073666 -0.70565379 -0.092389122
4.0089488 -0.66595876 -0.08782246
4.0752368 -0.65874767 -0.094812833
4.3285966 -0.61685818 -0.076429293
3.4605234 -0.74885231 -0.04120288
3.503387 -0.74239564 -0.045934241
3.5474722 -0.73575509 -0.050800525
3.5928328 -0.72892243 -0.055807531
3.6395249 -0.72188932 -0.060961511
3.6874762 -0.7144078 -0.05358107
3.736866 -0.70670199 -0.045982014
3.7879076 -0.69900542 -0.051221274
3.8405402 -0.69106919 -0.056623913
3.8948395 -0.68288147 -0.062197678
3.9508858 -0.67443025 -0.067950718
4.0085816 -0.66544652 -0.05996136
4.068181 -0.65616679 -0.051711857
4.1299844 -0.64683753 -0.057577901
4.193912 -0.63718814 -0.063645683
4.2600765 -0.62720078 -0.069925696
4.32763 -0.61576885 -0.015792776
3.4601276 -0.74795008 0.0060017565
3.5029676 -0.74148369 0.0019355972
3.5470283 -0.7348327 -0.0022464292
3.5923631 -0.72798973 -0.0065493714
3.6390274 -0.72094572 -0.010978578
3.6870818 -0.71369225 -0.015539645
3.7363105 -0.70573717 0.0054932972
3.7873201 -0.69802904 0.0010460115
3.8399196 -0.69008136 -0.0035398318
3.8941836 -0.68188184 -0.0082708765
3.9501925 -0.67341864 -0.013154008
4.0080323 -0.66467875 -0.018196769
4.0676012 -0.65538967 -0.0092582265
4.1293707 -0.64605093 -0.014404868
4.1930475 -0.63612604 -0.0050992644
4.2591619 -0.62612557 -0.010352552
4.3269043 -0.61495286 0.029644685
3.4597325 -0.74704856 0.053167585
3.5025485 -0.74057209 0.04976555
3.5465848 -0.73391098 0.046266574
3.5918939 -0.72705764 0.042666472
3.6385314 -0.72000331 0.038960807
3.6865568 -0.71273851 0.035144851
3.7357559 -0.70477301 0.056922436
3.7867339 -0.69705391 0.053265739
3.8392997 -0.68909448 0.049495149
3.8935282 -0.68088317 0.045605294
3.9494998 -0.67240798 0.041590415
4.0073004 -0.6636557 0.037444357
4.0670204 -0.65461308 0.033160571
4.128758 -0.64526504 0.028732104
4.192399 -0.63533026 0.038773224
4.2584763 -0.6253196 0.034288727
4.3264208 -0.61440885 0.059914976
3.4593372 -0.74614769 0.10029466
3.5021303 -0.73966134 0.0975556
3.5461419 -0.73299015 0.09473855
3.5914252 -0.72612643 0.091840126
3.6380353 -0.71906132 0.088856757
3.6860323 -0.71178597 0.085784629
3.7353399 -0.70405036 0.095465481
3.7861471 -0.69607937 0.10543799
3.83868 -0.6881085 0.10248118
3.8928735 -0.67988551 0.099430889
3.9488082 -0.67139828 0.096282586
4.0065689 -0.66263378 0.093031511
4.0662475 -0.6535784 0.089672498
4.1279397 -0.64421755 0.086200096
4.1917505 -0.63453496 0.082608499
4.2577906 -0.62451404 0.078891419
4.3259368 -0.61386526 0.090169311
3.4589427 -0.74524784 0.14738299
3.5017121 -0.73875147 0.14530584
3.5456994 -0.73207009 0.14316958
3.5909562 -0.72519577 0.14097165
3.6375399 -0.71812028 0.13870929
3.6855083 -0.71083432 0.13637967
3.7349243 -0.70332843 0.13397974
3.7857082 -0.69534916 0.14453748
3.8382151 -0.68736953 0.14219011
3.8922181 -0.67888838 0.15320599
3.9481151 -0.67038906 0.1509227
4.0058365 -0.66161245 0.14856486
4.0654731 -0.65254456 0.1461288
4.1271214 -0.64317071 0.14361055
4.190886 -0.6334753 0.14100587
4.2568765 -0.62344116 0.13831027
4.3252125 -0.6130504 0.13551885
3.4585481 -0.74434835 0.19443265
3.5012944 -0.73784226 0.19301632
3.5452566 -0.73115069 0.19155972
3.5904884 -0.72426623 0.19006105
3.6370447 -0.71718013 0.18851848
3.684984 -0.70988327 0.18693011
3.73437 -0.70236635 0.18529379
3.7852685 -0.694619 0.18360735
3.8377504 -0.6866309 0.18186846
3.891727 -0.678141 0.19350579
3.9475956 -0.66963273 0.19187021
4.0052876 -0.66084701 0.19018124
4.0648937 -0.6517697 0.18843624
4.1265082 -0.64238626 0.18663242
4.190238 -0.63268125 0.18476672
4.2561922 -0.62263703 0.18283586
4.3244882 -0.61223632 0.18083647
3.4580553 -0.74322528 0.2531884
3.5008764 -0.73693359 0.24068709
3.5448146 -0.73023206 0.23990899
3.5900202 -0.72333729 0.23910843
3.6365488 -0.71624029 0.23828444
3.6844599 -0.70893276 0.23743594
3.7338157 -0.70140499 0.23656189
3.784682 -0.69364637 0.23566107
3.8371305 -0.68564671 0.23473226
3.8912354 -0.67739445 0.23377408
3.947077 -0.6688773 0.23278517
4.0047398 -0.66008222 0.23176399
4.0643134 -0.65099561 0.23070899
4.1258965 -0.64160269 0.22961837
4.1895905 -0.63188773 0.22849038
4.2555075 -0.62183362 0.22732303
4.3237648 -0.61142266 0.22611424
3.457562 -0.74210286 0.31188789
3.5003545 -0.7357986 0.30021769
3.5442615 -0.72908437 0.30028602
3.5895517 -0.72240859 0.2881138
3.6360536 -0.71530151 0.28800708
3.6839354 -0.70798302 0.28789726
3.7332611 -0.70044416 0.2877841
3.7840965 -0.69267434 0.28766745
3.8365116 -0.68466347 0.2875472
3.8905814 -0.67639929 0.28742316
3.9463851 -0.66787034 0.28729513
4.0040088 -0.65906328 0.28716293
4.0635409 -0.64996427 0.28702638
4.1250806 -0.6405586 0.28688517
4.1887288 -0.63083076 0.28673911
4.2545962 -0.62076354 0.28658801
4.3228011 -0.61033905 0.28643152
3.4571676 -0.74120563 0.35880253
3.4998319 -0.73466468 0.35969049
3.5437081 -0.72793794 0.36060366
3.5889661 -0.72124904 0.3493093
3.6355581 -0.7143631 0.33768657
3.6834118 -0.70703417 0.33831403
3.7327075 -0.69948441 0.33896044
3.7835109 -0.69170356 0.33962655
3.8358929 -0.68368101 0.3403134
3.8899276 -0.6754055 0.34102193
3.9456947 -0.66686445 0.34175318
4.0032783 -0.65804535 0.34250826
4.0627704 -0.64893377 0.3432883
4.1240616 -0.63925517 0.35838985
4.1244693 -0.63977617 0.32979941
4.1878676 -0.62977469 0.34492859
4.2539129 -0.61996156 0.33099836
4.3220797 -0.60952693 0.33162978
3.4567735 -0.74030918 0.40567869
3.4994142 -0.73375851 0.40722254
3.5432665 -0.72702157 0.40881023
3.588382 -0.72009081 0.41044366
3.6350632 -0.71342576 0.38732287
3.6828883 -0.7060861 0.38868639
3.7321541 -0.69852537 0.39009097
3.7829266 -0.69073337 0.39153847
3.8352747 -0.68269962 0.39303091
3.8892744 -0.67441231 0.39457047
3.9450047 -0.66585958 0.39615935
4.0025496 -0.65702844 0.39779997
4.062192 -0.64816165 0.38545018
4.1236544 -0.63873404 0.38696596
4.1872215 -0.62898362 0.38853368
4.2532306 -0.61916023 0.37537041
4.3213577 -0.60871565 0.37678832
3.402941 2.5134513 0.39949706
2.3250735 2.3251917 0.42352858
2.6016788 2.3797021 0.41715148
2.9462175 2.4475982 0.40920809
3.3715327 2.5555115 0.39858532
3.3871884 2.5345457 0.39903978
2.2989111 2.3706799 0.42241487
2.5758305 2.4214678 0.41615871
2.9211376 2.4847929 0.40835768
2.2816422 2.4007034 0.42167974
2.5604682 2.44629 0.41556868
3.4563794 -0.7394135 0.45251635
3.498997 -0.732853 0.45471504
3.5428245 -0.72610611 0.45697615
3.5879147 -0.71916521 0.45930237
3.6345685 -0.71248913 0.43691605
3.6823657 -0.70513898 0.43901435
3.7316015 -0.69756711 0.44117576
3.782342 -0.68976414 0.44340321
3.8346577 -0.68171901 0.44569984
3.8886223 -0.67342013 0.44806886
3.944315 -0.6648556 0.45051378
4.0020032 -0.65626603 0.43923533
4.061615 -0.64739031 0.42757747
4.1230445 -0.6379531 0.42980155
4.1865768 -0.62819266 0.43210182
4.2523212 -0.61809266 0.43448216
4.3203969 -0.60763466 0.43694684
3.4307802 1.5003916 0.45142516
3.5958285 1.5225028 0.43137988
3.8184836 1.5589871 0.44030657
2.4200156 1.343802 0.45972317
2.5196157 1.3606929 0.46679083
2.6178834 1.375475 0.46359941
2.7239454 1.391412 0.46006671
2.8502355 1.4125925 0.45697114
2.9639091 1.4274914 0.45217142
3.1140585 1.4525236 0.46050808
3.1585262 1.4798827 0.43853885
3.2496986 1.4704609 0.44276828
3.5501838 1.5518193 0.42968804
2.4070737 1.3626782 0.47029752
2.5726187 1.4014083 0.45079157
2.8222363 1.4607781 0.44469222
2.8388546 1.431885 0.44539961
3.1322279 1.5223786 0.43752879
3.5103865 1.6108478 0.42833856
3.5262284 1.5873499 0.42887574
2.3925622 1.41271 0.4678708
2.5442593 1.4539449 0.44947487
2.8002565 1.4989946 0.44375655
3.10621 1.564423 0.43652949
3.4868116 1.6458144 0.42753917
2.3840718 1.4691205 0.46784893
2.5209005 1.497219 0.44839036
2.7730868 1.546234 0.44259995
3.0804667 1.6060222 0.43554077
3.4556892 1.6919758 0.42648384
2.3769817 1.51623 0.46783066
2.4978101 1.5399951 0.44731832
2.7462182 1.5929508 0.4414562
3.0549943 1.6471839 0.43456241
3.4249341 1.7375929 0.425441
2.3698766 1.5634404 0.46781233
2.4704189 1.5907393 0.44604656
2.7196867 1.639081 0.44032678
3.0235426 1.6980087 0.43335447
3.3945396 1.7826753 0.42441034
2.3613319 1.6202142 0.46779034
2.4478519 1.6325449 0.44499883
2.693445 1.6847067 0.4392097
2.9924722 1.7482173 0.43216106
3.3570325 1.8383064 0.4231385
3.3719652 1.8161577 0.42364487
3.8492591 1.9157674 0.41245329
2.3541958 1.6676275 0.46777192
2.4210973 1.6821091 0.44375664
2.434427 1.6574149 0.44437554
2.6623702 1.738736 0.43788689
2.6778471 1.7118264 0.43854573
2.9618077 1.7977693 0.4309833
2.9740224 1.7780306 0.43145248
3.3348069 1.8712727 0.42238486
3.8214386 1.9530234 0.41164565
2.3470447 1.7151426 0.46775347
2.3990679 1.7229197 0.44273382
2.6418936 1.7743387 0.43701524
2.9375865 1.8369094 0.43005303
3.3054566 1.9148059 0.42138964
3.7756391 2.0143559 0.41031614
3.7938621 1.9899522 0.41084513
2.33988 1.7627472 0.46773502
2.3729281 1.7713453 0.44152021
2.6165726 1.8183643 0.43593735
2.9076188 1.8853354 0.42890206
3.2764423 1.9578406 0.42040581
3.7485409 2.050643 0.40952951
2.3352339 1.8146136 0.46081817
2.3556714 1.8033144 0.44071898
2.5865576 1.8705512 0.43465963
2.8839285 1.9236174 0.42799217
3.2477586 2.0003848 0.41943318
3.7128019 2.0985031 0.40849206
2.3242726 1.8679967 0.45824417
2.5618486 1.9135129 0.43360779
2.8546641 1.9709071 0.4268682
3.2123487 2.0529032 0.41823244
3.2264485 2.031991 0.41871056
3.6775236 2.1457458 0.40746796
2.3166444 1.915652 0.45818806
2.5374372 1.9559568 0.43256864
2.825742 2.0176437 0.42575735
3.1913571 2.0840352 0.41752061
3.6426971 2.1923838 0.40645695
2.3094172 1.9636685 0.45815983
2.5036991 2.0146167 0.43113244
2.5180838 1.9896063 0.43174478
2.7972035 2.0637596 0.42466128
3.1430278 2.1557121 0.41588184
3.1636295 2.1251571 0.41658044
3.608314 2.2384281 0.40545884
2.3021772 2.011776 0.45813152
2.4846621 2.0477164 0.43032205
2.768995 2.1093433 0.42357785
3.1226161 2.1859841 0.41518965
3.5827982 2.2725961 0.40471816
2.2949209 2.0599873 0.45810318
2.461112 2.0886626 0.42931956
2.7300944 2.1722054 0.42208374
2.7466881 2.1453907 0.42272103
3.0956509 2.2259758 0.41427529
3.5575516 2.306406 0.40398526
2.2874405 2.108202 0.44854856
2.4285572 2.1452653 0.42793375
2.4424388 2.1211295 0.42852467
2.7136359 2.1988015 0.4214516
3.0689816 2.265528 0.413371
3.5242398 2.3510146 0.40301824
2.2830715 2.1372306 0.44852567
2.2786963 2.1662986 0.44850275
2.4056239 2.1851394 0.42695749
2.6864705 2.242697 0.42040825
3.0360699 2.3143394 0.41225493
3.491343 2.3950682 0.40206331
2.272855 2.2051089 0.44847217
2.3784235 2.2324328 0.42579958
2.6542733 2.2947214 0.41917157
2.6649477 2.2774734 0.41958156
2.9971218 2.3721027 0.41093427
3.0100257 2.3529644 0.41137183
3.4347358 2.4708729 0.40042004
3.4588532 2.4385767 0.40112016
2.2655389 2.2537138 0.44843388
2.3471262 2.2868483 0.42446736
2.3604727 2.2636428 0.42503551
2.6330941 2.3289423 0.41835815
2.9779038 2.400604 0.41028258
3.4187896 2.4922276 0.39995715
2.256741 2.3121662 0.4483878
2.2493939 2.3609831 0.44834933
2.2449782 2.3903215 0.4483262
3.897536 -0.69972759 0.51524544
4.1124086 -0.66040939 0.50044298
4.1830845 -0.65312886 0.50433642
4.2564869 -0.64556754 0.50838017
4.2785563 -0.62420624 0.48000452
4.3558154 -0.61586958 0.48367465
3.4656236 -0.74211073 0.48818251
3.5069518 -0.74565977 0.50256115
3.5563316 -0.74093384 0.50584066
3.6072953 -0.73605627 0.50922543
3.650831 -0.7170459 0.4874568
3.7024212 -0.71080631 0.49051288
3.7582843 -0.70518965 0.49380422
3.7950613 -0.6930995 0.48296037
3.8455973 -0.69633812 0.49883536
3.9153004 -0.68071365 0.48958433
3.9786501 -0.67418796 0.49307424
4.0016389 -0.65575838 0.4668411
4.05405 -0.65740228 0.48324683
4.1327028 -0.63994455 0.47307596
4.2042398 -0.63222528 0.47647423
3.6520755 1.5396096 0.47626582
3.8604858 1.5714167 0.47196791
2.5378997 1.367461 0.48787996
2.6576591 1.3898691 0.50770235
2.7561717 1.4028071 0.49435747
2.8738744 1.4207703 0.49192926
2.8976722 1.4289885 0.51618767
2.9891965 1.436015 0.47684139
3.0149443 1.4446939 0.50193971
3.1562178 1.4663866 0.4997392
3.2800896 1.4802036 0.46972665
3.3111002 1.4901451 0.49719894
3.4646721 1.5109777 0.47997516
2.4004509 1.3661385 0.50540018
2.4626577 1.359941 0.51081783
2.5564523 1.3743287 0.50927907
2.3933921 1.4130479 0.50541949
2.384903 1.4694599 0.50544286
2.3778133 1.5165702 0.50546229
2.3707087 1.5637815 0.50548178
2.362165 1.620557 0.50550514
2.3550298 1.6679711 0.50552475
2.3478792 1.7154871 0.50554436
2.3407154 1.7630931 0.50556397
2.3335359 1.810801 0.50558364
2.3249021 1.8681741 0.50560737
2.3176916 1.9160885 0.50562716
2.3104656 1.9641062 0.50564694
2.3030162 2.0121269 0.49615958
2.2957609 2.0603395 0.49616984
2.2882812 2.1085553 0.48665366
2.2839124 2.1375842 0.48665398
2.2795379 2.1666532 0.48665437
2.2736971 2.2054644 0.48665488
2.2663822 2.25407 0.48665547
2.2589347 2.3163524 0.49399498
2.3164656 2.3283672 0.5209195
2.2504497 2.3614321 0.49623391
2.2460344 2.3907712 0.49624017
3.5714083 -0.77829182 0.56699342
3.6300843 -0.76548707 0.55974507
3.6909845 -0.7522366 0.55228394
3.7543287 -0.73841268 0.54445881
3.8118298 -0.73318923 0.54871142
3.8713229 -0.72778493 0.5531112
3.9510481 -0.70315707 0.53205538
4.015583 -0.69698036 0.53634125
4.0726032 -0.70054424 0.55411547
4.0923791 -0.68060797 0.52745396
4.1519051 -0.68393171 0.5453946
4.2347116 -0.66663909 0.53637224
4.3100481 -0.65924513 0.54109275
4.3327737 -0.63770807 0.51258284
3.5354321 -0.76598698 0.5401907
3.5856345 -0.76154929 0.54409361
3.6523752 -0.73973536 0.52461153
3.7064593 -0.73469186 0.52840877
2.3586612 1.9316504 0.57682914
2.4988461 1.9656038 0.57310581
2.6614881 1.9950651 0.56934083
2.3404865 1.9624932 0.57534301
2.4789455 1.9980568 0.57155222
2.6395257 2.0293627 0.56771106
2.3045919 2.0234065 0.5724079
2.3179753 2.0006948 0.5735023
2.4494538 2.0461495 0.56924993
2.4641404 2.0222001 0.57039648
2.6016235 2.088551 0.56489849
2.6177881 2.0633082 0.56609803
2.2974408 2.061044 0.57230657
2.4252107 2.0856838 0.56735736
2.5802896 2.1218665 0.56331545
2.2901728 2.10935 0.57239419
2.3964875 2.1325231 0.56511509
2.5538921 2.16309 0.5613566
2.2858052 2.1383808 0.57244682
2.2814314 2.1674511 0.57249957
2.3681717 2.1786993 0.56290454
2.5226641 2.2118561 0.55903929
2.5382125 2.1875751 0.56019306
2.6858287 2.2663655 0.55386996
2.2755919 2.2062638 0.57256997
2.3402536 2.2242262 0.56072509
2.4970083 2.2519228 0.55713558
2.6687961 2.2917435 0.55267477
2.2771142 2.2621453 0.56895989
2.3172784 2.261693 0.55893141
2.4666317 2.2993724 0.55488169
2.6407061 2.3335948 0.5507037
2.2678053 2.3160646 0.5545826
2.3220096 2.3216295 0.54090881
2.3748386 2.331001 0.53627616
2.4317293 2.334434 0.54517931
2.4639225 2.3444669 0.53466225
2.5170615 2.3502686 0.5396148
2.5720763 2.3562748 0.54474199
2.6100667 2.3604233 0.54828268
2.2517161 2.3619702 0.55369771
2.2473023 2.3913102 0.55373913
3.6456115 -0.80367118 0.62227899
3.7707136 -0.7780515 0.60943192
3.8286073 -0.77349347 0.61480206
3.9060965 -0.75032622 0.59552902
3.9688179 -0.74508458 0.60087669
4.0338097 -0.73965353 0.60641795
4.053082 -0.7202245 0.58043468
4.1112323 -0.72410905 0.59894955
4.1920314 -0.70793933 0.59123713
4.2132287 -0.68742776 0.56398875
4.276577 -0.69096476 0.58308154
4.3418999 -0.69468898 0.60288846
4.3649807 -0.67327315 0.57464325
3.6081288 -0.79085112 0.59435052
3.6681263 -0.77815121 0.58754945
3.7225771 -0.77373242 0.59239501
3.7870052 -0.76027805 0.58537531
3.8455286 -0.75538737 0.59036499
3.9239001 -0.73164588 0.5703916
3.9873357 -0.72603738 0.57532334
3.4816918 1.1035833 0.61004698
3.7209766 1.148855 0.60440898
2.510483 0.93907279 0.63187659
2.6304376 0.962717 0.62899822
2.7628458 0.9888159 0.62582105
2.9097533 1.0177728 0.62229598
3.0800948 1.0394505 0.61886036
3.2719173 1.063895 0.61498964
2.501354 0.9564988 0.63104254
2.6205823 0.98094642 0.62812972
3.518852 1.6716653 0.59412789
3.8353179 1.7201394 0.59144974
2.5630689 1.5258389 0.6125688
2.6435103 1.5381786 0.61221409
2.7385705 1.5552232 0.60219193
2.8176589 1.5642612 0.60006171
2.9213359 1.581725 0.59993988
3.0187004 1.5950552 0.59836036
3.1332293 1.6132982 0.60999674
3.249974 1.6304803 0.59640324
2.3873968 1.5147212 0.61733752
2.4407799 1.5350353 0.59791487
2.4872808 1.5142134 0.61291778
2.5805829 1.5550447 0.59497547
2.7312896 1.5865508 0.59125179
2.8943062 1.6314917 0.58661717
2.9127882 1.6026297 0.58798862
2.3732059 1.5648057 0.61849654
2.4175844 1.5758746 0.59593576
2.540205 1.6235662 0.59167379
2.5552552 1.5980263 0.59290445
2.6925561 1.6497145 0.58822799
2.7090752 1.6227765 0.58951759
2.8698864 1.6696261 0.58480513
2.3676498 1.6231091 0.61502016
2.399226 1.6081977 0.59436929
2.5252759 1.6489016 0.59045309
2.676177 1.6764241 0.58694935
2.827776 1.7353865 0.5816803
2.8457305 1.7073485 0.58301258
2.3618069 1.6668769 0.60716403
2.5006311 1.6907241 0.58843791
2.6491549 1.7204906 0.58483982
2.8099818 1.7631741 0.58035988
2.3501747 1.7164351 0.6094749
2.4617758 1.7566627 0.58526069
2.4762599 1.7320827 0.58644509
2.6065862 1.7899084 0.58151668
2.6224492 1.7640405 0.58275503
2.7864673 1.7998955 0.57861489
2.3430126 1.7640436 0.60959935
2.4426451 1.7891278 0.58369642
2.5908549 1.8155617 0.58028859
2.7459064 1.8632365 0.57560509
2.7632015 1.8362274 0.5768885
2.3361266 1.8089765 0.60430574
2.4142625 1.837294 0.5813756
2.5648959 1.8578938 0.57826203
2.7287621 1.8900087 0.57433289
2.3269947 1.8690442 0.60039485
2.3862605 1.8848132 0.57908589
2.395546 1.8690555 0.57984519
2.5290642 1.9163269 0.57546479
2.5443339 1.8914253 0.57665688
2.7004874 1.9341635 0.57223475
2.3197861 1.9169611 0.6005106
2.3724182 1.9083042 0.57795405
2.5138931 1.9410657 0.5742805
2.6781025 1.9691194 0.57057375
2.312562 1.9649816 0.60062653
2.3053238 2.0130928 0.60074264
2.2980707 2.0613084 0.60085905
2.2908034 2.1096151 0.60097569
2.2864361 2.1386461 0.60104573
2.2820628 2.167717 0.60111594
2.2762237 2.2065306 0.60120964
2.2689114 2.2551396 0.601327
2.2601168 2.3135977 0.60146815
2.2527726 2.3624191 0.60158604
2.2483585 2.3917596 0.60165685
4.0618277 -0.77291173 0.66400152
4.2221894 -0.74250692 0.6513108
4.2966843 -0.73664206 0.65822089
4.3191371 -0.71580982 0.63074499
4.3975654 -0.70925575 0.6374318
3.6915524 -0.8082357 0.63922489
3.7387028 -0.81297445 0.65670139
3.774991 -0.80233747 0.64800519
3.8118882 -0.79138273 0.63894701
3.8798246 -0.77789074 0.63262254
3.9415002 -0.77318305 0.63857305
3.9959931 -0.77777714 0.6574021
4.014781 -0.75883603 0.63207167
4.0813851 -0.75359255 0.63824975
4.1504741 -0.74815309 0.64465845
4.1711154 -0.72817934 0.6181246
4.2437096 -0.72211301 0.62431407
3.0360343 -0.064180993 0.67988765
3.3175483 -0.0032186559 0.67283505
3.4886861 0.019471776 0.66933453
3.8776748 0.10195028 0.65968573
4.120131 0.13616632 0.65461308
2.6815627 -0.097871311 0.68640918
2.7876182 -0.084262639 0.68426472
2.8980219 -0.058876764 0.68141788
3.0186949 -0.031081257 0.67830372
3.1573994 -0.012101029 0.67543429
3.3040104 0.02099324 0.6716876
3.4665501 0.05764389 0.66753602
3.6557903 0.085157715 0.66353267
3.8598301 0.13028952 0.65836912
4.0903893 0.18123287 0.65253699
2.6629081 -0.059199147 0.68453741
2.7627246 -0.033968419 0.68183875
2.8713593 -0.0064645545 0.67889929
2.9957654 0.012690702 0.67620891
3.1326079 0.033760972 0.67324966
3.2838507 0.05704825 0.66997898
3.4373174 0.10805552 0.66516089
3.6236978 0.13835798 0.66104245
3.8332927 0.17243445 0.65641099
4.0609198 0.22588806 0.65047991
2.6398227 -0.011342084 0.68222106
2.7380908 0.015801599 0.67943799
2.8502617 0.035008319 0.67690629
2.9730599 0.056034688 0.67413473
3.1080709 0.0791521 0.67108744
3.2572124 0.10468892 0.66772133
3.4156003 0.14550532 0.66339642
3.5919919 0.19091858 0.65858221
3.7895901 0.2418395 0.65318656
3.8069818 0.21421956 0.65446973
4.0317841 0.27003649 0.64844608
2.6124213 0.045460932 0.67947161
2.6215117 0.026616443 0.68038374
2.7185886 0.055204481 0.67753738
2.82936 0.076095767 0.67493188
2.9505754 0.098956674 0.67208064
3.0837848 0.12407961 0.6689474
3.2308607 0.15181769 0.66548795
3.3940883 0.18260168 0.66164857
3.5684493 0.22994533 0.65675539
3.7723091 0.26928404 0.6519115
4.002912 0.31378612 0.64643067
2.5986991 0.082265072 0.67832917
2.6944616 0.10395007 0.6751861
2.7932394 0.14709906 0.6715197
2.8086512 0.11680313 0.6729756
2.9283085 0.14146309 0.67004651
3.0597451 0.16855057 0.66682905
3.2047908 0.19844279 0.66327834
3.365675 0.23159897 0.65934002
3.5451412 0.26858446 0.65494674
3.7466061 0.31010357 0.65001506
3.964891 0.37139925 0.64377654
3.9838371 0.34268996 0.64509916
2.5896878 0.13567676 0.67839926
2.6705825 0.15219533 0.67285883
2.7779455 0.17716308 0.67007506
2.9007876 0.1939999 0.66753232
3.0300293 0.2235218 0.6642105
3.0418675 0.2016224 0.66525364
3.1789978 0.24457233 0.66109228
3.33758 0.28004712 0.65705734
3.51437 0.31959492 0.6525591
3.7126918 0.36395979 0.64751267
3.9367249 0.4140791 0.64181042
2.5829988 0.18014923 0.67858672
2.6516745 0.19039729 0.6710161
2.757709 0.21694307 0.66816342
2.8735733 0.24594976 0.66504627
3.006551 0.26695436 0.66214156
3.1534777 0.29021409 0.65892935
3.3097985 0.32795531 0.65480006
3.4839616 0.37000418 0.65019953
3.6875217 0.40393037 0.64565545
3.9088087 0.45637971 0.63986176
2.5762966 0.22471456 0.6787746
2.6189754 0.2564618 0.66782939
2.6329308 0.22826599 0.66918945
2.7326813 0.26614088 0.6657992
2.8520443 0.28704795 0.6630795
2.9774964 0.32070309 0.65958124
3.128226 0.33537573 0.65678912
3.2823243 0.37533256 0.65256786
3.4464397 0.43220493 0.64728802
3.4613781 0.4074415 0.64844716
3.662611 0.44348615 0.64381742
3.8812008 0.49821323 0.63793468
4.1400161 0.54572469 0.63191622
2.5829902 0.28076422 0.67399198
2.7079177 0.31481943 0.66345996
2.8307192 0.32775658 0.66113138
2.9488068 0.37377593 0.65705311
2.9602368 0.35263127 0.65806037
3.097024 0.39117867 0.65414464
3.1094525 0.36895108 0.65519804
3.2483985 0.43383685 0.64981139
3.2619085 0.41053841 0.65090913
3.4315891 0.45682418 0.64613569
3.6297407 0.49568337 0.64139199
3.8538361 0.53967875 0.63602448
4.1093955 0.58979636 0.62990618
2.5711932 0.33136311 0.67173749
2.6883149 0.35335335 0.66160822
2.7938764 0.39808774 0.65776563
2.8095951 0.36808121 0.65920162
2.9317746 0.40528399 0.65555227
3.078511 0.4242889 0.65257555
3.2282805 0.46852911 0.64817679
3.4094841 0.49346727 0.64442044
3.597275 0.54723841 0.63899648
3.8177879 0.5943017 0.63350809
3.8357527 0.56708002 0.63476211
4.0790629 0.63345534 0.62791508
2.556488 0.37668622 0.67072767
2.6640668 0.40101817 0.65931767
2.7782805 0.42786005 0.6563409
2.9092515 0.44695047 0.65356749
3.0479741 0.47890225 0.64998746
3.2017004 0.51436538 0.64601725
3.3730361 0.55388182 0.64159209
3.3875482 0.52982777 0.6427182
3.5731738 0.58550972 0.63721818
3.791075 0.63477969 0.63164341
4.0490828 0.67660636 0.62594706
2.5464482 0.42174718 0.6704157
2.6400714 0.4481878 0.65705103
2.757647 0.46724808 0.6544559
2.8703566 0.51890147 0.65014011
2.8869479 0.48820907 0.65160215
3.0178034 0.53286076 0.64743036
3.1688709 0.57097799 0.64334983
3.1819456 0.54843134 0.64441216
3.3514354 0.58968699 0.63991594
3.5493178 0.62339228 0.63545793
3.7645931 0.67490715 0.6297949
3.9997618 0.74759489 0.62270939
4.0193801 0.71935731 0.62399727
2.5383186 0.47580007 0.67063284
2.6163585 0.49480093 0.65481091
2.7321343 0.5159511 0.65212524
2.8538995 0.54934543 0.64868993
2.9939554 0.57551265 0.64540911
3.1493998 0.60455495 0.6417678
3.3229077 0.63697314 0.63770223
3.5178308 0.67339271 0.63313466
3.7383964 0.71460313 0.62796617
3.9802787 0.77563757 0.62143046
2.53017 0.52998024 0.6708504
2.5928895 0.54093522 0.65259397
2.7068956 0.56413019 0.64981961
2.8321335 0.58961028 0.64677185
2.9703496 0.61773074 0.64340842
3.1236689 0.64892405 0.63967717
3.294704 0.68372285 0.6355136
3.4867232 0.7227909 0.63083929
3.70384 0.76696515 0.62555403
3.9513204 0.81731689 0.6195296
2.523365 0.57522523 0.67103207
2.5696943 0.58653122 0.6504029
2.6819658 0.61172104 0.64754212
2.8105769 0.62948769 0.64487237
2.94117 0.66991633 0.64093536
2.9527948 0.64912671 0.64192057
3.0982115 0.69281977 0.63760865
3.2668183 0.72994494 0.63334984
3.4559879 0.77159768 0.62857145
3.6697249 0.81865966 0.62317252
3.922627 0.85861659 0.61764604
2.5202065 0.62343276 0.66786957
2.5512998 0.62268984 0.64866525
2.6573002 0.65880573 0.64528888
2.7786286 0.68858951 0.64205706
2.7945392 0.65915668 0.64345908
2.9181161 0.71114767 0.6389814
3.0730243 0.73624951 0.63556212
3.2392457 0.77564842 0.63121015
3.4180708 0.83180815 0.62577373
3.4331653 0.8078388 0.6268875
3.6444089 0.8570202 0.62140542
3.8942578 0.89944881 0.61578375
2.5135775 0.67548358 0.66298538
2.6232448 0.7238161 0.64217776
2.6377769 0.69607484 0.64350533
2.7575829 0.72752243 0.64020258
2.8895855 0.76217157 0.6365633
3.0481026 0.77922064 0.63353723
3.2119803 0.82084185 0.62909442
3.3956077 0.86747885 0.62411624
3.6193597 0.89497733 0.61965686
3.8475704 0.96664637 0.61271906
3.8661447 0.93991286 0.61393833
2.5003421 0.72970212 0.66246265
2.6088214 0.75134909 0.64086014
2.7315655 0.77565217 0.63790983
2.861412 0.81255293 0.6341753
2.8726363 0.79248071 0.63512677
3.00511 0.85335231 0.63004392
3.0234435 0.82174057 0.63153356
3.1850181 0.86553389 0.62700224
3.3733208 0.90286934 0.62247181
3.5863097 0.94505769 0.6173498
3.8291218 0.9932006 0.61150801
2.4930573 0.77529651 0.66257519
2.5849984 0.79682678 0.6386838
2.7058332 0.82325399 0.63564235
2.844686 0.84246284 0.63275772
2.9869354 0.88468963 0.62856722
3.1583529 0.90973276 0.624933
3.3439243 0.94954997 0.6203028
3.3585794 0.92627817 0.62138408
3.5536714 0.99451339 0.61507148
3.8016942 1.0326773 0.60970753
2.4861786 0.82103133 0.66274971
2.5614226 0.84183156 0.63653016
2.6854713 0.86091971 0.63384801
2.8170846 0.89182293 0.63041818
2.9629126 0.92611182 0.62661535
3.1319811 0.95344657 0.62288666
3.3221123 0.98418665 0.61869329
3.5214381 1.0433562 0.6128214
3.7655287 1.0847307 0.60733354
2.4779067 0.8760289 0.66295958
2.5334866 0.89516032 0.63397807
2.5474029 0.86859465 0.63524932
2.6602941 0.90749121 0.63162929
2.7843752 0.95031559 0.62764591
2.7952187 0.93092406 0.62856495
2.9391372 0.96710682 0.6246835
3.1058965 0.99668324 0.62086248
3.2933106 1.0299228 0.61656809
3.4975123 1.0796115 0.61115128
3.738703 1.1233407 0.60557264
2.4709988 0.92195708 0.66313481
2.5196521 0.92156982 0.63271421
2.6403384 0.94440311 0.62987077
2.7735844 0.9696126 0.62673122
2.9214585 0.99758971 0.62324703
2.4668477 0.94955766 0.66324008
3.5265806 1.6744215 0.62238055
3.6787694 1.6978005 0.62231112
3.8444467 1.7232497 0.62220216
2.5714879 1.5294329 0.65408468
2.6524379 1.5419207 0.65498602
2.7361581 1.5542252 0.64489961
2.8277552 1.5683372 0.6455884
2.9255557 1.583403 0.6462912
3.027338 1.5984077 0.63485581
3.1425035 1.616825 0.64788538
3.2566054 1.6329499 0.62253195
3.2632551 1.6354266 0.64876014
3.3863134 1.6528755 0.62247276
3.5343392 1.6771883 0.65075022
2.3811398 1.5179317 0.6559996
2.4232745 1.5065675 0.65240902
2.4952288 1.5176675 0.6532101
2.3740382 1.5651472 0.65617025
2.3654978 1.6219271 0.65637559
2.3583653 1.6693455 0.65654701
2.351218 1.7168659 0.65671879
2.3440571 1.7644757 0.65689087
2.3363647 1.8145107 0.64996958
2.3280416 1.8694794 0.64779139
2.3208334 1.9173975 0.647955
2.3136101 1.9654193 0.64811903
2.3063736 2.0135319 0.6482833
2.2991207 2.0617487 0.64844793
2.2918544 2.1100566 0.64861292
2.2874877 2.1390889 0.6487121
2.2831149 2.1681604 0.64881134
2.2772765 2.2069747 0.64894384
2.2699647 2.2555852 0.64910984
2.2611718 2.314045 0.64930952
2.2538285 2.3628678 0.64947629
2.2487843 2.39715 0.65438724
3.7790432 -0.82652748 0.68638057
3.8370221 -0.82280022 0.69305718
3.8735366 -0.81111813 0.69743901
3.9146318 -0.80082005 0.67565036
3.9774404 -0.79648066 0.68241537
4.0425196 -0.7919842 0.68942487
4.0737886 -0.77617222 0.69303089
4.1301022 -0.76786584 0.67084557
4.2009554 -0.76262939 0.677948
4.2867808 -0.7470302 0.68669879
4.3741226 -0.7305454 0.66540414
3.6867652 -0.81697088 0.70098668
3.7229764 -0.83013165 0.67992407
3.8539774 -0.80501062 0.66911739
3.8654301 -0.78431374 0.69702345
4.0616088 -0.73394287 0.69247013
4.1154642 -0.71084255 0.69860864
4.1746101 -0.70132989 0.70507377
4.2895746 -0.70679152 0.68761611
4.3022313 -0.68271232 0.68925321
4.3675828 -0.6722343 0.69589418
3.627821 -0.78454494 0.71903819
3.6882064 -0.78324395 0.70185208
3.7435689 -0.76738995 0.70889604
3.7912946 -0.75966722 0.71484655
3.8755374 -0.75117689 0.69880325
3.9459097 -0.73637986 0.70710176
3.9996948 -0.72770321 0.7133944
3.8137097 -0.17663164 0.67578644
4.0247025 -0.13155045 0.67053396
4.2631688 -0.080599405 0.66459757
2.6634192 -0.34752446 0.72154045
2.6968198 -0.34989557 0.70001036
2.7920365 -0.32688582 0.69749409
2.9006147 -0.31256124 0.69527715
3.0134709 -0.28581908 0.69232363
3.1307704 -0.24502796 0.68854219
3.1428828 -0.2681497 0.68964869
3.2787502 -0.23658881 0.68612772
3.2918825 -0.26088202 0.68728495
3.4285753 -0.20178562 0.68224508
3.4428039 -0.22723272 0.68345106
3.6023705 -0.17657115 0.67857134
3.7881641 -0.13428342 0.67380428
3.9965572 -0.086851865 0.66845727
4.2423015 -0.048977155 0.66314101
2.6668415 -0.31186259 0.71160239
2.7773132 -0.29636341 0.69601673
2.8796437 -0.27019137 0.69323331
2.9910285 -0.24170348 0.69020373
3.1127241 -0.21057875 0.68689358
3.2591913 -0.2004059 0.68440413
3.4073908 -0.16389832 0.68044966
3.5639133 -0.1102537 0.67544669
3.5792236 -0.13665588 0.6766907
3.76283 -0.092286214 0.6718384
3.9686592 -0.042545903 0.66639888
4.2010069 0.013602708 0.66025853
4.2215819 -0.017577248 0.66169471
2.6526029 -0.26737422 0.71540058
2.7529895 -0.24594025 0.6935761
2.858865 -0.22821012 0.6912083
2.9632711 -0.18713975 0.6875816
2.9743314 -0.20888136 0.68862641
3.0888636 -0.16502941 0.68471384
3.233341 -0.15258579 0.68212628
3.3794055 -0.11384782 0.6780777
3.5486917 -0.08400549 0.67421001
3.7377567 -0.050721429 0.66989291
3.9410658 0.0012764012 0.66436291
4.1805763 0.044564657 0.65883237
2.6435385 -0.21672966 0.71316087
2.728914 -0.19603193 0.69116044
2.8331683 -0.17629212 0.68870395
2.9467862 -0.15473434 0.68602437
3.0652406 -0.11993467 0.68255574
3.2014008 -0.093498968 0.67931169
3.214123 -0.11703444 0.6804328
3.3448474 -0.052041601 0.67514873
3.3586094 -0.076654889 0.67631513
3.5260372 -0.044938359 0.6723693
3.7046678 0.0041310359 0.66732538
3.9137127 0.044717133 0.66234469
4.1502137 0.090577811 0.65671295
2.6356347 -0.16417004 0.7134245
2.7098498 -0.15651119 0.68924749
2.8077433 -0.12492404 0.68622613
2.9249802 -0.11186906 0.68396443
3.0476704 -0.086393952 0.6809507
3.1824493 -0.058441158 0.67764175
3.3311603 -0.027563153 0.67398876
3.5035572 -0.0061730267 0.67054284
3.6801043 0.044850763 0.66541934
3.8956349 0.073426552 0.66101092
2.6277125 -0.11148852 0.71368879
2.6956556 -0.12708513 0.6878233
2.6210971 -0.067496195 0.71390951
2.6144676 -0.023413001 0.71413064
2.6064963 0.029596714 0.71439654
2.5985067 0.082730047 0.71466303
2.590498 0.13598762 0.71493018
2.5838101 0.18046127 0.71515328
2.5771084 0.22502734 0.71537685
2.5690491 0.27861816 0.71564561
2.5609717 0.332335 0.71591514
2.5542262 0.37719226 0.71614015
2.5474665 0.42214328 0.71636569
2.5393381 0.4761976 0.71663672
2.5311904 0.5303793 0.71690857
2.5241823 0.57554537 0.70791465
2.5173638 0.62088627 0.70813304
2.5091648 0.67540985 0.7083956
2.500946 0.73006237 0.70865875
2.4940822 0.775702 0.70887864
2.4872046 0.82143795 0.70909888
2.4789336 0.87643707 0.70936376
2.4720266 0.9223665 0.70958501
2.467876 0.9499678 0.70971787
2.627749 1.0234728 0.72915632
2.7326934 1.0466661 0.72661978
2.8466625 1.071854 0.72386503
2.9708712 1.0993048 0.72086298
3.1067648 1.1293381 0.71757829
3.2657561 1.1390389 0.71470428
3.4313302 1.174309 0.71075261
3.6150701 1.2134486 0.70636743
3.8201387 1.2571318 0.70147324
2.5109684 1.0562516 0.72974771
2.5208676 1.0291898 0.73062235
2.6172554 1.0516514 0.72824848
2.7215745 1.075961 0.72567922
2.8348467 1.1023571 0.72288954
2.9582756 1.1311201 0.71984971
3.093292 1.1625831 0.71652442
3.2464201 1.1855652 0.71323693
3.2560742 1.1623365 0.71396953
3.4156833 1.2109497 0.70960361
3.5981157 1.2519976 0.70516634
3.8016698 1.297798 0.70021546
2.5011065 1.0832112 0.72887629
2.599848 1.098394 0.72674251
2.695781 1.1439165 0.72349745
2.70681 1.114861 0.72443032
2.8191595 1.1428543 0.72159433
2.9415565 1.173351 0.71850473
3.0754118 1.2067026 0.7151258
3.2319965 1.2202716 0.71214235
3.394928 1.2595516 0.70807958
3.5756328 1.3031167 0.70357376
3.7711091 1.365144 0.6981349
3.7832959 1.3382792 0.69896448
2.4847443 1.1279405 0.72743052
2.5790906 1.1541337 0.72494662
2.6847975 1.1728537 0.72256851
2.7996669 1.1931741 0.71998495
2.9249268 1.2153565 0.7171669
3.0576322 1.2505757 0.71373504
3.2080977 1.2777762 0.7103287
3.3743007 1.3078535 0.70656502
3.5532992 1.3539035 0.70199186
3.7589636 1.3919164 0.69730824
2.4652276 1.1812932 0.72570592
2.5619009 1.2002932 0.72345942
2.6665809 1.2208468 0.72102761
2.7764292 1.2531652 0.71806628
2.7841535 1.2332249 0.71870404
2.9042687 1.2675375 0.71550506
3.0399513 1.2942041 0.71235198
3.1843624 1.3348889 0.70852751
3.3537998 1.3558581 0.70505965
3.5311277 1.4043658 0.70042217
3.7408295 1.4318916 0.69607407
2.4490614 1.2254871 0.72427756
2.5448179 1.2461649 0.72198153
2.6484685 1.2685674 0.71949548
2.7610455 1.2928774 0.71679616
2.8837388 1.3193957 0.71385342
3.0223684 1.3375901 0.7109766
3.1655033 1.3802682 0.70709634
3.3334363 1.4035714 0.70356494
3.5145895 1.4420089 0.69925147
3.7167881 1.4848882 0.69443768
3.943903 1.5330778 0.68902981
2.4329917 1.2694169 0.72285765
2.5278282 1.2917873 0.72051167
2.6304727 1.3159794 0.71797329
2.7419143 1.3422666 0.71521658
2.8674159 1.3606259 0.71254027
3.0005243 1.3914921 0.70926785
3.0092425 1.3699793 0.70994979
3.1467624 1.4253867 0.70567471
3.3132057 1.4509957 0.70208049
3.4926693 1.4919035 0.69769967
3.5036116 1.4669964 0.69847435
3.6929107 1.537524 0.69281256
3.9242678 1.5748737 0.68774992
2.4144859 1.3220693 0.72128659
2.5109437 1.3371271 0.71905088
2.6125779 1.3631237 0.71645969
2.7266994 1.3815452 0.71396035
2.8390546 1.4322631 0.71025872
2.8511791 1.4016389 0.71123415
2.9831724 1.4343219 0.7079109
3.1281383 1.4702467 0.70426238
3.293098 1.4981314 0.70060503
3.4763255 1.5291041 0.69654262
3.6751039 1.576777 0.6916005
3.8982439 1.6302664 0.68605375
2.40522 1.3680768 0.72111052
2.4874611 1.400183 0.71701932
2.4974985 1.3732307 0.7178877
2.5877101 1.4286413 0.71435624
2.5983434 1.4006268 0.71525568
2.7077918 1.4303552 0.7123993
2.8269904 1.4627562 0.7092886
2.9616146 1.4875689 0.70622569
3.1096215 1.5148481 0.70285827
3.2731123 1.5449811 0.69913858
3.4546502 1.5784403 0.69500828
3.6573973 1.6158085 0.69039541
3.8788431 1.6715621 0.68478918
2.3981652 1.4149923 0.72134584
2.4741297 1.4359814 0.71586597
2.5771196 1.4565436 0.71346045
2.6890004 1.4788817 0.71084815
2.8109798 1.503238 0.70800167
2.9444792 1.5298942 0.70488632
3.0912116 1.5591929 0.70146221
3.2532475 1.5915473 0.69768095
3.4331133 1.6274617 0.69348371
3.6339221 1.6675577 0.68879759
3.6914015 1.7022048 0.66670793
3.8531456 1.7262615 0.68311423
3.8597939 1.7126673 0.668522
2.3896813 1.4714113 0.7216289
2.4575558 1.480489 0.714432
2.5595603 1.5028274 0.71197575
2.661037 1.545525 0.69796383
2.6740632 1.51748 0.70961583
2.7456889 1.5581468 0.68924284
2.7950528 1.5435085 0.70672143
2.8378997 1.5724325 0.69136733
2.9295149 1.5768644 0.69629431
3.0389068 1.6028976 0.68380427
3.0774701 1.5922925 0.70042014
3.1518126 1.620365 0.68595976
3.2384245 1.6262963 0.69659328
3.2699239 1.6379101 0.67508829
3.4006751 1.6581109 0.6770944
3.5421159 1.6799617 0.67923629
2.3821795 1.5183572 0.7030462
2.4327312 1.5107496 0.7016601
2.5032234 1.5211418 0.69374025
2.5799494 1.5330453 0.69581085
2.3750784 1.5655738 0.70326412
2.3665395 1.6223555 0.70352626
2.3594084 1.6697754 0.70374507
2.3522615 1.717297 0.70396447
2.3451016 1.7649081 0.70418423
2.3379259 1.8126215 0.70440447
2.3292968 1.8700016 0.7046693
2.3220906 1.9179212 0.70489049
2.3148682 1.9659444 0.7051121
2.3076324 2.0140586 0.70533425
2.3003812 2.0622771 0.70555687
2.2931156 2.1105866 0.70577979
2.2887499 2.1396198 0.70591378
2.2843776 2.1686921 0.70604801
2.2785401 2.2075083 0.70622724
2.2712297 2.2561202 0.70645159
2.2627363 2.3117435 0.70123953
2.2548845 2.3633165 0.6973682
2.2489994 2.4024501 0.69754106
4.055151 -0.71875662 0.71988255
4.1108022 -0.70887011 0.74053264
4.1713948 -0.70000166 0.7334826
4.2340212 -0.69083601 0.72618228
4.2970605 -0.6806798 0.73331517
4.3622241 -0.67018145 0.74068832
3.6013699 -0.78571451 0.76426744
3.6320257 -0.78175765 0.75243044
3.6935608 -0.77307105 0.74027318
3.7398417 -0.76554811 0.74657708
3.7874529 -0.75780779 0.75306207
3.8390954 -0.75109279 0.73390037
3.889631 -0.7429024 0.74039537
3.9416871 -0.73446506 0.74708569
3.996788 -0.7264142 0.74046808
4.0521445 -0.71745455 0.74737018
2.6644223 -0.34714806 0.76672179
2.6591866 -0.31232339 0.76693827
2.6526299 -0.26871368 0.76720935
2.6447451 -0.21627423 0.76753545
2.636843 -0.16371296 0.7678622
2.628922 -0.11102973 0.76818973
2.622308 -0.067036144 0.76846331
2.6156802 -0.022951446 0.76873738
2.6077096 0.0300598 0.76906693
2.5997205 0.083194725 0.76939732
2.5915105 0.13637631 0.76059526
2.5848238 0.18085101 0.76086277
2.5781231 0.22541843 0.76113099
2.5700653 0.27901062 0.76145345
2.5619886 0.33272874 0.76177651
2.555244 0.37758723 0.76204658
2.548485 0.4225395 0.762317
2.5403578 0.47659519 0.7626422
2.5322108 0.53077835 0.7629683
2.5252035 0.57594562 0.7540195
2.5183866 0.62128776 0.75428319
2.5101879 0.6758126 0.75460041
2.5019703 0.7304666 0.75491834
2.4951077 0.77610755 0.75518376
2.4882307 0.82184476 0.75544971
2.4799609 0.87684524 0.75576973
2.4730544 0.9227758 0.75603694
2.4661343 0.9688037 0.75630462
2.534117 0.99297023 0.73179305
2.6347671 1.0046276 0.72976351
2.7401311 1.027072 0.72724891
2.8545666 1.0514487 0.72451764
2.9792984 1.0780187 0.72154087
3.1157804 1.1070915 0.71828359
3.4418054 1.1497804 0.71152174
3.6264229 1.1876369 0.70717162
3.8325081 1.229895 0.70231563
2.4578121 1.0241541 0.75662661
2.4508622 1.0703772 0.75689548
2.4438972 1.1166983 0.75716496
2.4355216 1.1724018 0.75748897
2.4285269 1.2189201 0.75775957
2.4215181 1.2655375 0.75803071
2.413089 1.3215976 0.75835681
2.4060495 1.368414 0.75862914
2.3989954 1.4153305 0.75890207
2.390512 1.4717504 0.75923032
2.3834274 1.5188679 0.75950432
2.3763275 1.5660861 0.75977892
2.3677893 1.6228695 0.76010919
2.3608611 1.6683575 0.75659716
2.3533053 1.7177279 0.75121176
2.3461461 1.7653402 0.75147915
2.3389714 1.8130553 0.75174713
2.3303435 1.8704367 0.75206947
2.3231378 1.9183575 0.75233859
2.3159165 1.9663821 0.75260836
2.3086817 2.014498 0.75287861
2.3014314 2.0627177 0.75314939
2.294167 2.1110287 0.75342083
2.2898016 2.1400623 0.75358379
2.28543 2.1691356 0.75374717
2.2795932 2.2079525 0.75396514
2.2722836 2.256566 0.75423819
2.2629681 2.3174009 0.74740195
2.2559402 2.363765 0.74526197
2.250056 2.4029 0.74547398
4.106142 -0.70689946 0.7823531
4.166574 -0.69801152 0.77598888
4.2273703 -0.68815643 0.78380263
4.2901773 -0.67797548 0.79187471
4.3568754 -0.66813296 0.78536505
3.5979633 -0.7839272 0.80025858
3.6415405 -0.77677739 0.80719858
3.6887417 -0.77064121 0.78968638
3.734874 -0.76309478 0.79667902
3.7823322 -0.7553314 0.80387253
3.8338113 -0.74859113 0.78552788
3.8841786 -0.74037671 0.79277539
3.9360595 -0.73191559 0.8002407
3.9924252 -0.72448182 0.78098112
4.0461402 -0.71485502 0.80219573
4.0491395 -0.71615356 0.77480763
4.1030431 -0.705589 0.81016523
2.6648719 -0.34238452 0.81645614
2.6603913 -0.31187087 0.82119977
2.653836 -0.2682597 0.82152325
2.6457517 -0.21589476 0.81284928
2.6378503 -0.16333227 0.81322861
2.6299303 -0.11064748 0.81360888
2.6233168 -0.066652663 0.81392646
2.6166897 -0.022566885 0.81424469
2.6087201 0.030445646 0.81462741
2.6007326 0.083582044 0.81501085
2.5925238 0.136765 0.8062619
2.5858376 0.18124089 0.80657393
2.5791376 0.22580934 0.80688679
2.5710807 0.27940303 0.8072629
2.563005 0.3331224 0.80763984
2.5562615 0.37798217 0.80795467
2.5495036 0.42293561 0.80827016
2.5413768 0.47699273 0.80864954
2.5332313 0.53117734 0.80902982
2.5264294 0.57642585 0.80934727
2.5196128 0.62176943 0.8096655
2.5114162 0.67629611 0.81004828
2.5031998 0.73095185 0.81043178
2.4963379 0.77659416 0.81075203
2.4894624 0.82233292 0.81107306
2.4811935 0.87733519 0.811459
2.4742887 0.92326725 0.81178141
2.4673691 0.96929651 0.81210446
2.459048 1.0246487 0.81249291
2.4520988 1.0708731 0.81281728
2.4451356 1.1171958 0.81314242
2.4370425 1.1701982 0.80817592
2.4295609 1.2193375 0.80450952
2.4225528 1.265956 0.80482733
2.414125 1.3220179 0.80520952
2.4070864 1.3688354 0.80552876
2.400033 1.4157532 0.80584866
2.391551 1.4721749 0.80623335
2.3844674 1.5192935 0.80655462
2.377368 1.5665127 0.8068763
2.3688312 1.6232978 0.80726349
2.3612909 1.6725677 0.80193436
2.3543487 1.7181588 0.7984609
2.3471904 1.7657725 0.79877597
2.3400168 1.8134887 0.7990917
2.3313894 1.8708715 0.79947138
2.3241854 1.9187942 0.79978848
2.3169646 1.96682 0.80010641
2.3097312 2.0149369 0.8004247
2.3024814 2.063158 0.80074382
2.2952182 2.1114702 0.8010636
2.2908533 2.1405048 0.8012557
2.2864821 2.169579 0.80144817
2.2806461 2.2083969 0.80170494
2.2733376 2.2570121 0.80202675
2.2645481 2.3154769 0.80241352
2.2572079 2.3643038 0.8027367
2.2513242 2.4034398 0.80299574
4.1617661 -0.69602627 0.81838959
4.3533192 -0.66677105 0.81507182
3.5746598 -0.77514672 0.83307868
3.6851306 -0.76882178 0.82664514
3.7048528 -0.75250745 0.83022869
3.8381064 -0.73730975 0.82563478
3.9880733 -0.72255415 0.82139808
4.0007162 -0.7010603 0.82375205
4.1697621 -0.67166525 0.82005155
4.3518372 -0.62430108 0.81581479
3.5657609 -0.73900396 0.83267099
3.6955204 -0.71487182 0.82980531
3.8365483 -0.68864435 0.82669091
3.99038 -0.66003573 0.82329375
4.1588397 -0.62870604 0.8195734
4.3402643 -0.57922822 0.81531537
3.4346457 -0.71497673 0.83479249
3.5539081 -0.69086379 0.83212775
3.6830909 -0.66474557 0.82924151
3.8234842 -0.63636059 0.8261047
3.976614 -0.60540038 0.82268339
4.1442957 -0.57149845 0.81893688
4.3287063 -0.53421378 0.81481659
3.3106651 -0.68162084 0.83662862
3.4233334 -0.66872692 0.83426923
3.5420704 -0.6427837 0.83158529
3.6675761 -0.60217679 0.82853764
3.6737788 -0.62719131 0.8288191
3.8136969 -0.59719181 0.82566559
3.9663022 -0.56447238 0.82222617
4.1334004 -0.52864534 0.81845999
3.1930954 -0.63996947 0.83820957
3.3025532 -0.64825052 0.83625007
3.4120347 -0.62253249 0.83374667
3.1853275 -0.60783148 0.83784413
3.2890489 -0.59269768 0.83562005
3.0813076 -0.5909133 0.83956158
3.1749811 -0.56502104 0.83735746
2.9795256 -0.5551756 0.84093541
3.0688965 -0.53928608 0.8389734
3.1672277 -0.53294271 0.83699286
2.884428 -0.52178532 0.84221894
2.9676013 -0.50532329 0.84036624
3.0589783 -0.49802861 0.83850342
2.795378 -0.490518 0.84342092
2.8729548 -0.4735896 0.84166765
2.9580717 -0.46548271 0.83991146
2.6940267 -0.45118991 0.85633308
2.7843232 -0.44387311 0.84288639
2.8637848 -0.43507195 0.84122717
2.6815822 -0.40709016 0.86019212
2.7732804 -0.39728066 0.84235263
2.6735771 -0.35897335 0.86041766
2.6613955 -0.31149381 0.86641926
2.6548407 -0.26788175 0.86678642
2.6467578 -0.21551518 0.85816473
2.6388571 -0.16295126 0.85859674
2.6309381 -0.11026534 0.85902977
2.624326 -0.066269375 0.85939145
2.6176989 -0.022182496 0.85975367
2.609731 0.03083151 0.86018944
2.6017444 0.083969317 0.8606261
2.593739 0.13723142 0.8610639
2.5870535 0.18170859 0.86142951
2.5803547 0.22627854 0.86179572
2.5722997 0.27987394 0.8622362
2.5642254 0.33359513 0.86267781
2.5574822 0.37845621 0.86304653
2.5507257 0.4234111 0.86341596
2.5426004 0.47746995 0.86386031
2.5344563 0.53165627 0.86430568
2.5276549 0.57690614 0.86467749
2.5208397 0.62225121 0.86505026
2.5126441 0.67677957 0.86549842
2.5047035 0.7287854 0.86063778
2.4973636 0.77699983 0.85706079
2.4904885 0.82273966 0.8574276
2.4822211 0.87774342 0.85786861
2.4753168 0.92367667 0.85823691
2.4683981 0.96970725 0.85860604
2.460078 1.0250608 0.85904986
2.45313 1.0712866 0.85942054
2.4461675 1.1176106 0.85979205
2.4372902 1.1755785 0.85325009
2.4305952 1.2197551 0.85126132
2.4235871 1.2663748 0.85162574
2.4151609 1.3224381 0.85206407
2.4081233 1.369257 0.85243016
2.4010708 1.4161758 0.85279703
2.39259 1.4725991 0.85323817
2.3855069 1.519719 0.85360664
2.3784087 1.5669396 0.85397565
2.369873 1.6237262 0.85441959
2.3627446 1.6711501 0.85479033
2.3556008 1.7186759 0.85516202
2.348444 1.7662911 0.85553426
2.3412712 1.814009 0.85590732
2.3326457 1.8713938 0.85635602
2.3254421 1.9193178 0.8567307
2.3182232 1.9673454 0.85710621
2.3109903 2.0154636 0.85748237
2.3040521 2.0612502 0.85545975
2.2962697 2.111912 0.84870809
2.2919052 2.1409473 0.84892917
2.2875347 2.1700225 0.84915072
2.2816992 2.2088413 0.84944642
2.2743917 2.257458 0.84981686
2.2656031 2.3159237 0.85026228
2.2582636 2.3647523 0.85063434
2.2523811 2.4038897 0.85093254
2.683286 -0.45010635 0.91033125
2.6767726 -0.4067612 0.91073948
2.6689401 -0.35464013 0.9112305
2.6623998 -0.31111673 0.91164052
2.6558456 -0.2675035 0.91205132
2.6479647 -0.21505977 0.91254532
2.6400654 -0.16249429 0.91304058
2.6321478 -0.10980663 0.91353685
2.6255362 -0.065809235 0.91395128
