# .PCD v0.7 - Point Cloud Data file format
VERSION 0.7
FIELDS x y z
SIZE 4 4 4
TYPE F F F
COUNT 1 1 1
WIDTH 1471
HEIGHT 1
VIEWPOINT 0 0 0 1 0 0 0
POINTS 1471
DATA ascii
2.6994236 -0.48784304 -1.3492485
2.7589567 -0.47879916 -1.3515296
2.9142637 -0.49167013 -1.3696603
3.0874636 -0.50622517 -1.3770177
2.5935936 -1.71526 -1.315557
2.5976398 -1.6697419 -1.3042713
2.6015682 -1.6242803 -1.3046418
2.6054995 -1.5787836 -1.3050127
2.6094341 -1.5332521 -1.3053839
2.614356 -1.4762862 -1.3058482
2.619283 -1.419269 -1.306313
2.6230781 -1.3758715 -1.3019896
2.6272948 -1.3278607 -1.295362
2.6312456 -1.2821388 -1.2957302
2.6351998 -1.2363814 -1.2960988
2.6401465 -1.1791331 -1.2965596
2.6450977 -1.1218331 -1.297021
2.6490622 -1.0759517 -1.2973906
2.6530297 -1.0300349 -1.2977602
2.6560073 -0.99557483 -1.2980379
2.6579936 -0.97258967 -1.2982229
2.6609743 -0.93809414 -1.2985007
2.665946 -0.88055712 -1.298964
2.670922 -0.82296801 -1.2994279
2.674907 -0.77685499 -1.2997993
2.6788945 -0.7307061 -1.3001708
2.6828852 -0.6845215 -1.3005427
2.6868796 -0.63830096 -1.3009149
2.6918759 -0.58047295 -1.3013806
2.6968777 -0.52259237 -1.3018467
2.6998808 -0.48783714 -1.3021266
2.7641077 -0.47995678 -1.3055325
2.918469 -0.49259371 -1.3334665
2.5941978 -1.7148025 -1.2572877
2.5982428 -1.6693009 -1.2459852
2.6021698 -1.6238559 -1.246333
2.6061001 -1.5783758 -1.2466815
2.610033 -1.5328606 -1.2470299
2.614954 -1.4759157 -1.2474661
2.619879 -1.4189193 -1.2479026
2.6238229 -1.3732811 -1.248252
2.6277697 -1.3276079 -1.2486019
2.6317198 -1.2818992 -1.2489518
2.6356728 -1.2361552 -1.2493023
2.6406181 -1.1789235 -1.2497404
2.6455686 -1.1216404 -1.2501792
2.6495316 -1.0757724 -1.2505302
2.6534982 -1.0298688 -1.2508818
2.6574681 -0.98393011 -1.2512336
2.6605639 -0.94941777 -1.2397735
2.6617329 -0.93413448 -1.2555232
2.6664112 -0.88043517 -1.2520262
2.6713865 -0.8228631 -1.2524669
2.67537 -0.77676368 -1.25282
2.6793566 -0.73062837 -1.2531735
2.6833465 -0.68445742 -1.253527
2.6873393 -0.63825059 -1.2538806
2.6923349 -0.58043963 -1.2543235
2.697335 -0.52257621 -1.2547666
2.7010429 -0.48010617 -1.2511678
2.5948014 -1.7143453 -1.1990584
2.5987251 -1.6689485 -1.1993883
2.6026511 -1.6235164 -1.1997182
2.60658 -1.5780498 -1.2000482
2.610512 -1.5325477 -1.2003788
2.6154318 -1.4756193 -1.2007923
2.6203563 -1.4186397 -1.2012062
2.6242988 -1.3730148 -1.2015376
2.6282442 -1.3273547 -1.2018692
2.6321933 -1.2816594 -1.2022011
2.6361454 -1.235929 -1.2025334
2.6410897 -1.178714 -1.2029487
2.6460385 -1.1214477 -1.2033647
2.650001 -1.0755932 -1.2036978
2.6539667 -1.0297031 -1.204031
2.6579351 -0.9837777 -1.2043645
2.6619072 -0.93781656 -1.2046984
2.6668763 -0.88031346 -1.2051162
2.6718502 -0.8227582 -1.2055342
2.6758327 -0.7766723 -1.2058687
2.6798184 -0.73055077 -1.2062037
2.6838074 -0.68439341 -1.206539
2.6877987 -0.63820016 -1.2068744
2.6927931 -0.58040631 -1.2072942
2.6977925 -0.52256018 -1.2077144
2.7017951 -0.47624111 -1.2080508
2.7055049 -0.43375182 -1.2044361
2.7089207 -0.3951028 -1.1968678
2.595284 -1.7139797 -1.1525068
2.5992062 -1.6685961 -1.1528184
2.6031315 -1.6231775 -1.1531305
2.6070595 -1.5777237 -1.1534427
2.6109908 -1.5322353 -1.1537551
2.6149251 -1.4867115 -1.1540679
2.6198473 -1.4297557 -1.1544589
2.6247742 -1.3727486 -1.1548506
2.6287189 -1.3271021 -1.1551642
2.6326666 -1.2814199 -1.1554778
2.6366179 -1.2357028 -1.1557918
2.641561 -1.1785047 -1.1561847
2.6465085 -1.1212552 -1.1565781
2.6504698 -1.0754141 -1.1568928
2.6544347 -1.0295374 -1.1572078
2.6584022 -0.98362547 -1.157523
2.6623733 -0.93767804 -1.1578388
2.6660545 -0.89551812 -1.1542226
2.668628 -0.86486512 -1.1622447
2.6723139 -0.82265341 -1.1586287
2.6762953 -0.77658111 -1.1589452
2.68028 -0.73047316 -1.1592618
2.6842675 -0.68432933 -1.1595788
2.6882589 -0.63814974 -1.159896
2.6932514 -0.58037299 -1.1602927
2.6982493 -0.52254391 -1.1606901
2.702251 -0.47623867 -1.1610081
2.7062554 -0.42989746 -1.1613262
2.7102637 -0.38352016 -1.1616448
2.7133846 -0.34872347 -1.1501142
2.5957663 -1.7136146 -1.1059825
2.5996873 -1.668244 -1.1062763
2.6036119 -1.6228386 -1.1065702
2.6075392 -1.5773982 -1.1068645
2.611469 -1.5319227 -1.1071588
2.6154025 -1.4864122 -1.1074532
2.6203234 -1.429473 -1.1078221
2.6252491 -1.3724827 -1.108191
2.6291931 -1.3268491 -1.1084863
2.6331394 -1.2811806 -1.1087821
2.6370897 -1.2354766 -1.109078
2.6420317 -1.1782955 -1.1094482
2.6469784 -1.1210628 -1.1098188
2.6509387 -1.0752351 -1.1101153
2.6549025 -1.029372 -1.1104122
2.6588693 -0.98347348 -1.1107094
2.6628387 -0.93753934 -1.1110069
2.6678057 -0.88006991 -1.111379
2.6727767 -0.82254863 -1.1117512
2.6767573 -0.77648991 -1.1120495
2.6807411 -0.73039556 -1.112348
2.6847281 -0.68426543 -1.1126465
2.6887178 -0.63809943 -1.1129453
2.6937099 -0.58033979 -1.1133193
2.6988199 -0.5225237 -1.1019503
2.702821 -0.47623572 -1.1022453
2.7068241 -0.42991161 -1.1025405
2.7108305 -0.38355148 -1.1028363
2.7148407 -0.33715537 -1.103132
2.7189665 -0.29073629 -1.0916606
2.7220905 -0.25590786 -1.0801108
2.5952692 -1.7245847 -1.0594164
2.599189 -1.679233 -1.0596923
2.6040919 -1.6224999 -1.0600371
2.6080186 -1.5770725 -1.0603135
2.6119475 -1.5316104 -1.0605897
2.61588 -1.4861131 -1.0608664
2.6207995 -1.4291905 -1.0612124
2.6257236 -1.3722167 -1.0615588
2.6296668 -1.3265966 -1.0618361
2.6336129 -1.2809414 -1.0621138
2.6375616 -1.2352509 -1.0623916
2.6425018 -1.1780864 -1.0627391
2.6474473 -1.1208704 -1.0630871
2.6514072 -1.0750561 -1.0633656
2.6553698 -1.0292065 -1.0636443
2.6593356 -0.98332149 -1.0639234
2.6635725 -0.93508375 -1.0571986
2.6683857 -0.87991804 -1.0528507
2.6732028 -0.82470876 -1.0484973
2.6741188 -0.81096244 -1.0766815
2.6765707 -0.78784382 -1.029981
2.6774876 -0.77408248 -1.0581681
2.6813171 -0.7302987 -1.0537456
2.685303 -0.6841855 -1.0540215
2.6892912 -0.63803655 -1.0542974
2.6942816 -0.5802983 -1.0546429
2.6993906 -0.52250361 -1.043251
2.7033899 -0.47623268 -1.0435232
2.7073917 -0.42992574 -1.0437956
2.7113974 -0.3835828 -1.0440682
2.7154059 -0.3372038 -1.0443411
2.7194176 -0.29078883 -1.0446141
2.7240574 -0.23736937 -1.0425751
2.595751 -1.7242163 -1.0129511
2.5996697 -1.6788779 -1.0132089
2.6045721 -1.6221613 -1.0135314
2.6084967 -1.5767473 -1.0137897
2.6124251 -1.5312982 -1.0140481
2.6163568 -1.4858143 -1.0143067
2.6212752 -1.4289085 -1.0146302
2.6264663 -1.3696322 -1.0079793
2.6302586 -1.3262812 -1.0035635
2.6342032 -1.2806425 -1.0038185
2.6381507 -1.2349688 -1.0040736
2.6430898 -1.1778251 -1.004393
2.6480339 -1.12063 -1.0047125
2.6519923 -1.0748327 -1.0049685
2.6559539 -1.0289997 -1.0052246
2.6599183 -0.98313141 -1.0054808
2.6637337 -0.93951046 -1.0010483
2.6689658 -0.87976605 -0.99436301
2.6739342 -0.82228714 -0.9946785
2.677912 -0.77626222 -0.9949311
2.6818931 -0.73020184 -0.99518383
2.6858778 -0.68410569 -0.99543703
2.6898649 -0.63797379 -0.99569023
2.6948535 -0.58025688 -0.99600691
2.6998465 -0.5224874 -0.99632406
2.703845 -0.4762302 -0.99657798
2.7078462 -0.42993706 -0.99683201
2.7118502 -0.3836078 -0.99708629
2.715858 -0.3372426 -0.9973408
2.7198687 -0.2908414 -0.99759549
2.7248864 -0.23278719 -0.99791396
2.7299089 -0.17468031 -0.99823308
2.733036 -0.13981333 -0.98665845
2.5963533 -1.7237566 -0.95490915
2.6002705 -1.6784344 -0.95514452
2.6051712 -1.6217386 -0.95543909
2.6090951 -1.5763407 -0.95567489
2.6130221 -1.5309085 -0.95591086
2.6169522 -1.4854409 -0.95614696
2.6218696 -1.4285554 -0.95644236
2.626641 -1.3738716 -0.95207006
2.6308501 -1.3259659 -0.94533068
2.6347935 -1.280344 -0.94556314
2.6387398 -1.234687 -0.94579577
2.6436772 -1.1775641 -0.94608688
2.6486194 -1.1203897 -0.94637817
2.6525772 -1.0746093 -0.94661146
2.6565373 -1.0287932 -0.946845
2.6605008 -0.98294193 -0.94707865
2.6644671 -0.93705511 -0.94731241
2.6694295 -0.87964475 -0.94760495
2.6743958 -0.82218248 -0.94789773
2.6783733 -0.77617133 -0.94813222
2.6820598 -0.73395687 -0.94444656
2.683234 -0.71862686 -0.96012747
2.6863368 -0.68404186 -0.9486016
2.6903234 -0.6379236 -0.94883651
2.6953101 -0.5802235 -0.94913054
2.7003024 -0.52247143 -0.9494248
2.7042992 -0.47622779 -0.94966042
2.7082999 -0.4299483 -0.94989628
2.7123036 -0.38363287 -0.95013219
2.7163098 -0.33728132 -0.9503684
2.7203193 -0.29089394 -0.9506048
2.7253363 -0.23285696 -0.95090044
2.7303567 -0.1747673 -0.95119643
2.7380357 -0.12872487 -0.95258552
3.3718817 -0.17040373 -0.96848857
2.5969548 -1.723297 -0.89690685
2.6008706 -1.6779914 -0.89711988
2.6057701 -1.621316 -0.89738637
2.6096931 -1.5759346 -0.89759982
2.6136189 -1.5305188 -0.89781326
2.6175478 -1.4850677 -0.898027
2.6224635 -1.4282032 -0.89829439
2.6273835 -1.3712873 -0.89856195
2.6313224 -1.325714 -0.89877629
2.6352654 -1.2801052 -0.89899081
2.6392105 -1.2344614 -0.89920539
2.6431594 -1.1887825 -0.8994202
2.6480994 -1.1316323 -0.89968896
2.6530445 -1.0744307 -0.89995795
2.6570034 -1.0286281 -0.90017337
2.6609659 -0.98279011 -0.90038878
2.6649315 -0.93691671 -0.90060455
2.6698923 -0.87952334 -0.9008745
2.6748579 -0.82207811 -0.9011445
2.6788344 -0.77608037 -0.90136087
2.6828134 -0.73004711 -0.90157729
2.6857996 -0.69549978 -0.90173972
2.6877916 -0.67245632 -0.90184814
2.6907811 -0.63787347 -0.90201068
2.6957674 -0.58019042 -0.90228188
2.7007577 -0.52245528 -0.90255332
2.7047539 -0.47622529 -0.90277076
2.7087533 -0.4299596 -0.9029882
2.7127557 -0.38365784 -0.90320605
2.7167614 -0.33732012 -0.90342391
2.7207694 -0.29094642 -0.90364194
2.7257853 -0.23292671 -0.90391469
2.7308052 -0.17485435 -0.90418786
2.7443936 -0.13350345 -0.91135973
2.7889707 -0.1235982 -0.8965593
3.4053035 -0.17450531 -0.93432355
3.4392524 -0.17867152 -0.89962029
2.5974357 -1.7229295 -0.85053658
2.6013513 -1.6776372 -0.85073179
2.6062489 -1.620978 -0.85097593
2.6101706 -1.57561 -0.85117137
2.6140954 -1.5302074 -0.851367
2.6180236 -1.4847696 -0.85156298
2.6229379 -1.4279215 -0.85180783
2.6278567 -1.3710222 -0.85205305
2.6317952 -1.3254621 -0.85224932
2.6357367 -1.2798667 -0.85244584
2.6396813 -1.2342362 -0.85264248
2.6436288 -1.1885706 -0.85283923
2.6485679 -1.1314372 -0.85308546
2.6535115 -1.0742521 -0.85333186
2.6574697 -1.028463 -0.85352916
2.6614311 -0.98263854 -0.85372669
2.6653955 -0.9367786 -0.85392421
2.6703558 -0.8794021 -0.85417151
2.6753197 -0.82197362 -0.85441899
2.6792951 -0.77598947 -0.85461706
2.6832733 -0.7299698 -0.85481542
2.6872542 -0.68391436 -0.85501391
2.6903572 -0.64933717 -0.84346783
2.6915329 -0.63398534 -0.85912728
2.6962237 -0.58015728 -0.85546088
2.7012129 -0.52243924 -0.85570955
2.7052083 -0.47622296 -0.85590881
2.7092066 -0.42997086 -0.85610807
2.7132082 -0.38368282 -0.85630751
2.7172122 -0.33735883 -0.85650712
2.72122 -0.29099888 -0.85670692
2.726234 -0.23299636 -0.85695684
2.7312529 -0.17494127 -0.85720694
2.7342665 -0.14008114 -0.85735714
2.8127065 -0.12669368 -0.86736441
2.8287392 -0.12878463 -0.84764445
3.462244 -0.18149307 -0.87611794
3.4855108 -0.18434842 -0.85233432
2.5979166 -1.7225624 -0.80419356
2.6018307 -1.6772829 -0.80437094
2.6067276 -1.6206403 -0.80459273
2.6106484 -1.5752854 -0.80477035
2.614572 -1.5298959 -0.80494815
2.6184995 -1.4844716 -0.80512601
2.6234124 -1.4276401 -0.80534858
2.6283298 -1.3707572 -0.80557132
2.6322675 -1.3252103 -0.80574977
2.6362081 -1.2796284 -0.80592829
2.6401517 -1.2340112 -0.80610687
2.6440983 -1.1883588 -0.80628562
2.6490357 -1.1312422 -0.80650932
2.6539783 -1.0740738 -0.80673325
2.6579356 -1.0282981 -0.80691242
2.661896 -0.98248708 -0.80709201
2.6942706 -0.97201085 -0.78020102
2.6658595 -0.93664062 -0.80727142
2.6982479 -0.92567855 -0.78036153
2.6708183 -0.87928087 -0.80749613
2.7022278 -0.87931138 -0.78052211
2.6757812 -0.82186931 -0.8077209
2.7062111 -0.83290929 -0.78068286
2.6797554 -0.77589869 -0.80790097
2.7092006 -0.79808587 -0.7808035
2.6837327 -0.72989249 -0.80808109
2.6877129 -0.68385071 -0.80826145
2.6916962 -0.63777316 -0.80844188
2.6962583 -0.58473974 -0.81098896
2.701092 -0.52934778 -0.80652702
2.705662 -0.47622043 -0.8090744
2.7096596 -0.42998207 -0.80925548
2.71366 -0.38370773 -0.80943674
2.7176635 -0.33739752 -0.80961812
2.7216702 -0.29105133 -0.80979961
2.7266827 -0.23306604 -0.81002676
2.7316999 -0.17502815 -0.81025404
2.7347131 -0.14017837 -0.81039047
2.8531082 -0.13196273 -0.81767023
2.877804 -0.13518342 -0.78729457
3.5090573 -0.18723805 -0.82826418
3.5328894 -0.19016278 -0.80390251
3.0380838 -1.9422392 -0.78025508
3.1643698 -1.9404269 -0.78127021
3.2975965 -1.9664066 -0.7822628
3.4438617 -1.965397 -0.78343546
2.8166721 -1.8726255 -0.77867967
2.9236693 -1.9062651 -0.77944106
3.0415719 -1.9032565 -0.78039235
3.1668069 -1.9134998 -0.78136533
3.3014357 -1.924508 -0.78241116
3.4479034 -1.9218603 -0.78358984
2.8198671 -1.8361501 -0.77880758
2.9281173 -1.8560119 -0.77961767
3.046226 -1.8512427 -0.78057557
3.1704652 -1.8730847 -0.78150797
3.3065584 -1.8686005 -0.78260905
3.4519479 -1.8782958 -0.78374451
2.7204754 -1.7939702 -0.77812952
2.8241293 -1.7874831 -0.77897799
2.9325688 -1.805717 -0.77979439
3.050884 -1.799184 -0.78075892
3.1753459 -1.8191584 -0.78169829
3.3116863 -1.8126413 -0.78280693
3.4559953 -1.8346964 -0.78389925
2.6290781 -1.7314811 -0.77757055
2.7255833 -1.7350101 -0.77833408
2.8283906 -1.7387742 -0.77914739
2.9370236 -1.7553802 -0.77997118
3.0555458 -1.7470807 -0.78094238
3.1802313 -1.7651838 -0.78188884
3.3155348 -1.7706399 -0.78295565
3.4613967 -1.7765177 -0.7841056
2.6330066 -1.6857198 -0.77772903
2.730696 -1.6759973 -0.77853888
2.832655 -1.6900262 -0.77931684
2.9414783 -1.7049993 -0.78014719
3.0602114 -1.6949326 -0.78112596
3.1851213 -1.7111616 -0.78207946
3.3193862 -1.7286059 -0.78310436
3.4654503 -1.7328488 -0.78426057
2.6379209 -1.6284685 -0.77792746
2.7347894 -1.6287441 -0.7787028
2.8369226 -1.6412392 -0.77948648
2.945935 -1.6545756 -0.78032297
3.0637109 -1.6557924 -0.78126323
3.1900153 -1.6570911 -0.78227037
3.3245261 -1.6725178 -0.7833029
3.4695079 -1.689145 -0.78441572
2.6428397 -1.5711669 -0.77812588
2.7388864 -1.5814546 -0.77886689
2.8411937 -1.5924132 -0.77965623
2.9503946 -1.6041101 -0.78049868
3.0672107 -1.6166226 -0.78139991
3.194912 -1.6029719 -0.78246105
3.32967 -1.6163777 -0.78350157
3.4749217 -1.6308265 -0.78462261
2.6467781 -1.5252855 -0.77828479
2.7429864 -1.5341284 -0.77903116
2.845468 -1.5435482 -0.7798261
2.9548585 -1.5536032 -0.7806747
3.0718799 -1.5643592 -0.78158247
3.1985841 -1.5623503 -0.78260332
3.3335309 -1.5742404 -0.78365058
3.480341 -1.5724522 -0.7848298
2.6507196 -1.4793696 -0.77844387
2.7470894 -1.4867655 -0.77919549
2.8497465 -1.4946444 -0.77999616
2.9593258 -1.503054 -0.78085077
3.0765533 -1.512051 -0.7817651
3.2022581 -1.5216984 -0.7827456
3.3373935 -1.5320698 -0.78379959
3.4844089 -1.5286366 -0.78498524
2.654664 -1.4334192 -0.77860302
2.7511957 -1.4393661 -0.77936
2.8540275 -1.4457011 -0.78016633
2.9637971 -1.4524636 -0.78102714
3.0812309 -1.4596982 -0.78194785
3.2071602 -1.4674561 -0.78293538
3.3425424 -1.4757963 -0.783997
3.4884799 -1.4847859 -0.78514081
2.6586113 -1.3874344 -0.77876222
2.7553053 -1.3919297 -0.77952445
2.8583121 -1.3967189 -0.78033656
2.9682715 -1.4018309 -0.78120339
3.0859118 -1.4073002 -0.7821309
3.2120667 -1.4131656 -0.7831254
3.3476951 -1.419471 -0.78419459
3.4939063 -1.4262687 -0.7853474
2.6635497 -1.329903 -0.77896148
2.759418 -1.3444569 -0.77968919
2.8626008 -1.3476973 -0.78050703
2.9727502 -1.3511566 -0.78137988
3.0905976 -1.3548577 -0.782314
3.2169778 -1.3588269 -0.78331566
3.3528531 -1.3630941 -0.78439242
3.4979773 -1.382345 -0.78550184
2.6684926 -1.2723209 -0.77916092
2.7635336 -1.2969468 -0.779854
2.8668923 -1.2986366 -0.78067762
2.9772325 -1.3004401 -0.78155667
3.0952868 -1.30237 -0.78249717
3.2218933 -1.3044399 -0.78350592
3.3567247 -1.3207788 -0.78454101
3.5006936 -1.3530438 -0.78560501
3.5034106 -1.3237288 -0.78570801
2.6724505 -1.2262149 -0.77932066
2.7686834 -1.2375058 -0.78006041
2.8711874 -1.2495364 -0.78084826
2.9817185 -1.2496818 -0.78173357
3.0999801 -1.2498375 -0.78268069
3.2255821 -1.2636194 -0.78364885
3.360599 -1.2784308 -0.78468955
3.507489 -1.2797278 -0.78586292
2.6764112 -1.1800743 -0.77948046
2.7738371 -1.1780107 -0.78026682
2.8754859 -1.2003969 -0.78101915
2.9862082 -1.1988815 -0.78191054
3.1046774 -1.1972599 -0.78286427
3.2292745 -1.2227687 -0.78379184
3.3657687 -1.2219238 -0.78488779
3.5115702 -1.2356989 -0.78601784
2.6803746 -1.1338989 -0.77964038
2.7779646 -1.1303718 -0.78043205
2.8797879 -1.1512181 -0.78119004
2.9907014 -1.1480389 -0.78208762
3.1082034 -1.1577985 -0.78300202
3.2342007 -1.1682608 -0.78398257
3.3709433 -1.1653647 -0.78508615
3.5156543 -1.1916348 -0.78617281
2.6843412 -1.0876887 -0.77980042
2.7820947 -1.0826957 -0.78059751
2.8840933 -1.1019999 -0.78136116
2.9951987 -1.0971544 -0.78226489
3.1117318 -1.1183089 -0.78313994
3.2391312 -1.1137043 -0.78417343
3.3748276 -1.1229129 -0.78523529
3.5211041 -1.1328357 -0.78637975
2.6883106 -1.0414436 -0.77996051
2.7862279 -1.0349824 -0.78076303
2.8884022 -1.0527421 -0.78153241
2.9996994 -1.0462273 -0.78244233
3.1164386 -1.0656182 -0.78332388
3.2440667 -1.0590996 -0.78436458
3.3787143 -1.080428 -0.7853843
3.5251951 -1.0887012 -0.78653502
2.6912901 -1.0067381 -0.7800808
2.7903647 -0.98723227 -0.78092879
2.8927147 -1.0034448 -0.78170383
3.004204 -0.99525821 -0.78261983
3.1199718 -1.0260721 -0.78346193
3.1223288 -0.9996931 -0.78355408
3.2477703 -1.0181155 -0.78450799
3.3826032 -1.0379173 -0.78553337
2.7945049 -0.93944484 -0.78109455
2.8970304 -0.95410782 -0.78187531
3.0087121 -0.94424659 -0.78279763
3.1258662 -0.9601016 -0.78369236
3.2502413 -0.9907766 -0.78460371
2.7986481 -0.89162034 -0.78126055
2.9013498 -0.90473121 -0.78204709
3.0120959 -0.90596163 -0.78293103
2.8027945 -0.84375858 -0.78142661
2.9045913 -0.86767399 -0.7821759
2.6812093 -0.76431417 -0.76125294
2.6841919 -0.72981524 -0.76137447
2.6881709 -0.68378693 -0.76153654
2.6921535 -0.63772297 -0.76169884
2.6958449 -0.59546375 -0.7579518
2.6970215 -0.58010232 -0.77358991
2.7011251 -0.53394675 -0.76206452
2.706116 -0.47621807 -0.76226789
2.7101123 -0.4299933 -0.76243073
2.7141113 -0.38373268 -0.76259381
2.7181139 -0.3374362 -0.76275694
2.7222321 -0.29111683 -0.75120616
2.7272434 -0.23315299 -0.7514047
2.7322595 -0.17513673 -0.75160331
2.735271 -0.14029984 -0.75172275
2.9029171 -0.13845855 -0.75640583
3.5570123 -0.19312316 -0.77924383
3.5814312 -0.19611986 -0.75428271
2.6817839 -0.76420498 -0.70292664
2.6847653 -0.72971874 -0.70303124
2.6887434 -0.68370736 -0.70317072
2.6927247 -0.63766038 -0.70331043
2.6967087 -0.59157777 -0.70345014
2.7002542 -0.55122405 -0.6977309
2.7028449 -0.52008116 -0.70834023
2.7066827 -0.47621512 -0.70379996
2.7106776 -0.43000737 -0.70394015
2.7146757 -0.38376385 -0.70408046
2.7186773 -0.33748448 -0.70422077
2.7227941 -0.29118231 -0.692653
2.7278035 -0.23323996 -0.69282305
2.7328179 -0.1752452 -0.69299328
2.7358286 -0.14042126 -0.69309545
2.9369726 -0.14289993 -0.71451795
3.6061509 -0.1991535 -0.72901362
3.6311464 -0.20222105 -0.70342511
2.6823578 -0.7640959 -0.64464045
2.6853387 -0.7296223 -0.64472806
2.6893151 -0.6836279 -0.64484501
2.6932952 -0.63759786 -0.64496201
2.697278 -0.59153229 -0.64507914
2.7022614 -0.53389817 -0.6452257
2.7063644 -0.48775384 -0.6336633
2.7075438 -0.47236481 -0.64927542
2.7112429 -0.43002146 -0.64548987
2.7152398 -0.38379502 -0.64560747
2.71924 -0.33753279 -0.64572513
2.7232428 -0.29123461 -0.64584285
2.7282512 -0.23330945 -0.64599013
2.7332644 -0.17533189 -0.6461376
2.736274 -0.14051825 -0.64622617
2.9629521 -0.14628805 -0.68256283
2.9893825 -0.14973499 -0.65005368
3.6564515 -0.20532653 -0.6775167
2.6828167 -0.76400864 -0.5980435
2.6857972 -0.72954524 -0.59811759
2.6897726 -0.68356436 -0.59821653
2.6937513 -0.63754785 -0.59831548
2.6977332 -0.59149587 -0.5984146
2.7027154 -0.53387874 -0.59853858
2.7074068 -0.48005629 -0.59476268
2.7085862 -0.46466962 -0.61036247
2.7116945 -0.43003276 -0.59876192
2.7156904 -0.38381994 -0.59886134
2.7196896 -0.33757132 -0.59896082
2.7236917 -0.29128689 -0.59906042
2.7286987 -0.23337892 -0.59918487
2.7337105 -0.17541853 -0.59930962
2.7367198 -0.1406153 -0.59938449
3.0161819 -0.15323003 -0.61709106
3.0342982 -0.15559268 -0.59480757
2.6832755 -0.7639215 -0.55147409
2.686255 -0.72946817 -0.55153471
2.6902297 -0.68350077 -0.5516156
2.6942074 -0.63749784 -0.55169648
2.6981883 -0.59145933 -0.55177754
2.7031691 -0.53385937 -0.55187893
2.7081544 -0.47620732 -0.55198026
2.7118509 -0.43389362 -0.54816383
2.7130315 -0.41849494 -0.56375462
2.7161412 -0.38384488 -0.5521428
2.7201388 -0.33760989 -0.55222416
2.7241399 -0.29133916 -0.55230558
2.7291458 -0.23344836 -0.5524075
2.7341566 -0.17550516 -0.55250937
2.7371652 -0.14071223 -0.55257064
3.0618355 -0.15918401 -0.5609048
2.7117512 -0.77367765 -0.52156937
2.8586981 -0.77482045 -0.5223847
3.0233204 -0.80326134 -0.52408504
3.2025216 -0.80609232 -0.52512091
3.4017508 -0.8092398 -0.52627259
3.6289821 -0.84488034 -0.5285148
2.7083564 -0.73675531 -0.52048248
2.8548512 -0.7361331 -0.52124327
3.0189397 -0.76252306 -0.52288127
3.1975255 -0.76319706 -0.52385139
3.3979301 -0.77901369 -0.52537638
3.6223636 -0.7967509 -0.52708495
2.7038486 -0.68772733 -0.51903927
2.8484797 -0.67196649 -0.51935184
2.8510227 -0.69758016 -0.52010679
3.0131247 -0.70845038 -0.52128351
3.1908956 -0.70627493 -0.52216673
3.3922226 -0.73385686 -0.52403754
3.6135874 -0.73291951 -0.52518868
2.6982448 -0.62677199 -0.51724505
2.7004817 -0.65110624 -0.51796132
2.8446791 -0.63367742 -0.51822329
3.0073493 -0.65467179 -0.51969564
3.1859465 -0.66378558 -0.52090913
3.3846502 -0.67394882 -0.52226138
3.6070397 -0.68529981 -0.52377397
2.6985297 -0.59143209 -0.51681685
2.839633 -0.58284301 -0.516725
3.000176 -0.58784693 -0.5177232
3.0030389 -0.61451936 -0.5185104
3.1810279 -0.62149888 -0.51965857
3.3771236 -0.61439949 -0.52049583
3.5983598 -0.62217593 -0.52189869
3.6026924 -0.65368778 -0.52283478
2.7035091 -0.53384483 -0.51690131
2.8346119 -0.53226769 -0.51523429
2.9958971 -0.54798132 -0.51654643
3.1745036 -0.56538284 -0.51799953
3.3715138 -0.56996149 -0.51917922
3.5940404 -0.59076387 -0.5209654
2.7084935 -0.47620547 -0.51698577
2.8296173 -0.48194981 -0.51375127
2.9902165 -0.49506399 -0.51498443
3.168016 -0.50958282 -0.51634985
3.3659341 -0.5257445 -0.51786971
3.5875919 -0.54384494 -0.5195719
2.7124846 -0.43005234 -0.51705348
2.8246474 -0.43188739 -0.5122757
2.9845667 -0.44242898 -0.51343083
3.1599574 -0.44026384 -0.51430047
3.1631737 -0.4679291 -0.51511842
3.3585322 -0.46708015 -0.51613218
3.5790486 -0.48161632 -0.51772511
2.7154801 -0.39541525 -0.51710427
2.7174776 -0.3723118 -0.51713806
2.8197026 -0.38207838 -0.51080751
2.9789472 -0.39007381 -0.51188546
3.15675 -0.41267613 -0.5134849
3.3530083 -0.42329913 -0.51483554
3.5726764 -0.43518928 -0.51634735
2.7204759 -0.33763883 -0.51718897
2.8147831 -0.33252093 -0.5093469
2.973357 -0.33799639 -0.51034826
3.1519568 -0.37144876 -0.51226598
3.3475111 -0.3797335 -0.51354522
3.5642278 -0.3736414 -0.51452076
3.5684454 -0.40436712 -0.5154326
2.7244763 -0.29137838 -0.5172568
2.8098884 -0.28321314 -0.50789362
2.969183 -0.29911074 -0.50920045
3.1455956 -0.31673455 -0.51064837
3.3402178 -0.32193127 -0.51183331
3.5579281 -0.32774451 -0.51315874
2.7294807 -0.23350036 -0.51734161
2.8050179 -0.23415308 -0.50644761
2.9650276 -0.26039621 -0.50805777
3.1392698 -0.26232466 -0.50903976
3.332967 -0.26446846 -0.51013142
3.5516543 -0.28203818 -0.51180243
2.7344909 -0.17557007 -0.51742655
2.8001723 -0.18533893 -0.50500882
2.9595113 -0.20900357 -0.50654083
3.1329789 -0.20821667 -0.50744003
3.3275559 -0.22158191 -0.50886118
3.5454125 -0.23656829 -0.51045299
2.7374988 -0.14078486 -0.51747751
2.7965534 -0.14888102 -0.5039342
2.9553924 -0.17062806 -0.50540811
3.1090167 -0.16532378 -0.51638144
3.3239625 -0.19310246 -0.50801772
2.8643975 -1.1734293 0.28645104
3.148227 -1.194139 0.28427592
3.4870265 -1.2188601 0.2816796
2.6592066 -1.1379439 0.30309534
2.8685775 -1.137478 0.28672844
3.1529663 -1.1550256 0.28457642
3.4906561 -1.1902786 0.28189799
3.4942901 -1.1616691 0.28211659
2.6631358 -1.09254 0.30334252
2.8741586 -1.0894777 0.2870988
3.1592948 -1.1027964 0.28497761
3.497927 -1.1330318 0.28233537
2.668052 -1.0357341 0.30365172
2.8797495 -1.0413985 0.28746977
3.1640482 -1.0635662 0.28527889
3.5033901 -1.0900195 0.282664
2.6729722 -0.97887731 0.30396122
2.8853488 -0.99324048 0.28784135
3.1688085 -1.0242778 0.28558072
3.5106857 -1.0325762 0.28310287
2.6769123 -0.93335134 0.30420908
2.8909576 -0.94500345 0.28821349
3.1751652 -0.97181535 0.28598368
3.5161667 -0.98942339 0.28343257
2.680855 -0.88779026 0.30445707
2.8965757 -0.89668721 0.28858635
3.1815333 -0.91925877 0.28638741
3.5216565 -0.94620007 0.28376272
2.6848011 -0.84219444 0.30470529
2.9022031 -0.84829134 0.28895971
3.1879127 -0.86660814 0.28679183
3.5289879 -0.88847464 0.28420383
2.6897376 -0.78514826 0.3050158
2.9078395 -0.79981571 0.28933373
3.1943038 -0.81386334 0.28719699
3.5363338 -0.83063561 0.28464571
2.6946788 -0.72805113 0.30532661
2.9134853 -0.75126022 0.28970841
3.200706 -0.76102364 0.28760284
3.5418525 -0.78718519 0.2849777
2.6986356 -0.68233252 0.30557549
2.9191403 -0.70262474 0.29008365
3.2071197 -0.70808923 0.28800949
3.5473802 -0.74366361 0.28531018
2.7025948 -0.63657868 0.30582458
2.9248049 -0.65390891 0.29045948
3.2119372 -0.66832906 0.28831488
3.5547626 -0.68553936 0.28575426
2.7065578 -0.59078968 0.30607381
2.9304788 -0.60511267 0.29083601
3.2167621 -0.62850922 0.28862077
3.5603073 -0.64187443 0.28608784
2.7105231 -0.54496539 0.30632326
2.936162 -0.55623573 0.29121315
3.2232046 -0.57533646 0.28902918
3.565856 -0.59813643 0.28642154
2.7154846 -0.48763362 0.30663532
2.9418545 -0.50727779 0.2915909
3.2296591 -0.5220679 0.28943831
3.5732663 -0.53972322 0.2868672
2.7204506 -0.43025038 0.30694771
2.9475565 -0.45823887 0.29196927
3.2345076 -0.48205668 0.28974566
3.2377431 -0.45535031 0.28995085
3.5806911 -0.48119488 0.28731379
2.724427 -0.3843025 0.30719784
2.9532678 -0.40911868 0.29234824
3.2426007 -0.41524225 0.29025877
3.5862694 -0.43722633 0.28764924
2.7284064 -0.33831918 0.30744818
2.9589887 -0.35991693 0.29272789
3.2490838 -0.36168376 0.29066959
3.5899928 -0.40787533 0.28787315
3.5937195 -0.37849531 0.28809732
2.7323892 -0.29230037 0.30769867
2.9647193 -0.31063354 0.29310814
3.2555773 -0.30802852 0.29108113
3.599318 -0.33436725 0.28843406
2.7363746 -0.24624608 0.30794936
2.9704595 -0.26126826 0.29348904
3.2604551 -0.2677266 0.2913903
3.6049237 -0.29018095 0.28877118
2.7413607 -0.18862638 0.30826303
2.9762049 -0.2118203 0.29387024
3.2653406 -0.22736405 0.29169992
3.6105382 -0.2459216 0.28910884
2.7463517 -0.13095474 0.308577
2.9819582 -0.16228989 0.29425186
3.2718637 -0.17346619 0.29211339
3.618037 -0.18681167 0.28955984
2.7493489 -0.09632507 0.30876544
2.9862788 -0.1250906 0.29453847
3.4107933 -0.14824615 0.30298674
2.659668 -1.1377486 0.34898973
2.6635966 -1.0923576 0.34925434
2.6685112 -1.0355681 0.34958544
2.6734309 -0.97872812 0.34991688
2.6773694 -0.9332152 0.35018224
2.6813114 -0.88766754 0.3504478
2.6852562 -0.84208494 0.35071358
2.6901917 -0.7850554 0.35104614
2.6951318 -0.72797507 0.35137892
2.6990871 -0.68226981 0.35164544
2.7030458 -0.63652933 0.35191214
2.7070076 -0.59075367 0.35217899
2.7109714 -0.54494274 0.35244614
2.7159317 -0.4876278 0.35278028
2.7208967 -0.43026143 0.35311478
2.7248724 -0.38432702 0.35338262
2.7288504 -0.33835718 0.35365066
2.7328322 -0.29235205 0.35391891
2.7368164 -0.24631128 0.35418737
2.7418017 -0.18870854 0.35452321
2.7467914 -0.13105395 0.35485941
2.7497878 -0.096434519 0.35506126
3.3988755 -0.14692913 0.33014351
2.7442374 -0.1657446 0.40089947
2.7472312 -0.13115314 0.40111458
2.7502265 -0.096543878 0.40132982
3.3811622 -0.14497167 0.37050691
3.1668324 -2.0949357 0.45064715
3.1650853 -2.0653958 0.45029438
3.1624715 -2.0212026 0.44976658
2.9660277 -1.9568328 0.45069885
3.1589985 -1.9624712 0.44906518
2.9638417 -1.915326 0.45020074
3.1564019 -1.9185668 0.44854084
3.3713057 -1.906716 0.44649544
2.7873757 -1.8339657 0.45074469
2.9609351 -1.860154 0.44953865
3.1529522 -1.8602378 0.44784418
3.154675 -1.8893737 0.44819215
3.369252 -1.8757815 0.44612786
2.7855449 -1.7949066 0.45027402
2.9573169 -1.7914697 0.44871449
2.9587622 -1.8189029 0.44904363
3.1503737 -1.8166478 0.44732353
3.3661799 -1.8295082 0.44557822
2.6274025 -1.7239449 0.45078588
2.7831106 -1.7429798 0.44964832
2.9551544 -1.7504216 0.44822183
3.1469474 -1.7587172 0.44663161
3.3631163 -1.7833626 0.44503
2.6258667 -1.6870618 0.45033962
2.7806854 -1.6912341 0.44902465
2.95228 -1.6958585 0.44756708
3.1443863 -1.7154104 0.44611442
3.3600636 -1.7373763 0.44448376
2.6238246 -1.6380208 0.4497464
2.7782681 -1.6396694 0.44840321
2.9501309 -1.6550618 0.44707754
3.1418328 -1.6722443 0.4455989
3.3560064 -1.6762722 0.4437578
2.6224403 -1.589556 0.44925299
2.7758589 -1.5882843 0.44778389
2.947988 -1.6143904 0.44658938
3.0077627 -1.5825152 0.45429069
3.1384399 -1.6148758 0.44491372
3.1825454 -1.597137 0.45030063
3.3529744 -1.6306019 0.44321537
3.3764279 -1.6133567 0.44587457
3.5942369 -1.6321959 0.4411048
2.6417184 -1.5540568 0.45186725
2.7052162 -1.5572053 0.46119744
2.7986732 -1.5645211 0.45082587
2.8493884 -1.5692663 0.45790619
2.9519825 -1.5773221 0.44692689
2.6744597 -0.97839212 0.45321956
2.73208 -0.97891146 0.43832418
2.8995314 -0.99790716 0.43708935
3.0863733 -1.0191029 0.43571144
2.6783965 -0.93290925 0.45352438
2.7294188 -0.92988354 0.43768281
2.8964021 -0.94616461 0.43641543
3.0826824 -0.96432722 0.43500134
2.6823363 -0.88739133 0.45382944
2.7267675 -0.88103437 0.43704391
2.8932853 -0.89462084 0.43574399
3.0790069 -0.9097743 0.4342941
2.6862788 -0.84183854 0.45413467
2.7241256 -0.83236301 0.43640727
2.8901799 -0.84327489 0.43507522
3.0753467 -0.85544282 0.43358985
2.6912115 -0.78484672 0.45451653
2.7214937 -0.78386843 0.43577296
2.8870871 -0.79212558 0.43440902
3.0717008 -0.80133128 0.43288836
2.70751 -0.73167682 0.44501987
2.8840058 -0.7411719 0.43374532
3.0680699 -0.74743855 0.4321897
2.7081802 -0.68476719 0.4448581
2.8809364 -0.69041258 0.43308416
3.065356 -0.70715505 0.43166748
2.7088566 -0.63792711 0.4446975
2.8771155 -0.62722921 0.43226117
2.8786411 -0.65246397 0.4325898
3.0626509 -0.66700667 0.43114704
2.7095389 -0.59115601 0.44453818
2.8748322 -0.58947283 0.4317694
3.0590565 -0.61365497 0.43045533
2.7118685 -0.54489762 0.44461069
2.8717976 -0.53929013 0.43111569
3.0554764 -0.56051737 0.42976645
2.7168264 -0.4876163 0.44498897
2.8687744 -0.48929748 0.43046466
3.0519106 -0.50759274 0.4290804
2.7217882 -0.43028355 0.4453676
2.8657629 -0.43949386 0.42981586
3.0483592 -0.45487958 0.42839697
2.7257619 -0.38437611 0.44567075
2.8627622 -0.389878 0.4291696
3.0439389 -0.38927713 0.42754656
3.0457044 -0.41547626 0.42788628
2.7297382 -0.33843336 0.4459742
2.8597734 -0.34044904 0.42852581
3.0412993 -0.35008308 0.4270387
2.7337174 -0.29245517 0.44627786
2.8567958 -0.29120582 0.4278844
3.0377967 -0.29799822 0.42636418
2.7377002 -0.24644154 0.44658181
2.8530915 -0.22990619 0.42708626
2.854569 -0.2543889 0.42740482
3.0343084 -0.24611978 0.4256925
2.7426827 -0.18887272 0.44696197
2.8516166 -0.20546921 0.42676842
2.7476707 -0.13125226 0.44734257
2.7506657 -0.096653253 0.4475711
3.3520145 -0.14175062 0.43692592
3.3636103 -0.14303206 0.41050333
3.393132 -2.2354674 0.45040077
3.3878918 -2.1565299 0.44946307
3.3899846 -2.1880522 0.44983757
3.3858032 -2.1250741 0.44908941
3.3826795 -2.078022 0.44853044
3.3795643 -2.031101 0.44797301
3.3764601 -1.9843431 0.44741765
3.373364 -1.9377151 0.44686365
2.611382 -1.712278 0.49388367
3.6063683 -1.7948761 0.44302556
2.6142976 -1.6785986 0.4941223
3.6027157 -1.7458928 0.44244725
2.618187 -1.6336635 0.49444073
3.5990732 -1.6970532 0.44187057
2.6219115 -1.5923351 0.50993967
2.6222472 -1.5850545 0.47957924
2.8566694 -1.5729439 0.50805157
2.9054942 -1.5760367 0.49067903
2.9577646 -1.5801795 0.48571235
3.0137239 -1.5854281 0.49373749
3.0674903 -1.5888748 0.47527352
3.1272352 -1.5944512 0.48338777
3.186904 -1.5991936 0.47794002
3.2486525 -1.6041024 0.47231719
3.3149149 -1.6102561 0.48081338
3.3812349 -1.6155432 0.47502092
3.4499953 -1.6210259 0.46903154
3.5239065 -1.6278557 0.47794679
3.597353 -1.6491868 0.45662555
2.6405156 -1.5551372 0.49289709
2.7102368 -1.5598226 0.49711093
2.7546809 -1.5625821 0.48037815
2.8039763 -1.5672283 0.48782182
2.8530252 -1.5711031 0.48295543
2.9017487 -1.5741653 0.46521631
2.6748025 -0.97828043 0.48762259
2.6787386 -0.93280739 0.48794049
2.6826775 -0.88729954 0.48825863
2.6866198 -0.84175664 0.48857704
2.6915514 -0.7847771 0.48897532
2.6964877 -0.72774667 0.48937404
2.7004404 -0.6820814 0.48969334
2.704396 -0.63638115 0.49001282
2.7083545 -0.59064567 0.49033245
2.7123165 -0.54487514 0.49065241
2.7172732 -0.48761061 0.49105278
2.722234 -0.4302946 0.49145344
2.7262063 -0.3844007 0.49177429
2.7301817 -0.33847135 0.49209535
2.7341604 -0.29250678 0.49241668
2.738142 -0.24650665 0.49273822
2.7431231 -0.18895483 0.49314061
2.7481096 -0.13135128 0.4935433
2.7511036 -0.096762508 0.49378514
3.3347778 -0.13984585 0.47620317
2.6119723 -1.7118266 0.55083048
2.614887 -1.6781589 0.55108535
2.6187754 -1.6332405 0.5514254
2.6226661 -1.5882878 0.55176562
2.7633002 -1.5670291 0.5412733
2.8110709 -1.5708507 0.5373019
2.8603199 -1.5747879 0.5331946
2.9111288 -1.5788521 0.5289703
2.9600122 -1.580868 0.53668398
3.0197031 -1.5883502 0.533288
3.0757048 -1.5928432 0.52885348
3.1335886 -1.5974848 0.5242551
3.1934621 -1.6022885 0.51951391
3.2576849 -1.6083139 0.52872419
3.3219171 -1.6134812 0.52387607
3.3884733 -1.6188359 0.51886845
3.4599853 -1.6255132 0.52858102
3.531667 -1.6312968 0.52345395
3.6060934 -1.637303 0.51814842
2.6257033 -1.5544727 0.56342101
2.6449118 -1.5429087 0.54845405
2.6951632 -1.5418974 0.5450266
2.7598476 -1.5652479 0.51688004
2.8161793 -1.5359898 0.54999489
2.9581463 -1.5533966 0.54886746
3.1134176 -1.5724341 0.54763442
3.2848878 -1.5794525 0.54633367
3.4740984 -1.5871973 0.54489809
2.632524 -1.4756829 0.56402522
2.688179 -1.4851829 0.55116391
2.8193903 -1.4875593 0.55018139
2.9606709 -1.5154493 0.54901361
3.1169555 -1.5194677 0.54783833
3.2886155 -1.5238812 0.54654729
3.4780374 -1.5287517 0.54512274
2.6364255 -1.4306132 0.56437075
2.6912482 -1.4387355 0.5513429
2.8226016 -1.4391209 0.55036795
2.9640379 -1.464846 0.54920846
3.1204941 -1.4664921 0.54804206
3.2923439 -1.4682999 0.54676104
3.4809921 -1.4849106 0.5452913
2.6403298 -1.3855091 0.56471652
2.6943181 -1.3922811 0.55152184
2.8258133 -1.3906749 0.55055457
2.9674053 -1.4142339 0.54940319
3.1240332 -1.413507 0.54824597
3.2951407 -1.4266075 0.54692137
3.4839473 -1.4410625 0.54545975
2.644237 -1.340371 0.56506258
2.6973882 -1.3458195 0.55170077
2.829026 -1.3422211 0.5507412
2.9707735 -1.3636138 0.5495981
3.1275728 -1.3605126 0.54844981
3.2979379 -1.3849086 0.54708165
3.4878881 -1.3825885 0.54568452
2.6491256 -1.2838975 0.56549555
2.7012267 -1.2877319 0.55192471
2.8322389 -1.2937595 0.55092782
2.9741423 -1.3129848 0.549793
3.1311133 -1.3075088 0.54865372
3.3016679 -1.3293014 0.54729557
3.4908447 -1.3387262 0.54585314
2.6540182 -1.227374 0.56592888
2.7050657 -1.229634 0.55214852
2.8354523 -1.24529 0.5511145
2.9775114 -1.2623477 0.54998791
3.1346543 -1.254496 0.54885775
3.3044662 -1.2875898 0.54745597
2.6579361 -1.1821148 0.56627589
2.7081375 -1.1831474 0.55232757
2.8386664 -1.1968129 0.55130124
2.980881 -1.2117016 0.55018288
3.1373105 -1.2147304 0.54901081
2.6618569 -1.136821 0.56662309
2.71121 -1.1366537 0.5525068
2.841881 -1.1483281 0.55148792
2.9842517 -1.1610476 0.55037791
2.6657805 -1.0914929 0.56697059
2.714283 -1.0901527 0.55268598
2.8450959 -1.0998353 0.5516746
2.6706893 -1.0347817 0.5674054
2.7173562 -1.0436444 0.55286509
2.675374 -0.97809434 0.54492748
2.6793089 -0.93263763 0.54526722
2.6832461 -0.88714629 0.54560721
2.6871872 -0.84162021 0.54594743
2.6921175 -0.78466141 0.54637307
2.6970525 -0.72765177 0.54679918
2.7010036 -0.68200314 0.54714024
2.7049582 -0.63631958 0.54748178
2.7089155 -0.59060073 0.54782331
2.7128761 -0.54484701 0.54816532
2.7178314 -0.48760337 0.54859304
2.7227905 -0.43030846 0.5490213
2.7266507 -0.38442519 0.53785068
2.7306249 -0.33850941 0.53818941
2.7346027 -0.29255831 0.53852832
2.7385828 -0.24657169 0.53886771
2.7435634 -0.18903686 0.53929216
2.7485485 -0.1314503 0.53971696
2.7515414 -0.096871652 0.53997207
3.3064094 -0.13671088 0.54084593
3.3176959 -0.13795815 0.51512808
2.6124449 -1.7114657 0.59635717
2.6153586 -1.6778082 0.59662497
2.6192458 -1.6329025 0.59698218
2.6231358 -1.5879624 0.59733981
2.6276367 -1.5362228 0.6000309
2.6298337 -1.5093122 0.5865683
2.6328745 -1.4754632 0.59823483
2.636775 -1.4304032 0.59859335
2.6406789 -1.3853092 0.59895211
2.6445854 -1.3401805 0.59931123
2.6494727 -1.2837197 0.59976035
2.6543646 -1.2272083 0.60021001
2.6582818 -1.181959 0.60057002
2.6622019 -1.1366751 0.60093027
2.6661248 -1.0913565 0.60129076
2.6710329 -1.0346576 0.60174191
2.6759458 -0.97790849 0.60219342
2.6798785 -0.93246818 0.6025548
2.683815 -0.88699335 0.60291666
2.6877546 -0.84148371 0.60327864
2.6926832 -0.78454572 0.60373175
2.6976166 -0.72755688 0.60418504
2.7015669 -0.681925 0.6045481
2.7055199 -0.63625795 0.60491139
2.7094758 -0.59055597 0.60527498
2.7134352 -0.54481888 0.60563886
2.7183888 -0.48759618 0.60609418
2.7233469 -0.43032235 0.6065498
2.7272055 -0.3844558 0.59540677
2.7311788 -0.33855692 0.59576756
2.7351549 -0.29262266 0.59612852
2.7391341 -0.24665296 0.59648991
2.744113 -0.18913932 0.59694189
2.7490964 -0.13157395 0.59739429
2.7520885 -0.097008042 0.59766603
3.2896304 -0.1348567 0.57908016
2.6129167 -1.7111052 0.6418575
2.6158297 -1.6774571 0.64213824
2.6197157 -1.6325643 0.64251274
2.623605 -1.5876374 0.64288741
2.6280582 -1.5359429 0.64104056
2.6317565 -1.4939048 0.64746624
2.6343162 -1.463913 0.64391953
2.6372411 -1.4301234 0.6442014
2.6411438 -1.3850425 0.64457744
2.6450493 -1.3399268 0.64495379
2.6499357 -1.2834821 0.6454246
2.6548264 -1.2269871 0.64589584
2.6587427 -1.181751 0.64627326
2.6626613 -1.1364802 0.64665091
2.6665835 -1.0911748 0.6470288
2.6714904 -1.0344926 0.64750165
2.6764019 -0.97775966 0.64797491
2.6803339 -0.93233269 0.6483537
2.6842697 -0.8868711 0.64873296
2.6882076 -0.84137458 0.64911246
2.6931357 -0.78445327 0.64958733
2.6980677 -0.72748095 0.6500625
2.7020164 -0.68186235 0.65044296
2.7059689 -0.63620865 0.65082377
2.7099242 -0.59052008 0.65120494
2.7138827 -0.54479641 0.65158641
2.7188346 -0.48759055 0.65206361
2.7237914 -0.43033332 0.65254116
2.7277601 -0.38448647 0.65292364
2.7317319 -0.33860436 0.65330631
2.735707 -0.292687 0.65368932
2.7396853 -0.24673426 0.65407258
2.7446623 -0.18924166 0.65455222
2.749644 -0.13169749 0.65503228
2.7526355 -0.09714435 0.65532053
3.2620108 -0.13180451 0.64201683
3.2730002 -0.13301894 0.61697578
2.6133883 -1.7107449 0.6873315
2.6163003 -1.6771065 0.68762511
2.6201859 -1.6322266 0.68801671
2.6240742 -1.5873126 0.68840873
2.6279655 -1.5423644 0.68880093
2.632834 -1.4861292 0.68929166
2.6368484 -1.4410363 0.70107567
2.6379931 -1.4261131 0.68601876
2.6416087 -1.3847759 0.69017619
2.6455135 -1.3396734 0.69056994
2.6503983 -1.2832448 0.69106245
2.6552882 -1.2267665 0.69155526
2.6592031 -1.1815434 0.69194996
2.6631215 -1.1362855 0.6923449
2.6670423 -1.0909933 0.6927402
2.6719477 -1.0343273 0.69323462
2.6768579 -0.97761095 0.69372964
2.6807892 -0.93219727 0.69412589
2.6847236 -0.88674879 0.69452262
2.6886611 -0.84126562 0.69491941
2.6926017 -0.7957477 0.69531661
2.6975319 -0.73879921 0.69581354
2.7024667 -0.68179989 0.69631106
2.7064178 -0.63615954 0.69670928
2.710372 -0.59048438 0.69710803
2.714329 -0.54477394 0.69750684
2.7192802 -0.48758483 0.69800603
2.7242355 -0.4303444 0.69850552
2.7282035 -0.38451102 0.69890547
2.7321744 -0.33864233 0.69930583
2.7361481 -0.29273841 0.69970638
2.7401254 -0.24679917 0.70010734
2.7451012 -0.18932348 0.70060885
2.750082 -0.13179627 0.70111102
2.7530727 -0.097253323 0.7014125
3.245672 -0.12999894 0.67924917
2.6139774 -1.7102948 0.7441355
2.6168888 -1.6766686 0.7444452
2.6207736 -1.6318049 0.74485832
2.62466 -1.5869068 0.74527168
2.6285503 -1.5419748 0.7456854
2.6334174 -1.4857597 0.74620312
2.6382885 -1.4294949 0.74672133
2.6414456 -1.3955755 0.76980543
2.642338 -1.3822166 0.74260229
2.6459773 -1.33942 0.73615938
2.650861 -1.283008 0.73667353
2.6557496 -1.2265457 0.73718798
2.6596634 -1.1813357 0.73760003
2.6635804 -1.1360911 0.73801225
2.6675007 -1.090812 0.73842484
2.6724052 -1.0341624 0.73894107
2.677314 -0.97746253 0.73945779
2.6812444 -0.93206191 0.73987144
2.6851773 -0.8866266 0.74028528
2.6891141 -0.84115666 0.74069971
2.6930537 -0.79565191 0.74111438
2.697983 -0.73872006 0.74163318
2.7029161 -0.68173736 0.74215227
2.7068663 -0.63611048 0.74256819
2.7108195 -0.59044844 0.74298418
2.7147758 -0.54475147 0.74340057
2.7197256 -0.48757908 0.74392146
2.7246797 -0.43035543 0.744443
2.728647 -0.38453546 0.74486041
2.7326164 -0.33868024 0.7452783
2.7365897 -0.29278985 0.74569654
2.7405658 -0.24686407 0.74611491
2.7455404 -0.18940531 0.7466386
2.7505195 -0.13189499 0.74716264
2.7535095 -0.097362228 0.74747741
3.2187717 -0.12702627 0.74054658
3.2294753 -0.12820908 0.71615607
2.6145666 -1.7098453 0.80090123
2.6174772 -1.6762307 0.80122685
2.6213598 -1.6313832 0.80166149
2.6252458 -1.5865014 0.80209637
2.6291347 -1.5415853 0.8025316
2.6339998 -1.4853905 0.80307603
2.63887 -1.4291459 0.80362099
2.6427696 -1.3841101 0.80405736
2.6458116 -1.3502477 0.81576806
2.6467049 -1.3368747 0.78857577
2.650847 -1.2891761 0.79033166
2.6556211 -1.2347238 0.79695749
2.6602383 -1.1810764 0.79462385
2.6641543 -1.1358478 0.79505771
2.6680729 -1.0905852 0.79549205
2.6727021 -1.0367991 0.793154
2.677495 -0.9821251 0.79979432
2.6818125 -0.93189287 0.79701447
2.6857448 -0.88647401 0.79744995
2.6896799 -0.8410207 0.79788595
2.6936185 -0.79553246 0.79832238
2.6984334 -0.73864114 0.78742576
2.7033651 -0.6816749 0.78796679
2.7073145 -0.63606131 0.78840005
2.7112668 -0.59041262 0.78883356
2.7152221 -0.54472905 0.78926742
2.7201703 -0.4875733 0.78981024
2.7251236 -0.43036643 0.79035348
2.7290895 -0.38455993 0.79078853
2.7330587 -0.33871818 0.79122394
2.7370305 -0.29284126 0.79165959
2.7410054 -0.24692893 0.7920956
2.7459788 -0.18948708 0.79264116
2.7509568 -0.13199364 0.79318732
2.7539461 -0.097471058 0.79351515
3.2028551 -0.12526736 0.77681571
2.615037 -1.7094858 0.84628302
2.6179471 -1.6758809 0.84662151
2.621829 -1.6310461 0.84707326
2.6257143 -1.5861773 0.8475253
2.629602 -1.5412741 0.84797758
2.6344662 -1.4850954 0.84854358
2.6393349 -1.4288669 0.84911001
2.6432331 -1.3838443 0.84956366
2.646848 -1.3425224 0.85377264
2.647995 -1.3275813 0.83875257
2.6510386 -1.2936959 0.85047185
2.6559236 -1.2372814 0.85104012
2.6608124 -1.1808169 0.85160911
2.6647272 -1.135605 0.85206449
2.6686449 -1.0903586 0.85252041
2.6725659 -1.0450778 0.85297656
2.6774712 -0.98842615 0.85354722
2.6823807 -0.93172395 0.85411847
2.6863115 -0.88632166 0.85457587
2.6902454 -0.84088463 0.85503352
2.6941826 -0.79541302 0.85549152
2.6989961 -0.73854232 0.84462762
2.7039263 -0.68159693 0.84519577
2.7078745 -0.63599986 0.84565079
2.7118258 -0.59036791 0.84610617
2.7157798 -0.54470104 0.84656173
2.7207267 -0.4875662 0.84713197
2.725678 -0.43038025 0.84770244
2.7296426 -0.38459051 0.84815937
2.7336106 -0.33876553 0.84861666
2.737581 -0.29290536 0.8490743
2.741555 -0.24700995 0.84953213
2.746417 -0.18956879 0.83861685
2.7513938 -0.13209225 0.83918488
2.7543824 -0.097579814 0.83952588
3.1662841 -0.12122595 0.86014932
3.1818612 -0.12294734 0.82465452
2.6153901 -1.7092161 0.88030297
2.6178584 -1.6822321 0.89418679
2.6222978 -1.6307092 0.89245874
2.6261823 -1.5858532 0.89292789
2.630069 -1.5409632 0.89339745
2.634932 -1.4848007 0.89398462
2.6397991 -1.4285882 0.89457256
2.6436968 -1.3835784 0.89504343
2.6475973 -1.3385345 0.89551455
2.6512141 -1.2971944 0.89973885
2.6523614 -1.2822411 0.8847276
2.6563838 -1.2370577 0.89657587
2.6612718 -1.1806096 0.89716619
2.6651857 -1.1354108 0.89763898
2.6691024 -1.0901777 0.89811206
2.6730223 -1.0449096 0.8985855
2.6779261 -0.98827451 0.89917785
2.6828346 -0.93158877 0.89977068
2.6867645 -0.88619965 0.90024537
2.6906974 -0.84077597 0.90072036
2.694634 -0.79531747 0.90119576
2.6995583 -0.73844361 0.9017905
2.7044876 -0.68151903 0.90238595
2.7084343 -0.63593864 0.90286267
2.7123837 -0.59032327 0.90333962
2.7163367 -0.54467297 0.90381712
2.7212822 -0.48755905 0.90441442
2.7262323 -0.43039402 0.90501231
2.7301955 -0.38462099 0.90549111
2.7341616 -0.33881277 0.90597016
2.7381315 -0.2929695 0.90644968
2.7421038 -0.24709091 0.90692949
2.7469647 -0.18967083 0.89604712
2.75194 -0.13221546 0.89664257
2.7549276 -0.097715713 0.89700001
3.1508734 -0.11952294 0.89526629
2.6179168 -1.6863769 0.93721062
2.6227663 -1.6303725 0.93781793
2.6266496 -1.5855293 0.93830413
2.6305356 -1.540652 0.93879086
2.6353977 -1.4845058 0.93939954
2.6402638 -1.4283096 0.94000894
2.6441603 -1.3833128 0.9404968
2.6480596 -1.3382818 0.94098502
2.6519618 -1.2932162 0.94147378
2.6548905 -1.2593958 0.94184059
2.6578212 -1.2255538 0.9422074
2.661731 -1.1804025 0.94269693
2.6656437 -1.1352167 0.94318694
2.6695595 -1.0899966 0.94367719
2.6734779 -1.0447419 0.94416791
2.6783812 -0.98812288 0.9447819
2.6832883 -0.9314537 0.94539624
2.6872175 -0.88607788 0.94588828
2.6911497 -0.84066731 0.9463805
2.6950843 -0.79522198 0.94687343
2.7000077 -0.73836482 0.94748986
2.7049358 -0.68145669 0.94810677
2.7088814 -0.63588959 0.94860089
2.7128303 -0.59028751 0.94909537
2.7167821 -0.54465055 0.94959009
2.7217264 -0.48755336 0.95020932
2.726675 -0.43040502 0.95082897
2.7306378 -0.38464543 0.95132518
2.7346032 -0.33885071 0.95182168
2.7385712 -0.29302073 0.95231849
2.7425427 -0.24715562 0.95281595
2.7475123 -0.18977286 0.95343804
2.7524858 -0.13233855 0.95406091
2.7554722 -0.0978515 0.95443493
3.1254923 -0.11671816 0.95310152
3.1355932 -0.11783435 0.93008518
2.6185033 -1.6859361 0.99384475
2.6233516 -1.6299522 0.9944787
2.6272337 -1.5851247 0.99498612
2.6311185 -1.5402637 0.99549413
2.6359792 -1.4841377 0.99612957
2.6408434 -1.4279613 0.99676573
2.6447387 -1.3829808 0.99727494
2.6485219 -1.3380293 0.98642933
2.6524231 -1.292977 0.9869349
2.6569364 -1.241112 0.98979115
2.6591427 -1.2141079 0.97645158
2.6621897 -1.1801957 0.98820132
2.6661015 -1.135023 0.98870844
2.6700163 -1.0898159 0.98921591
2.6739337 -1.044574 0.98972386
2.6788354 -0.98797143 0.99035931
2.6837418 -0.93131888 0.99099523
2.6876698 -0.88595617 0.99150461
2.6916008 -0.84055871 0.99201411
2.6955349 -0.79512668 0.99252427
2.7004569 -0.7382859 0.99316245
2.7053838 -0.68139428 0.993801
2.7093287 -0.63584054 0.99431247
2.7132764 -0.59025186 0.99482429
2.717227 -0.5446282 0.99533653
2.7221704 -0.48754764 0.99597722
2.727118 -0.43041605 0.99661875
2.7310791 -0.38466981 0.99713236
2.7350438 -0.3388885 0.99764627
2.7390115 -0.29307207 0.99816078
2.7429821 -0.24722035 0.99867535
2.7479498 -0.18985437 0.99931955
2.7529221 -0.13243698 0.99996424
2.7559078 -0.097960033 1.0003513
3.1104691 -0.11505796 0.98733574
2.6190898 -1.6854957 1.0504405
2.6239367 -1.6295316 1.051101
2.6278172 -1.5847205 1.0516299
2.6317008 -1.5398754 1.0521591
2.63656 -1.4837695 1.0528214
2.6414232 -1.4276137 1.0534841
2.6453173 -1.3826493 1.0540149
2.6490986 -1.3377136 1.0431958
2.6529992 -1.2926775 1.0437233
2.6578789 -1.2363323 1.0443829
2.6623311 -1.1855539 1.0506594
2.6636255 -1.168703 1.03381
2.6666729 -1.1347806 1.0455717
2.6705873 -1.0895897 1.0461007
2.6745031 -1.0443645 1.04663
2.6794035 -0.98778266 1.0472925
2.6843078 -0.9311502 1.0479554
2.6879935 -0.88808405 1.0439026
2.6920519 -0.84045017 1.0376211
2.6959851 -0.79503137 1.0381486
2.7009063 -0.73820704 1.0388082
2.7058318 -0.68133223 1.0394685
2.7097754 -0.6357916 1.0399973
2.7137225 -0.59021622 1.0405266
2.7176719 -0.54460585 1.041056
2.7226138 -0.487542 1.0417186
2.7275603 -0.43042701 1.0423818
2.7315209 -0.38469422 1.0429128
2.7354839 -0.33892623 1.043444
2.7394507 -0.29312322 1.0439758
2.7434204 -0.24728496 1.044508
2.7483869 -0.18993588 1.045174
2.7533579 -0.13253532 1.0458405
2.7563429 -0.098068506 1.0462406
3.0906467 -0.11286743 1.0325044
2.6195588 -1.6851438 1.0956866
2.624404 -1.6291958 1.0963683
2.628284 -1.5843976 1.0969143
2.6321669 -1.5395654 1.0974606
2.6370244 -1.4834754 1.0981442
2.6418865 -1.4273356 1.0988283
2.6457794 -1.3823842 1.0993761
2.6496758 -1.3373984 1.0999243
2.6535749 -1.2923784 1.1004728
2.658453 -1.2360535 1.1011593
2.6633356 -1.1796788 1.1018462
2.6669574 -1.1382856 1.1061375
2.6681082 -1.1232969 1.0911723
2.6711571 -1.0893638 1.1029469
2.6750727 -1.0441551 1.1034979
2.6799715 -0.98759365 1.104187
