# .PCD v0.7 - Point Cloud Data file format
VERSION 0.7
FIELDS x y z
SIZE 4 4 4
TYPE F F F
COUNT 1 1 1
WIDTH 1509
HEIGHT 1
VIEWPOINT 0 0 0 1 0 0 0
POINTS 1509
DATA ascii
3.8274174 -0.59162891 0.3085548
3.2117388 -0.4817152 0.31754294
2.5603464 -4.2546878 0.33116323
2.5669179 -4.2078185 0.33154759
2.5734918 -4.1609335 0.33193213
2.5800686 -4.1140327 0.33231685
2.586647 -4.0671158 0.33270168
2.5932279 -4.0201831 0.33308664
2.5998106 -3.9732347 0.33347175
2.608043 -3.9145255 0.33395329
2.6162782 -3.8557932 0.33443502
2.622869 -3.8087888 0.33482057
2.6336105 -3.764246 0.33586755
2.6744747 -3.7499938 0.32962164
2.7247677 -3.7797394 0.36181909
2.7526672 -3.769542 0.3411229
2.8349106 -3.7901027 0.35321993
2.8647091 -3.7796409 0.33173493
2.9215279 -3.8117571 0.36596036
2.9688289 -3.7958329 0.33284211
3.0459077 -3.8239527 0.35696149
3.079535 -3.8131199 0.33412147
3.1797109 -3.8370728 0.34728083
3.2158771 -3.8259485 0.32347703
3.2857859 -3.8624363 0.36121511
3.3240497 -3.8512259 0.33683795
3.4388509 -3.878052 0.35101759
3.4802201 -3.8665392 0.32553893
2.7810283 -3.7591765 0.32008487
2.9593875 -1.5193913 0.35591766
3.0442765 -1.5308934 0.35617721
3.1258097 -1.5440286 0.34263414
3.1420312 -1.5420321 0.37039566
3.2286525 -1.5558661 0.35680455
3.3290043 -1.5694526 0.35718271
3.4353969 -1.5838685 0.35750809
3.5484955 -1.5991808 0.35793436
3.6688416 -1.6154872 0.35830241
2.9485795 -1.4858865 0.35387343
2.9552834 -1.4380749 0.3542656
2.9619896 -1.3902471 0.35465786
2.9686983 -1.3424031 0.35505027
2.975409 -1.2945424 0.35544288
2.9821224 -1.2466655 0.3558355
2.9888377 -1.1987722 0.35622832
2.9955552 -1.1508625 0.35662135
3.0022755 -1.1029364 0.35701439
3.0106788 -1.0430048 0.35750601
3.0190859 -0.98304921 0.35799772
3.0258133 -0.93506569 0.35839131
3.0325439 -0.88706571 0.358785
3.0392766 -0.83904922 0.35917884
3.0460119 -0.79101622 0.35957286
3.0527492 -0.74296659 0.35996699
3.059489 -0.69490075 0.36036116
3.066231 -0.64681846 0.36075556
3.0729749 -0.59871978 0.36115009
3.0797217 -0.55060416 0.36154476
3.0864704 -0.50247264 0.36193949
2.5610149 -4.255506 0.37890774
2.5675883 -4.2086267 0.37930036
2.5741637 -4.1617312 0.37969318
2.5807419 -4.11482 0.38008606
2.5873218 -4.0678926 0.38047898
2.5939043 -4.0209498 0.38087207
2.6004894 -3.9739907 0.3812654
2.6087229 -3.9152687 0.38175714
2.6169603 -3.8565233 0.38224918
2.6235528 -3.8095088 0.38264292
2.6703053 -3.7996449 0.40221936
2.7484455 -3.8204606 0.41556239
2.8604205 -3.8323288 0.4087446
2.9804249 -3.845048 0.40143788
3.109355 -3.8587134 0.39358765
3.2114091 -3.8842273 0.40859863
3.2482455 -3.8734348 0.38513097
3.3585324 -3.9004056 0.40048516
2.6283271 -3.7740598 0.37097847
2.6973169 -3.7897725 0.38218194
2.7767913 -3.8105085 0.395125
2.805609 -3.8003907 0.374347
2.890713 -3.8221309 0.38753536
3.0128763 -3.8345938 0.37939671
3.1442099 -3.8479929 0.37064707
3.3982964 -3.889339 0.37599471
3.0597177 -1.528886 0.38331094
3.245882 -1.5538652 0.38550076
2.9491518 -1.4860374 0.39004123
2.9558566 -1.4382179 0.3904396
2.9625645 -1.3903821 0.39083809
2.969274 -1.3425297 0.39123684
2.9759862 -1.2946609 0.39163569
2.9827008 -1.2467759 0.39203459
2.9894173 -1.1988745 0.39243376
2.996136 -1.1509566 0.39283291
3.0028574 -1.1030226 0.39323226
3.0112627 -1.0430809 0.39373177
3.019671 -0.98311508 0.39423129
3.0263999 -0.93512332 0.39463112
3.0331321 -0.88711506 0.39503109
3.0398657 -0.83909059 0.39543116
3.0466022 -0.79104942 0.39583153
3.0533407 -0.74299186 0.39623186
3.0600817 -0.6949178 0.39663246
3.0668252 -0.6468271 0.3970331
3.07357 -0.59872001 0.39743385
3.0864494 -0.5480659 0.4108867
3.1387322 -0.56023347 0.43185517
3.0872672 -0.50245166 0.41033825
2.5618513 -4.2565298 0.43861979
2.5684268 -4.2096376 0.43902248
2.5750046 -4.1627288 0.43942547
2.5815842 -4.1158047 0.4398286
2.588166 -4.0688643 0.44023186
2.5947502 -4.0219083 0.44063511
2.6013372 -3.9749365 0.44103873
2.6095738 -3.9161983 0.44154334
2.6178133 -3.8574369 0.44204816
2.6296327 -3.8177783 0.4275704
2.6931264 -3.8398836 0.45544869
2.720561 -3.830251 0.43566763
2.815994 -3.8472853 0.4398497
2.8864026 -3.8753374 0.46529824
2.9172025 -3.8654156 0.44437879
2.9485385 -3.8553207 0.4230952
3.0085025 -3.8897376 0.45996892
3.0583236 -3.8744106 0.42717573
3.1575184 -3.9000208 0.44293541
3.2813065 -3.9219162 0.44806486
3.3195426 -3.9112625 0.42450377
3.4343281 -3.9399662 0.44138753
3.4756689 -3.9290562 0.41679296
3.6064341 -2.2642217 0.47578865
3.605135 -2.2195194 0.47500971
3.434881 -2.1534815 0.4767116
3.6038389 -2.1749594 0.47423321
3.4336214 -2.0969601 0.4757202
3.6025493 -2.1305764 0.47345975
3.2783613 -2.0257998 0.47707614
3.2787938 -2.0527091 0.4775511
3.4326804 -2.0547299 0.4749794
3.6008358 -2.0716331 0.47243264
3.1360378 -1.9478031 0.47809055
3.2777147 -1.9855529 0.47636604
3.4314306 -1.998657 0.47399583
3.4320548 -2.0266616 0.47448704
3.5995557 -2.0276008 0.47166538
2.9916153 -1.3736814 0.46802491
3.0630195 -1.3840642 0.48118889
3.1381528 -1.3946849 0.46964169
3.3021224 -1.4172306 0.47193041
3.4832492 -1.4421355 0.47445872
3.6843748 -1.4697902 0.47726616
2.9912441 -1.3385936 0.46736386
3.1181734 -1.3615602 0.46563053
3.2558348 -1.3864685 0.46375057
2.9907517 -1.2919681 0.46648559
3.1173925 -1.3129988 0.46472025
3.2547181 -1.3358037 0.46280614
2.9902608 -1.2455314 0.46561083
3.1166153 -1.2646421 0.46381381
3.2536063 -1.2853616 0.46186578
2.9910755 -1.1989596 0.4649711
3.1158412 -1.2164887 0.46291137
3.2524998 -1.2351404 0.46092954
2.9972985 -1.1511455 0.46529421
3.1150701 -1.1685375 0.4620125
3.2513974 -1.1851391 0.45999739
3.0040226 -1.1031948 0.46570626
3.1141114 -1.108891 0.46089444
3.2503006 -1.1353558 0.45906937
3.0107481 -1.055228 0.46611822
3.1131573 -1.049535 0.45978194
3.2489359 -1.0734242 0.45791483
3.2494807 -1.0981537 0.45837578
3.0191596 -0.99524552 0.46663359
3.1123977 -1.0022811 0.45889625
3.2478502 -1.0241445 0.45699611
3.0275738 -0.93523896 0.46714899
3.1116412 -0.95522356 0.4580141
3.2464981 -0.96281129 0.45585266
3.0343077 -0.8872143 0.4675616
3.1108878 -0.90836138 0.45713574
3.2454226 -0.91399199 0.45494261
3.0410445 -0.83917338 0.46797431
3.1101377 -0.86169314 0.45626095
3.2443511 -0.86538339 0.45403641
3.0477831 -0.79111618 0.46838713
3.1092043 -0.80363852 0.45517281
3.2432847 -0.81698352 0.45313421
3.0545244 -0.74304217 0.46880004
3.1082752 -0.7458632 0.45408982
3.2422225 -0.76879162 0.45223582
3.0612674 -0.69495165 0.46921322
3.1075361 -0.69986463 0.45322767
3.2411649 -0.72080636 0.45134124
3.0680134 -0.6468448 0.46962646
3.1067996 -0.65405452 0.45236906
3.2401121 -0.67302591 0.4504506
3.090414 -0.60357678 0.46077681
3.2390654 -0.62544864 0.44956389
3.0877216 -0.55466563 0.45711568
3.1943803 -0.57217658 0.44131443
3.2382836 -0.58989197 0.44890136
3.0880647 -0.50243056 0.4587591
2.5626879 -4.2575536 0.49836278
2.5692654 -4.2106485 0.49877584
2.5758448 -4.1637273 0.49918905
2.5824265 -4.1167898 0.49960238
2.5890114 -4.0698366 0.50001585
2.5955973 -4.0228677 0.50042951
2.602186 -3.9758828 0.50084323
2.6104248 -3.9171281 0.50136065
2.6235213 -3.8614206 0.50289261
2.6661303 -3.8493619 0.47491327
2.7058382 -3.8742757 0.50742108
2.758384 -3.8666801 0.48018566
2.8242683 -3.8934147 0.50566256
2.8561323 -3.8850954 0.48586389
2.9588325 -3.8992045 0.49591395
3.0707567 -3.9254687 0.4982366
3.0996246 -3.9125254 0.48926318
3.2069857 -3.942625 0.49386171
3.2438896 -3.9325104 0.48553136
3.3540647 -3.9611478 0.48913842
3.4002976 -3.9541855 0.48149163
2.6254346 -3.8114901 0.51426417
2.7168157 -3.8284085 0.50871861
2.8356919 -3.8457747 0.50697458
2.9675639 -3.85255 0.50558251
3.106122 -3.8722515 0.50355363
3.2563126 -3.8936069 0.50135434
3.4196665 -3.9168348 0.49896261
2.7080836 -3.2220972 0.51947993
2.7671192 -3.2204914 0.50716132
2.8851616 -3.2409277 0.50552619
3.0123954 -3.2629554 0.50376374
3.1497881 -3.272507 0.50160539
3.2988508 -3.2977128 0.49952975
3.4610455 -3.3251395 0.49727127
2.7147107 -3.1748376 0.51989818
2.7673407 -3.1698585 0.50624979
2.8851519 -3.1883597 0.50458384
3.0121164 -3.2082989 0.50278848
3.1493449 -3.2298498 0.500848
3.2981327 -3.2532163 0.49874413
3.460007 -3.2786374 0.49645516
2.7213402 -3.1275618 0.52031648
2.7675612 -3.1194232 0.50534177
2.8851399 -3.1229432 0.50341123
2.8851445 -3.1490672 0.50387949
3.0118396 -3.1538727 0.50181752
3.1487563 -3.1731813 0.49984205
3.2971807 -3.194113 0.49770066
3.4586263 -3.216881 0.49537134
2.7279718 -3.0802701 0.52073509
2.767781 -3.0691845 0.50443739
2.8851328 -3.0838618 0.50271058
3.0116324 -3.1131959 0.5010916
3.1483164 -3.1308348 0.49909028
3.2964685 -3.1499536 0.496921
3.4575958 -3.170747 0.49456179
2.7346058 -3.0329623 0.52115369
2.7680004 -3.0191414 0.50353646
2.8851256 -3.0448864 0.50201207
3.011426 -3.0726612 0.50036836
3.1478779 -3.0886421 0.49834135
3.2957592 -3.105962 0.49614426
3.456569 -3.1247959 0.49375534
2.7412417 -2.9856381 0.52157253
2.7682185 -2.9692926 0.50263906
2.8851185 -3.0060415 0.50131565
3.0111523 -3.0188036 0.49940753
3.1472957 -3.0325894 0.49734625
3.2948172 -3.0475276 0.49511266
3.4552054 -3.0637686 0.49268425
2.7495401 -2.9264596 0.52209616
2.7684357 -2.919637 0.5017451
2.8851089 -2.9544215 0.50039041
3.0108788 -2.9651709 0.49845055
3.1467159 -2.9767802 0.49635547
3.2938797 -2.9893577 0.49408564
3.4541867 -3.0181787 0.49188429
2.7614632 -2.8641155 0.51529092
2.7685983 -2.8825152 0.50107682
2.8850996 -2.9030092 0.4994688
3.0106065 -2.9117615 0.49749756
3.1461387 -2.9212129 0.49536902
3.2931793 -2.945895 0.49331838
3.453172 -2.9727678 0.49108726
2.7666767 -2.8203888 0.5115034
2.8850899 -2.8518028 0.49855086
3.0103362 -2.8585746 0.49654868
3.1455641 -2.865886 0.49438679
3.2924812 -2.902595 0.49255389
3.4518244 -2.9124575 0.49002886
2.7707722 -2.7722356 0.49942464
2.8850806 -2.800801 0.49763665
3.0100665 -2.8056083 0.49560368
3.1451349 -2.8245401 0.49365291
3.2915537 -2.8450785 0.49153835
3.4508176 -2.8674018 0.48923811
2.77742 -2.7248282 0.49984014
2.8850691 -2.7373285 0.49649885
2.8850739 -2.762677 0.49695334
3.0097978 -2.7528613 0.49466258
3.1447062 -2.7833426 0.49292147
3.2906308 -2.7878203 0.49052745
3.449815 -2.8225222 0.48845053
3.6228704 -2.8291783 0.48563549
2.7840698 -2.6774046 0.5002557
2.8850622 -2.6994069 0.49581915
3.0095298 -2.7003326 0.49372524
3.1441381 -2.72861 0.49194986
3.2899413 -2.7450368 0.48977217
3.448483 -2.7629158 0.48740444
3.6215079 -2.7824097 0.4848201
2.7907224 -2.6299648 0.50067145
2.8850529 -2.6490121 0.49491581
3.009264 -2.6480205 0.49279195
3.1435719 -2.6741121 0.49098235
3.2892542 -2.7024131 0.48901957
3.4471571 -2.7035878 0.4863632
3.6201513 -2.7358315 0.4840081
2.7973771 -2.5825088 0.50108731
2.8850436 -2.5988171 0.49401608
3.0089984 -2.5959237 0.49186236
3.143008 -2.6198475 0.49001899
3.2883415 -2.645793 0.48801994
3.4461672 -2.6592646 0.48558545
3.618799 -2.6894047 0.48319858
2.8040335 -2.5350368 0.50150329
2.8850343 -2.5488207 0.49311978
3.0088003 -2.5569851 0.49116766
3.1424468 -2.565815 0.4890599
3.2874329 -2.5894248 0.48702478
3.4451802 -2.6151128 0.4848105
3.6174524 -2.6431661 0.48239246
2.810693 -2.4875486 0.50191945
2.885025 -2.499022 0.49222726
3.0086029 -2.5181797 0.49047527
3.1418879 -2.512013 0.48810473
3.2865283 -2.5333076 0.48603398
3.4438703 -2.5564718 0.4837814
3.6156647 -2.581764 0.48132205
2.8173544 -2.4400439 0.50233567
2.8850157 -2.4494195 0.49133804
3.0083401 -2.4666154 0.48955527
3.1414704 -2.4718049 0.48739097
3.285852 -2.491375 0.4852936
3.4428911 -2.5126607 0.48301256
3.6143312 -2.5358984 0.48052272
2.8256841 -2.3806398 0.50285619
2.8850071 -2.4000125 0.49045238
3.0080786 -2.415262 0.48863894
3.1410544 -2.4317389 0.4866797
3.2851789 -2.4495971 0.48455605
3.4419155 -2.4690185 0.48224664
3.6130037 -2.4902179 0.47972676
2.8340175 -2.3212118 0.50337696
2.8849933 -2.3262651 0.48913044
2.8850002 -2.3630784 0.48979032
3.0078185 -2.3641181 0.48772648
3.1405013 -2.3785067 0.48573464
3.2840614 -2.380255 0.4833318
3.2845075 -2.4079428 0.48382071
3.4406219 -2.4110525 0.48122957
3.6112401 -2.4295549 0.47866973
2.840687 -2.2736506 0.50379384
2.8849843 -2.2773409 0.48825341
3.0075593 -2.3131826 0.48681769
3.1398132 -2.3122761 0.48455894
3.1400878 -2.3387234 0.48502842
3.2833934 -2.3388453 0.48260078
3.4390152 -2.3389621 0.47996503
3.4396567 -2.3677452 0.48046979
3.6099226 -2.3842404 0.47788003
2.8473585 -2.2260733 0.50421065
2.8849752 -2.2286077 0.48737988
3.0073006 -2.2624536 0.48591259
3.1394026 -2.2727168 0.48385665
3.2825069 -2.2838349 0.48162964
3.438375 -2.3102453 0.47946122
3.6086109 -2.3391073 0.47709364
2.8540325 -2.1784794 0.50462776
2.8849666 -2.1800647 0.48650974
3.0070436 -2.2119305 0.4850111
3.1388564 -2.2201564 0.4829236
3.2816269 -2.2290661 0.48066306
3.437418 -2.2673013 0.47870806
3.6073029 -2.2941184 0.47630966
2.8607087 -2.1308696 0.50504494
2.8849573 -2.1317108 0.48564297
3.0067873 -2.1616118 0.48411334
3.1383128 -2.1678171 0.48199436
3.2809696 -2.1881397 0.47994092
3.436147 -2.2102613 0.47770754
2.8673868 -2.0832434 0.50546235
2.8849483 -2.0835447 0.48477957
3.0065322 -2.1114964 0.48321921
3.137773 -2.1156976 0.48106951
3.280314 -2.1473625 0.47922125
2.8740678 -2.0356009 0.50587988
2.8849397 -2.0355654 0.48391953
3.0062778 -2.0615828 0.48232862
3.1372366 -2.0637965 0.48014858
3.279444 -2.0931904 0.47826537
2.8807507 -1.9879422 0.50629747
2.8849311 -1.9877719 0.48306277
3.0060253 -2.0118699 0.4814418
3.1367023 -2.0121121 0.47923157
2.8866293 -1.9441397 0.49061283
2.8891077 -1.9283463 0.50681967
3.0057759 -1.9623566 0.48055872
3.1363027 -1.9734838 0.47854611
2.9923475 -1.3737866 0.50456828
3.0665092 -1.3836735 0.51908141
3.141804 -1.3942962 0.50840718
3.2206995 -1.4054269 0.49722257
3.3061378 -1.4168473 0.51262838
3.3931892 -1.4291127 0.50097913
3.4876871 -1.4417611 0.51729172
3.5842268 -1.4553457 0.50513965
3.6876619 -1.4695494 0.50738609
3.7969749 -1.4845603 0.50977284
2.9710026 -1.3429099 0.49987274
2.9777188 -1.2950169 0.50029045
2.9844368 -1.2471079 0.50070816
2.9911573 -1.199182 0.50112605
2.9978802 -1.1512399 0.50154406
3.0046051 -1.1032811 0.5019623
3.0113325 -1.0553063 0.50238067
3.0197451 -0.99531364 0.5029037
3.028161 -0.9352966 0.50342709
3.0348964 -0.88726407 0.50384599
3.0416341 -0.83921498 0.50426501
3.0483739 -0.79114914 0.50468409
3.0551162 -0.74306732 0.50510329
3.0618608 -0.6949687 0.50552279
3.068608 -0.64685339 0.5059424
3.0753574 -0.59872222 0.50636202
3.082109 -0.55057406 0.50678194
3.0888624 -0.50240952 0.50720185
2.5633581 -4.2583737 0.54618222
2.5699368 -4.2114577 0.5466035
2.5765178 -4.164526 0.54702485
2.5831013 -4.117579 0.54744643
2.5896871 -4.0706153 0.54786807
2.5962751 -4.0236354 0.54828995
2.6028652 -3.9766402 0.5487119
2.6111059 -3.9178724 0.54923958
2.6193504 -3.859082 0.54976749
2.6259489 -3.812031 0.55019009
2.6685398 -3.799403 0.53493077
2.7239325 -3.8066633 0.54662031
2.7833719 -3.8152409 0.53411305
2.8429253 -3.8230612 0.54622287
2.9069204 -3.8322809 0.53323317
2.9711211 -3.8407266 0.54579455
3.040216 -3.8506656 0.53228396
3.1096306 -3.8598139 0.54533184
3.1844597 -3.8705599 0.53125662
3.2597508 -3.8805013 0.54483026
3.3396306 -3.8915086 0.54456919
3.3424866 -3.8928084 0.51571357
3.4230053 -3.9029982 0.54428494
2.7086122 -3.2225397 0.55548286
2.7152407 -3.1752725 0.55590731
2.7218709 -3.1279888 0.55633187
2.7285042 -3.0806892 0.5567565
2.7351391 -3.0333731 0.55718136
2.7417765 -2.9860411 0.55760634
2.7500765 -2.9268527 0.55813795
2.7583792 -2.8676407 0.55866951
2.7650251 -2.8202524 0.55909503
2.7714922 -2.7727256 0.54750007
2.7781417 -2.7253075 0.5479238
2.7847936 -2.6778731 0.54834753
2.7914476 -2.6304231 0.54877156
2.7981036 -2.5829566 0.54919577
2.8047621 -2.5354736 0.54962003
2.8114226 -2.4879746 0.55004442
2.8180854 -2.4404595 0.55046904
2.8247504 -2.3929281 0.55089378
2.8330858 -2.3334906 0.55142498
2.8414235 -2.274029 0.55195624
2.8480976 -2.2264409 0.55238152
2.8547728 -2.1788366 0.55280685
2.8614504 -2.1312158 0.55323249
2.8681312 -2.0835791 0.55365807
2.8744044 -2.0382767 0.54924083
2.8806915 -1.9921248 0.53840059
2.8831687 -1.976337 0.5546146
2.8879976 -1.9404948 0.54287803
3.2593524 -1.8801228 0.57885742
3.3898344 -1.8892044 0.57695919
3.529254 -1.9132847 0.57494837
3.2637739 -1.8271041 0.57872844
3.3932052 -1.847953 0.57685989
3.5326793 -1.8704195 0.57484627
3.6834121 -1.8946998 0.57267016
3.2681897 -1.7741573 0.57859957
3.3976943 -1.7930155 0.57672745
3.5372396 -1.8133358 0.57471025
3.6880419 -1.8352952 0.57253027
3.2714977 -1.7344923 0.57850301
3.401057 -1.7518609 0.57662827
3.5406566 -1.7705753 0.57460839
3.6915102 -1.7907985 0.5724256
3.1541815 -1.680092 0.58015364
3.274802 -1.6948721 0.57840657
3.4044158 -1.7107545 0.57652926
3.5440688 -1.727867 0.57450658
3.6949737 -1.746358 0.57232094
3.1585088 -1.629164 0.58002853
3.2803018 -1.6289222 0.57824606
3.2781031 -1.6552879 0.57831031
3.4088893 -1.6560104 0.57639742
3.5486128 -1.6709919 0.57437104
3.6995847 -1.6871797 0.57218134
3.1628301 -1.578303 0.5799036
3.283597 -1.5894096 0.57814997
3.4133565 -1.6013434 0.57626575
3.5531485 -1.6142002 0.57423538
3.7041824 -1.6280918 0.57204098
3.0565135 -1.4943312 0.58135736
3.1671457 -1.5275084 0.57977867
3.2879858 -1.5367856 0.57802188
3.4178145 -1.5467535 0.57613373
3.5565419 -1.5716588 0.57413304
3.7076254 -1.5838323 0.57193565
3.0607481 -1.4453365 0.58123583
3.1714556 -1.4767802 0.57965416
3.2923648 -1.4842335 0.5778932
3.4222615 -1.492241 0.57600105
3.5599315 -1.5291692 0.57403082
3.7110641 -1.5396289 0.57183051
2.9968038 -1.373263 0.55402344
3.0666521 -1.3920296 0.57309067
3.1466825 -1.3937767 0.56021595
3.1757562 -1.4261191 0.57952887
3.2258093 -1.4049109 0.55025589
3.2967348 -1.4317528 0.57776421
3.3101599 -1.4164636 0.55340636
3.3988216 -1.4286065 0.55672807
3.4255931 -1.4514047 0.57590163
3.4921319 -1.4413861 0.56021327
3.5725982 -1.4667162 0.56565791
3.6925983 -1.469188 0.55266434
3.7145 -1.4954702 0.57172555
3.8021896 -1.4842074 0.55632937
2.9717722 -1.343079 0.54819065
2.9784896 -1.2951754 0.54861677
2.9852092 -1.2472552 0.54904276
2.9919312 -1.1993185 0.54946905
2.9986558 -1.1513656 0.54989541
3.0053823 -1.1033961 0.55032206
3.0121114 -1.0554103 0.55074871
3.0205259 -0.99540395 0.55128241
3.0289438 -0.93537366 0.55181628
3.0356812 -0.88733023 0.55224341
3.0424204 -0.83927035 0.55267084
3.0491619 -0.79119372 0.55309832
3.0559065 -0.74310094 0.55352604
3.0626526 -0.69499147 0.55395383
3.0694013 -0.64686537 0.55438185
3.0761518 -0.59872305 0.55480987
3.0829051 -0.55056399 0.55523813
3.0896606 -0.50238848 0.55566657
2.564028 -4.2591934 0.59402305
2.5706084 -4.2122674 0.59445256
2.5771911 -4.1653256 0.59488213
2.5837765 -4.1183677 0.59531194
2.5903637 -4.0713935 0.59574181
2.5969529 -4.024404 0.59617186
2.6035447 -3.9773979 0.59660202
2.6117876 -3.9186172 0.59714001
2.620034 -3.8598137 0.59767824
2.6266339 -3.812752 0.59810889
2.7802818 -3.8136559 0.57102883
2.8397171 -3.8214388 0.58380008
2.902473 -3.8300645 0.58429796
2.9664979 -3.8384564 0.5978092
3.0353994 -3.8483348 0.58536148
3.1046154 -3.8574231 0.59943616
3.1792266 -3.868103 0.58651215
3.2542913 -3.8779769 0.60119909
3.3353527 -3.8895617 0.58776098
3.4185312 -3.9009936 0.58843213
2.6647151 -3.7973855 0.58239561
2.7199674 -3.8046007 0.59490466
2.7782249 -3.8126006 0.59559518
2.8375826 -3.8203592 0.60880595
2.7109749 -3.2113128 0.60361302
2.7159479 -3.1758523 0.60393757
2.7225795 -3.1285579 0.6043703
2.729214 -3.0812478 0.60480326
2.7358508 -3.0339212 0.60523653
2.7424896 -2.9865789 0.60566968
2.7507915 -2.9273772 0.60621154
2.7590971 -2.8681521 0.60675353
2.7657437 -2.8207531 0.60718739
2.772393 -2.7733381 0.60762119
2.7790444 -2.7259068 0.60805529
2.7856979 -2.6784594 0.60848957
2.7923541 -2.6309958 0.60892397
2.7990122 -2.5835161 0.60935843
2.8056726 -2.53602 0.60979319
2.8123353 -2.4885077 0.61022788
2.8190007 -2.4409795 0.610663
2.8256674 -2.3934348 0.61109811
2.8340049 -2.3339803 0.61164224
2.842346 -2.2745023 0.61218655
2.8490212 -2.2269008 0.61262214
2.8556991 -2.1792829 0.61305803
2.8623791 -2.131649 0.61349392
2.8684421 -2.0879426 0.60987413
2.8709178 -2.0721674 0.62609756
2.8759677 -2.0339003 0.60715276
2.8822453 -1.9885709 0.60274225
2.8889337 -1.9408745 0.60317665
2.9023564 -1.8929338 0.60508543
3.0213733 -1.9009147 0.58236492
3.1357284 -1.8972803 0.58068717
2.9082205 -1.8451453 0.60533673
3.0245831 -1.8637782 0.58227295
3.1389918 -1.8588666 0.58059281
2.9140844 -1.7973655 0.6055882
3.0288582 -1.8143154 0.58215034
3.1433389 -1.8077041 0.5804671
2.920193 -1.7407352 0.6087085
3.0331273 -1.7649152 0.58202785
3.1476803 -1.756609 0.58034164
2.9290929 -1.6829605 0.60296589
3.0373914 -1.7155776 0.5819056
3.1509326 -1.7183294 0.58024758
2.9346073 -1.6302044 0.60646957
3.0427136 -1.6539971 0.58175302
2.9404702 -1.5824634 0.6067217
3.0480282 -1.5925074 0.58160067
2.9463339 -1.5347309 0.60697395
3.0522735 -1.5433882 0.58147889
2.9525893 -1.4869438 0.60731143
2.9593015 -1.4390758 0.60774738
2.9660168 -1.3911912 0.60818356
2.9725418 -1.3432482 0.59653038
2.9792609 -1.2953337 0.59696478
2.9859824 -1.2474028 0.59739929
2.9927056 -1.1994555 0.59783393
2.9994316 -1.1514915 0.59826875
3.00616 -1.1035115 0.59870368
3.0128913 -1.0555145 0.59913886
3.0213072 -0.99549466 0.59968293
3.0297277 -0.93545091 0.6002273
3.0364666 -0.88739628 0.60066289
3.0432072 -0.83932543 0.6010986
3.0499511 -0.79123843 0.60153455
3.0566964 -0.74313432 0.60197067
3.0634439 -0.695014 0.60240686
3.0701945 -0.64687735 0.60284323
3.0769475 -0.59872383 0.60327977
3.0837023 -0.5505541 0.60371643
3.0904593 -0.50236762 0.60415322
2.5646982 -4.2600141 0.64188534
2.5712807 -4.2130775 0.64232296
2.5778646 -4.1661248 0.64276081
2.5844514 -4.1191568 0.64319885
2.5910401 -4.0721722 0.64363688
2.5976315 -4.0251722 0.64407516
2.6058738 -3.9663987 0.64462322
2.6141191 -3.9076021 0.64517152
2.620718 -3.8605456 0.64561033
2.6273193 -3.8134735 0.64604926
3.0317912 -3.8465884 0.6250723
3.1753047 -3.8662612 0.62784779
3.3289161 -3.8864918 0.63041341
3.4155493 -3.8996572 0.61779928
2.6340947 -3.7665637 0.65847826
2.6584589 -3.7853324 0.63291818
2.7170002 -3.8030567 0.63103825
2.7610805 -3.7939339 0.63283783
2.8354475 -3.8192794 0.63377666
2.8564215 -3.7905128 0.63788867
2.8991439 -3.8284054 0.62250704
2.9613183 -3.8217309 0.63602221
3.0780978 -3.828711 0.63452423
3.2030234 -3.8361785 0.63292181
3.3342891 -3.8582962 0.63094014
3.4753323 -3.8820541 0.62881082
2.6407006 -3.7194567 0.65891957
2.6671953 -3.7219415 0.64151156
2.7622097 -3.7372222 0.64009243
2.8654513 -3.7410982 0.63881618
2.9707241 -3.7707491 0.63697803
3.0879195 -3.7760162 0.6355111
3.210726 -3.7952945 0.6336866
3.3423584 -3.8159521 0.63173115
3.486625 -3.8235042 0.6299029
2.6473088 -3.6723342 0.659361
2.6776483 -3.6637216 0.64260662
2.7708979 -3.6892445 0.64099401
2.874496 -3.6916063 0.63974512
2.9801457 -3.7196851 0.6379354
3.0977573 -3.7232327 0.63649964
3.2184398 -3.7543509 0.6344524
3.353133 -3.759408 0.63278735
3.4951081 -3.7795234 0.63072336
2.6539197 -3.6251955 0.6598025
2.6860244 -3.6170647 0.64348429
2.7795997 -3.6411936 0.64189684
2.8835545 -3.6420357 0.6406756
2.9895828 -3.6685379 0.6388945
3.1076124 -3.6703603 0.63748986
3.2287397 -3.699681 0.6354751
3.3639271 -3.7027621 0.63384545
3.5036047 -3.7354736 0.63154501
2.6605322 -3.5780406 0.66024435
2.6944137 -3.5703392 0.64436299
2.7883143 -3.5930693 0.64280105
2.8926272 -3.592387 0.64160758
2.9990354 -3.6173069 0.63985503
3.1150136 -3.6306503 0.63823348
3.2390575 -3.6449153 0.63649946
3.3720353 -3.6602142 0.63464028
3.5149508 -3.6766496 0.63264221
2.6671474 -3.5308697 0.66068614
2.7028148 -3.5235441 0.64524305
2.7970426 -3.5448713 0.64370668
2.9017146 -3.5426602 0.64254093
3.008503 -3.5659928 0.64081722
3.1224258 -3.5908844 0.6389783
3.2493935 -3.5900545 0.63752556
3.3801553 -3.6176019 0.6354363
3.5234737 -3.6324623 0.63346654
2.6754193 -3.4718831 0.66123873
2.7112284 -3.4766793 0.64612442
2.805784 -3.4965994 0.64461368
2.9108162 -3.4928546 0.64347589
3.0179863 -3.5145953 0.64178097
3.1323221 -3.5377893 0.63997269
3.2571566 -3.5488489 0.63829631
3.3909988 -3.5607004 0.63649923
3.5291626 -3.6029675 0.63401669
2.6836946 -3.4128728 0.66179162
2.7196553 -3.429745 0.64700723
2.8145392 -3.4482534 0.64552218
2.9199324 -3.4429708 0.64441216
3.0274849 -3.4631133 0.64274621
3.1397548 -3.4979119 0.64071953
3.1447158 -3.4712973 0.64121795
3.2649307 -3.5075836 0.63906819
3.3991404 -3.5179584 0.63729703
2.6903176 -3.3656459 0.66223401
2.7280939 -3.3827407 0.64789134
2.8233075 -3.3998334 0.64643192
2.9290628 -3.3930075 0.6453501
3.0369992 -3.4115477 0.64371306
3.1496804 -3.4446595 0.64171696
2.6969426 -3.3184028 0.66267657
2.7365453 -3.3356664 0.64877671
2.8320892 -3.3513391 0.6473431
2.9382074 -3.3429649 0.64628923
2.7035704 -3.2711439 0.66311932
2.7450092 -3.2885218 0.64966333
2.8408844 -3.3027701 0.64825571
2.7106345 -3.2198303 0.65558958
2.7513652 -3.2531197 0.65032923
2.7166543 -3.1764324 0.6519894
2.7232885 -3.1291275 0.65243053
2.7299247 -3.0818069 0.65287173
2.7365627 -3.0344696 0.65331316
2.7432036 -2.9871168 0.65375471
2.7515073 -2.9279022 0.65430683
2.759815 -2.8686638 0.6548593
2.766463 -2.8212543 0.65530127
2.7731137 -2.7738283 0.65574354
2.779767 -2.7263865 0.65618593
2.786422 -2.6789284 0.65662849
2.7930799 -2.6314542 0.65707111
2.7997394 -2.5839639 0.65751404
2.806402 -2.5364573 0.65795696
2.813066 -2.4889345 0.65840012
2.8197329 -2.4413955 0.65884346
2.8264017 -2.3938401 0.65928686
2.8347416 -2.3343725 0.6598413
2.8430843 -2.2748809 0.66039616
2.849761 -2.2272687 0.66084009
2.8564401 -2.1796403 0.66128421
2.8612652 -2.1438215 0.64955658
2.8637407 -2.1280539 0.66578573
2.8698058 -2.0843349 0.66217291
2.8764913 -2.0366576 0.66261756
2.8831794 -1.9889641 0.66306221
2.8898704 -1.9412543 0.6635071
2.8965633 -1.893528 0.66395217
2.9032583 -1.8457856 0.6643973
2.909956 -1.7980268 0.66484267
2.9166558 -1.7502518 0.66528815
2.9250338 -1.6905088 0.66584527
2.9334154 -1.6307423 0.66640258
2.9401231 -1.5829099 0.6668486
2.9468331 -1.5350612 0.66729474
2.9535456 -1.4871961 0.66774106
2.9602604 -1.4393146 0.6681875
2.9669771 -1.3914165 0.66863418
2.9735043 -1.3434598 0.65698689
2.9802253 -1.2955316 0.65743184
2.9869487 -1.2475873 0.65787673
2.993674 -1.1996264 0.65832192
3.0004025 -1.151649 0.65876728
3.007133 -1.1036552 0.65921265
3.0138655 -1.0556452 0.65965831
3.0212665 -1.0024648 0.65669173
3.0294929 -0.94456261 0.66371691
3.0374484 -0.88747913 0.66121912
3.0441918 -0.83939487 0.66166544
3.0507395 -0.79128265 0.6499927
3.057487 -0.74316788 0.65043724
3.0642366 -0.69503671 0.65088189
3.0709884 -0.64688897 0.65132666
3.0777431 -0.59872466 0.65177166
3.0844991 -0.55054373 0.65221679
3.0912578 -0.50234658 0.65266186
2.5653687 -4.2608347 0.68976909
2.5719528 -4.2138877 0.69021499
2.5785389 -4.166925 0.69066101
2.5851269 -4.119946 0.69110709
2.5917175 -4.0729518 0.69155347
2.5983105 -4.0259414 0.69199997
2.6065543 -3.9671547 0.69255835
2.6148016 -3.9083447 0.69311684
2.621402 -3.8612778 0.69356406
2.6280053 -3.8141959 0.69401115
2.6346102 -3.7670972 0.69445848
2.6412175 -3.7199824 0.69490606
2.6478269 -3.672852 0.69535363
2.654439 -3.6257057 0.69580132
2.6610525 -3.5785432 0.69624925
2.6676693 -3.5313644 0.69669741
2.6759427 -3.472368 0.6972577
2.6842196 -3.4133477 0.69781828
2.6908436 -3.3661129 0.69826698
2.6974702 -3.318862 0.69871569
2.7040982 -3.271595 0.69916457
2.7107289 -3.2243118 0.69961363
2.7173622 -3.1770127 0.70006287
2.7239976 -3.1296976 0.70051223
2.7306352 -3.082366 0.70096165
2.7372751 -3.0350187 0.70141137
2.743917 -2.9876549 0.7018612
2.752223 -2.928427 0.70242381
2.7605329 -2.8691754 0.7029866
2.7671826 -2.8217552 0.70343697
2.7738349 -2.7743189 0.70388752
2.7804897 -2.7268665 0.70433813
2.7871466 -2.6793978 0.70478898
2.7938058 -2.6319129 0.70523995
2.8004673 -2.5844119 0.70569116
2.8071308 -2.5368948 0.70614249
2.8137975 -2.4893613 0.70659387
2.8204656 -2.4418116 0.70704556
2.8271358 -2.3942459 0.70749736
2.8354776 -2.3347647 0.70806235
2.8438227 -2.2752597 0.7086274
2.8498826 -2.231576 0.70502102
2.8523562 -2.2158208 0.72125608
2.8553257 -2.1918197 0.69735491
2.8578002 -2.1760573 0.71359128
2.8638649 -2.1323426 0.70998478
2.8705497 -2.084671 0.71043754
2.8772378 -2.036983 0.71089047
2.8839276 -1.9892788 0.71134359
2.8906202 -1.9415582 0.71179676
2.8973145 -1.8938214 0.71225023
2.904012 -1.8460683 0.71270382
2.9107108 -1.7982986 0.71315742
2.917412 -1.7505126 0.7136113
2.925792 -1.6907566 0.71417898
2.9341757 -1.6309764 0.71474659
2.9408851 -1.5831333 0.71520108
2.9475968 -1.5352737 0.71565562
2.9543107 -1.4873979 0.71611035
2.9610271 -1.4395056 0.71656525
2.9677455 -1.3915968 0.71702015
2.9744668 -1.3436717 0.71747547
2.9811902 -1.29573 0.71793085
2.9879155 -1.247772 0.71838629
2.9946434 -1.1997976 0.71884191
3.0013738 -1.1518065 0.71929765
3.008106 -1.1037992 0.71975368
3.0148406 -1.0557753 0.72020978
3.0215778 -1.0077349 0.72066617
3.0300026 -0.94766068 0.72123653
3.0384309 -0.88756204 0.72180742
3.045176 -0.83946401 0.72226423
3.0517256 -0.79133809 0.71059757
3.0584753 -0.74320978 0.7110526
3.0652275 -0.69506508 0.71150774
3.0719814 -0.64690369 0.711963
3.0787375 -0.59872556 0.71241856
3.0854964 -0.55053121 0.71287417
3.0922573 -0.50232011 0.71333003
2.5660398 -4.2616563 0.73767412
2.5726254 -4.2146988 0.73812836
2.5792129 -4.167726 0.73858255
2.5858026 -4.1207366 0.73903698
2.5923946 -4.0737314 0.73949158
2.598989 -4.0267105 0.73994631
2.6072352 -3.9679108 0.74051499
2.6154842 -3.9090879 0.7410838
2.6220868 -3.8620107 0.74153906
2.6286912 -3.814918 0.74199468
2.635298 -3.7678089 0.74245018
2.6419067 -3.7206841 0.74290597
2.6485178 -3.6735432 0.74336177
2.6551311 -3.6263859 0.74381781
2.661747 -3.5792129 0.74427414
2.6683648 -3.5320239 0.74473035
2.6766405 -3.4730139 0.74530107
2.6849194 -3.4139807 0.74587202
2.691545 -3.3667357 0.74632889
2.6981728 -3.3194742 0.74678594
2.704803 -3.2721965 0.74724305
2.7114351 -3.2249031 0.74770039
2.71807 -3.1775932 0.74815792
2.7247069 -3.1302676 0.74861556
2.7313459 -3.0829256 0.74907339
2.7379878 -3.0355678 0.74953145
2.7446318 -2.9881933 0.74998951
2.7529397 -2.9289522 0.75056243
2.7612507 -2.8696873 0.75113547
2.7679029 -2.8222568 0.75159425
2.7745566 -2.7748098 0.75205308
2.7812128 -2.7273467 0.7525121
2.7878714 -2.6798675 0.75297123
2.7945323 -2.6323719 0.75343049
2.8011951 -2.5848603 0.75389004
2.8078606 -2.5373323 0.75434965
2.8145282 -2.4897883 0.7548095
2.8211982 -2.4422281 0.75526941
2.8278706 -2.3946514 0.75572956
2.8362143 -2.3351572 0.75630486
2.8439429 -2.2795763 0.75282001
2.8464155 -2.2638268 0.7690621
2.8512411 -2.2280054 0.75734109
2.8579237 -2.1803558 0.75780201
2.8646085 -2.1326895 0.75826287
2.8712957 -2.0850074 0.75872403
2.877985 -2.0373087 0.75918531
2.8846762 -1.9895936 0.75964683
2.8913703 -1.9418623 0.76010835
2.8980663 -1.8941147 0.76057011
2.9047647 -1.8463509 0.76103204
2.9114656 -1.7985706 0.76149416
2.9181685 -1.7507739 0.76195639
2.9265506 -1.6910043 0.76253444
2.9349365 -1.6312107 0.76311272
2.9416475 -1.5833567 0.76357538
2.9483609 -1.5354865 0.76403832
2.9550765 -1.4875997 0.76450151
2.9617944 -1.4396964 0.76496476
2.9685144 -1.3917772 0.76542813
2.9752371 -1.343841 0.76589173
2.9819622 -1.2958885 0.76635545
2.9886892 -1.2479198 0.76681936
2.995419 -1.1999344 0.76728344
3.0021508 -1.1519327 0.76774764
3.0088851 -1.1039145 0.76821196
3.0156217 -1.0558798 0.76867646
3.0223603 -1.0078286 0.76914126
3.030787 -0.94774067 0.76972234
3.0392172 -0.88762826 0.77030373
3.045964 -0.83951956 0.77076888
3.0527129 -0.7913937 0.77123433
3.0594647 -0.7432521 0.77169991
3.0662184 -0.69509339 0.77216566
3.0729744 -0.64691836 0.77263159
3.0797331 -0.59872663 0.77309757
3.086494 -0.55051845 0.77356386
3.093257 -0.50229377 0.77403015
2.5667114 -4.2624774 0.78560078
2.5732985 -4.2155099 0.78606319
2.5798874 -4.1685262 0.78652573
2.5864789 -4.1215267 0.78698838
2.5930724 -4.0745115 0.78745103
2.599668 -4.0274801 0.7879141
2.6079161 -3.9686673 0.78849304
2.6161678 -3.9098313 0.78907228
2.622772 -3.8627439 0.78953588
2.6293778 -3.8156407 0.7899996
2.6359859 -3.7685211 0.79046333
2.6425967 -3.721386 0.79092729
2.649209 -3.6742342 0.79139149
2.6558239 -3.6270669 0.79185581
2.6624415 -3.5798831 0.79232025
2.6690607 -3.5326836 0.79278499
2.6773384 -3.4736609 0.7933659
2.6856191 -3.4146144 0.79394716
2.6922462 -3.3673584 0.79441237
2.6988759 -3.3200867 0.79487765
2.7055078 -3.2727985 0.79534322
2.712142 -3.2254944 0.79580891
2.7187781 -3.1781743 0.79627454
2.7254169 -3.1308379 0.79674053
2.7320578 -3.0834854 0.7972067
2.7387009 -3.0361168 0.79767293
2.7453458 -2.9887321 0.79813945
2.7536564 -2.9294777 0.79872262
2.7619696 -2.8701997 0.79930627
2.7686229 -2.8227582 0.79977328
2.7752786 -2.7753007 0.8002404
2.7819364 -2.7278271 0.80070776
2.7885966 -2.6803372 0.80117524
2.7952588 -2.6328311 0.80164289
2.801924 -2.585309 0.80211061
2.8085904 -2.5377705 0.80257863
2.8152602 -2.4902155 0.80304676
2.8219314 -2.4426446 0.80351502
2.8286057 -2.3950574 0.80398351
2.8360238 -2.3414526 0.7984761
2.8388047 -2.3237436 0.81675583
2.8453 -2.2760181 0.8051554
2.8519816 -2.228374 0.80562437
2.8586662 -2.1807137 0.80609351
2.8653519 -2.1330369 0.80656278
2.8720407 -2.0853438 0.80703229
2.8787317 -2.0376344 0.80750197
2.8854253 -1.9899087 0.80797184
2.8921208 -1.9421667 0.80844176
2.8988185 -1.8944085 0.8089118
2.9055185 -1.8466337 0.80938226
2.9122212 -1.7988427 0.8098526
2.9189258 -1.7510353 0.8103233
2.9273102 -1.6912521 0.81091183
2.9356976 -1.6314452 0.81150055
2.9424102 -1.5835804 0.81197178
2.9491251 -1.5356992 0.81244296
2.9558425 -1.4878016 0.81291455
2.9625623 -1.4398878 0.81338608
2.9692843 -1.3919575 0.81385803
2.9760084 -1.3440106 0.81432998
2.9827352 -1.2960474 0.81480211
2.989464 -1.2480677 0.81527442
2.9961948 -1.2000715 0.81574696
3.0029287 -1.1520588 0.81621951
3.0096643 -1.1040297 0.81669235
3.0164025 -1.0559841 0.81716532
3.0231428 -1.0079222 0.8176384
3.0315716 -0.94782048 0.81823009
3.0400038 -0.88769484 0.81882191
3.0467527 -0.83957493 0.81929564
3.0535033 -0.79143858 0.81976944
3.0602567 -0.74328548 0.82024354
3.0670118 -0.69511622 0.82071775
3.07377 -0.64693004 0.82119203
3.0805299 -0.59872746 0.82166654
3.0872924 -0.55050838 0.82214123
3.0940568 -0.50227267 0.82261598
2.5673826 -4.2632995 0.8335489
2.5739715 -4.2163215 0.83401948
2.5805624 -4.1693273 0.83449012
2.5871553 -4.1223173 0.83496124
2.5937505 -4.0752916 0.83543223
2.6003478 -4.0282497 0.83590335
2.6085982 -3.969424 0.83649278
2.6168518 -3.9105754 0.83708227
2.6234567 -3.8634772 0.8375541
2.6300645 -3.8163636 0.83802605
2.6366746 -3.7692339 0.83849818
2.6432865 -3.7220876 0.83897048
2.6499004 -3.6749258 0.83944279
2.6565173 -3.6277478 0.83991545
2.663136 -3.5805538 0.84038818
2.6697571 -3.5333436 0.84086108
2.6780367 -3.4743075 0.84145248
2.6863196 -3.4152484 0.84204406
2.6929486 -3.3679819 0.84251744
2.6995795 -3.3206995 0.84299105
2.7062128 -3.273401 0.84346485
2.7128482 -3.2260859 0.84393883
2.7194867 -3.1787555 0.84441304
2.7261264 -3.1314085 0.8448872
2.7327693 -3.0840454 0.84536171
2.7394137 -3.0366662 0.84583628
2.7460611 -2.9892709 0.84631091
2.7543733 -2.9300034 0.84690464
2.7626879 -2.870712 0.8474986
2.7693434 -2.8232601 0.84797382
2.7760005 -2.7757919 0.84844935
2.7826605 -2.7283077 0.84892517
2.7893219 -2.6808074 0.84940088
2.7959862 -2.6332905 0.84987694
2.8026524 -2.5857575 0.850353
2.8093209 -2.5382085 0.8508293
2.8159916 -2.490643 0.85130578
2.8226652 -2.4430614 0.85178244
2.8287227 -2.3993971 0.84819549
2.8311934 -2.3836627 0.86445069
2.8376884 -2.3359425 0.85285544
2.8460393 -2.2763977 0.85345197
2.8527226 -2.2287428 0.85392946
2.8594086 -2.1810718 0.85440689
2.8660965 -2.1333842 0.85488462
2.872787 -2.0856805 0.85536242
2.8794794 -2.0379603 0.85584044
2.8861744 -1.9902239 0.85631865
2.8928711 -1.942471 0.85679692
2.8995712 -1.8947021 0.85727549
2.9062724 -1.8469166 0.85775423
2.9129767 -1.7991147 0.85823303
2.919683 -1.7512966 0.85871208
2.9280696 -1.6915001 0.8593111
2.9364593 -1.6316795 0.85991031
2.9431734 -1.583804 0.86038983
2.9498901 -1.535912 0.86086959
2.9566092 -1.4880038 0.86134946
2.9633305 -1.4400791 0.86182958
2.9700539 -1.3921378 0.86230987
2.9767799 -1.3441801 0.86279029
2.9835076 -1.2962061 0.86327076
2.9902387 -1.2482158 0.86375153
2.9969714 -1.2002085 0.86423236
3.0037067 -1.1521851 0.86471349
3.0104442 -1.1041453 0.86519468
3.0171838 -1.0560886 0.86567611
3.023926 -1.0080158 0.86615765
3.0316429 -0.95270699 0.86428434
3.0398185 -0.8949824 0.86971718
3.0475416 -0.83963031 0.8678444
3.0542936 -0.79148304 0.86832672
3.061049 -0.74331915 0.86880922
3.0678058 -0.69513875 0.86929178
3.0745656 -0.6469419 0.86977458
3.0813274 -0.59872836 0.87025756
3.0880916 -0.55049807 0.87074071
3.0948572 -0.50225163 0.87122399
2.5680549 -4.264122 0.88151854
2.5746448 -4.2171335 0.88199735
2.5812373 -4.1701288 0.88247645
2.5878317 -4.1231089 0.88295549
2.5944285 -4.0760722 0.88343483
2.601028 -4.0290203 0.88391441
2.6092799 -3.9701812 0.88451391
2.6175356 -3.9113195 0.88511372
2.6241422 -3.8642111 0.88559395
2.6307516 -3.8170867 0.88607401
2.637363 -3.7699466 0.88655454
2.6439767 -3.7227898 0.88703501
2.6505926 -3.6756177 0.88751554
2.6572106 -3.6284292 0.88799673
2.6638312 -3.5812247 0.88847762
2.6704538 -3.5340042 0.88895887
2.6787355 -3.4749548 0.88956058
2.6870198 -3.4158823 0.89016247
2.6936505 -3.3686054 0.89064419
2.7002831 -3.3213122 0.89112622
2.7069185 -3.2740033 0.89160824
2.7135561 -3.2266781 0.89209056
2.7201953 -3.1793368 0.89257282
2.7268372 -3.1319795 0.89305556
2.7334814 -3.0846057 0.89353824
2.7401278 -3.0372159 0.89402115
2.7467761 -2.9898102 0.89450425
2.7550902 -2.9305291 0.89510846
2.7634082 -2.8712246 0.89571273
2.7700644 -2.8237622 0.89619637
2.7767234 -2.7762835 0.89668024
2.7833841 -2.7287886 0.89716417
2.7900474 -2.6812773 0.89764839
2.7967131 -2.63375 0.89813274
2.8033814 -2.5862064 0.89861721
2.8100519 -2.5386467 0.89910185
2.8167241 -2.4910707 0.89958674
2.8215466 -2.4552736 0.88787597
2.8240159 -2.4395466 0.90413672
2.8300765 -2.3958697 0.90055686
2.8384254 -2.3363354 0.90116358
2.8467789 -2.2767773 0.90177053
2.8534639 -2.2291117 0.90225613
2.8601515 -2.1814299 0.90274209
2.8668411 -2.1337316 0.90322828
2.8735328 -2.0860171 0.90371442
2.8802269 -2.0382864 0.90420079
2.8869238 -1.9905392 0.90468746
2.8936226 -1.9427756 0.90517414
2.9003239 -1.8949959 0.90566099
2.9070275 -1.8471997 0.90614814
2.9137328 -1.7993871 0.90663522
2.9204409 -1.7515581 0.90712267
2.9288292 -1.691748 0.90773219
2.9372211 -1.6319141 0.90834188
2.9439371 -1.5840278 0.90882999
2.950655 -1.5361249 0.90931809
2.9573758 -1.4882059 0.90980625
2.9640987 -1.4402703 0.91029489
2.970824 -1.3923184 0.91078353
2.9775512 -1.3443499 0.91127229
2.9842815 -1.2963649 0.91176146
2.9910133 -1.2483637 0.9122504
2.9977481 -1.200346 0.91273981
3.0044851 -1.1523114 0.91322935
3.0112238 -1.1042604 0.913719
3.0179656 -1.0561932 0.91420889
3.024709 -1.0081093 0.91469878
3.0314553 -0.9600091 0.91518903
3.0398912 -0.89985949 0.91580194
3.0483308 -0.83968592 0.91641515
3.0550847 -0.79152763 0.91690588
3.0618412 -0.74335295 0.91739684
3.0686002 -0.6951614 0.91788793
3.0753613 -0.64695352 0.91837925
3.0821249 -0.59872913 0.91887057
3.0888903 -0.55048805 0.91936219
3.0956583 -0.50223041 0.91985393
2.5687268 -4.2649446 0.9295097
2.5753188 -4.2179456 0.92999685
2.5819123 -4.1709309 0.93048406
2.5885088 -4.1238999 0.93097144
2.5951076 -4.0768533 0.93145889
2.6017075 -4.0297904 0.93194669
2.6099622 -3.9709389 0.93255675
2.6182199 -3.9120638 0.9331668
2.6248281 -3.8649449 0.93365514
2.631439 -3.8178101 0.93414378
2.6380517 -3.7706594 0.93463254
2.6446674 -3.7234926 0.9351213
2.6512847 -3.6763101 0.93561029
2.6579046 -3.6291108 0.93609941
2.6645267 -3.5818958 0.93658888
2.6711509 -3.5346646 0.93707836
2.6794341 -3.4756026 0.93769032
2.687721 -3.4165165 0.93830246
2.6943529 -3.3692291 0.93879277
2.7009878 -3.3219256 0.93928301
2.7076242 -3.274606 0.93977338
2.7142632 -3.2272704 0.94026387
2.7209046 -3.1799183 0.94075483
2.7275476 -3.1325502 0.94124568
2.7341938 -3.0851662 0.94173664
2.7408412 -3.037766 0.94222784
2.7474918 -2.9903495 0.94271928
2.7558079 -2.9310553 0.94333392
2.7641275 -2.8717377 0.94394863
2.7707853 -2.8242645 0.94444048
2.7774458 -2.7767751 0.94493276
2.7841089 -2.7292695 0.94542503
2.7907739 -2.6817479 0.94591761
2.797441 -2.6342099 0.94641018
2.804111 -2.5866556 0.94690293
2.8101656 -2.5430138 0.94332951
2.8126335 -2.5272994 0.95959598
2.8156049 -2.5032895 0.93568814
2.8180742 -2.4875681 0.95195615
2.8241332 -2.4438956 0.94838256
2.8308117 -2.3962762 0.94887608
2.839164 -2.3367286 0.94949341
2.8475184 -2.2771568 0.95011061
2.8542058 -2.2294807 0.95060468
2.8608944 -2.1817882 0.95109916
2.8675861 -2.1340792 0.95159364
2.8742797 -2.0863543 0.95208818
2.8809755 -2.0386126 0.95258301
2.8876736 -1.9908546 0.95307803
2.8943737 -1.9430803 0.95357299
2.9010768 -1.8952898 0.95406824
2.9077818 -1.8474829 0.95456386
2.914489 -1.7996595 0.95505953
2.9211986 -1.7518197 0.95555526
2.9295893 -1.6919962 0.95617521
2.9379826 -1.6321487 0.95679557
2.9447005 -1.5842516 0.95729196
2.9514203 -1.5363381 0.95778853
2.958143 -1.4884082 0.95828527
2.9648678 -1.4404619 0.9587822
2.9715946 -1.3924991 0.95927912
2.9783235 -1.3445196 0.95977652
2.985055 -1.2965239 0.96027392
2.9917891 -1.2485117 0.96077144
2.9985249 -1.2004831 0.96126908
3.0052638 -1.1524378 0.96176708
3.0120041 -1.104376 0.96226537
3.0187473 -1.056298 0.96276349
3.0254929 -1.0082031 0.9632619
3.0322406 -0.96009183 0.96376067
3.0406787 -0.89992875 0.9643842
3.0491202 -0.83974141 0.96500802
3.055876 -0.79157221 0.96550721
3.0626338 -0.74338669 0.96600652
3.0693946 -0.69518423 0.96650612
3.0761573 -0.64696556 0.96700585
3.0829225 -0.59873003 0.96750575
3.08969 -0.55047786 0.96800596
3.0964596 -0.50220925 0.96850616
2.5695677 -4.2659731 0.98952991
2.5759926 -4.2187581 0.97801763
2.5825882 -4.1717329 0.97851318
2.5891862 -4.1246915 0.97900879
2.5957863 -4.0776348 0.97950488
2.6040394 -4.0187898 0.98012471
2.6122961 -3.9599216 0.98074514
2.6189039 -3.9128087 0.98124152
2.625514 -3.8656797 0.98173833
2.6321268 -3.8185344 0.98223507
2.6387413 -3.771373 0.98273188
2.6453581 -3.7241955 0.98322904
2.6519773 -3.6770022 0.98372644
2.6585984 -3.6297929 0.98422378
2.6652222 -3.5825672 0.98472136
2.6728768 -3.52827 0.98770177
2.6807616 -3.4714906 0.98348355
2.6884224 -3.4171512 0.98646444
2.6950562 -3.3698535 0.9869628
2.7016921 -3.3225393 0.98746133
2.7083304 -3.2752092 0.98796004
2.7149706 -3.2278626 0.98845893
2.7216139 -3.1805005 0.98895806
2.7282588 -3.133122 0.98945725
2.7349062 -3.0857272 0.98995674
2.7415557 -3.0383162 0.99045628
2.7498713 -2.9790292 0.99108082
2.7581894 -2.9197183 0.99170583
2.7648475 -2.8722508 0.9922061
2.7715075 -2.8247669 0.99270648
2.7781694 -2.777267 0.99320698
2.7848337 -2.7297509 0.99370772
2.7915001 -2.6822186 0.99420846
2.7981691 -2.6346698 0.99470943
2.8042235 -2.591032 0.99114221
2.8066909 -2.5753233 1.0074162
2.8115137 -2.5395238 0.9957121
2.8181896 -2.4919264 0.99621361
2.8248675 -2.4443128 0.99671537
2.8315482 -2.396683 0.99721724
2.8399019 -2.3371217 0.99784487
2.8482587 -2.2775369 0.99847281
2.8549473 -2.2298498 0.99897528
2.8616383 -2.1821465 0.99947804
2.868331 -2.1344271 0.99998087
2.8750262 -2.0866911 1.0004839
2.8817234 -2.0389388 1.0009871
2.8884234 -1.9911702 1.0014904
2.8951256 -1.9433852 1.0019939
2.9018302 -1.8955837 1.0024977
2.9085369 -1.8477662 1.0030016
2.9152458 -1.799932 1.0035057
2.921957 -1.7520815 1.0040098
2.9303496 -1.6922445 1.0046402
2.9387457 -1.6323836 1.0052712
2.9454651 -1.5844756 1.0057759
2.9521863 -1.5365512 1.0062809
2.95891 -1.4886106 1.006786
2.9656367 -1.4406534 1.0072913
2.9723651 -1.3926796 1.0077969
2.9790959 -1.3446895 1.0083026
2.9858294 -1.296683 1.0088085
2.9925649 -1.2486597 1.0093144
2.9993026 -1.2006201 1.0098207
3.0060427 -1.1525642 1.0103271
3.012785 -1.1044915 1.0108337
3.0195296 -1.0564024 1.0113404
3.0262768 -1.0082968 1.0118474
3.0330262 -0.96017468 1.0123543
3.0414665 -0.89999783 1.0129887
3.0499101 -0.83979696 1.0136229
3.0566676 -0.79161674 1.0141305
3.0634277 -0.74342024 1.0146384
3.0701895 -0.6952073 1.0151464
3.0769541 -0.64697737 1.0156547
3.0837209 -0.59873068 1.016163
3.0904899 -0.55046767 1.0166717
3.0972614 -0.50218832 1.0171802
2.5704091 -4.2670026 1.0495816
2.5768363 -4.2197742 1.0380752
2.5834334 -4.1727362 1.0385809
2.5900333 -4.1256824 1.0390869
2.5966353 -4.0786119 1.0395932
2.6048913 -4.0197506 1.0402265
2.6131501 -3.9608662 1.0408596
2.61976 -3.9137402 1.0413663
2.6263726 -3.8665979 1.0418733
2.6329868 -3.8194396 1.0423805
2.6394308 -3.7720866 1.030853
2.646049 -3.7248988 1.0313585
2.6526699 -3.677695 1.0318643
2.6592932 -3.630475 1.0323699
2.6659184 -3.5832391 1.0328759
2.6742029 -3.5241706 1.0335085
2.6824908 -3.4650786 1.0341412
2.6891239 -3.4177861 1.0346477
2.6957593 -3.3704779 1.0351547
2.7023971 -3.3231533 1.0356613
2.7090368 -3.2758126 1.0361686
2.7156792 -3.2284555 1.0366757
2.7223234 -3.1810827 1.0371832
2.7289701 -3.1336935 1.0376906
2.7356191 -3.0862882 1.0381984
2.7422702 -3.0388668 1.0387064
2.7505879 -2.9795663 1.0393416
2.7589085 -2.9202423 1.039977
2.7655673 -2.8727641 1.0404853
2.7722287 -2.8252697 1.040994
2.7788928 -2.7777591 1.0415031
2.7855585 -2.7302325 1.042012
2.792227 -2.6826894 1.0425212
2.7970476 -2.6469061 1.0308208
2.7995143 -2.6312046 1.0471005
2.8055704 -2.5875545 1.0435402
2.8122456 -2.5399628 1.0440501
2.818923 -2.4923546 1.0445598
2.8256025 -2.4447305 1.0450701
2.8322847 -2.3970897 1.0455803
2.8406408 -2.3375154 1.0462184
2.8489995 -2.2779169 1.0468568
2.8556898 -2.2302194 1.0473677
2.8623817 -2.1825051 1.0478786
2.8690767 -2.1347749 1.04839
2.8757734 -2.0870283 1.0489014
2.882473 -2.0392654 1.0494131
2.8891742 -1.991486 1.0499246
2.8958776 -1.9436902 1.0504369
2.9025841 -1.8958781 1.0509487
2.9092922 -1.8480495 1.051461
2.9160032 -1.8002048 1.0519736
2.9227157 -1.7523435 1.0524861
2.9311106 -1.692493 1.0531273
2.939508 -1.6326185 1.0537685
2.9462292 -1.5846997 1.0542818
2.9529524 -1.5367647 1.0547953
2.9596779 -1.488813 1.0553088
2.9664063 -1.440845 1.0558227
2.9731364 -1.3928604 1.0563365
2.9798687 -1.3448596 1.0568506
2.9866033 -1.296842 1.0573649
2.9933407 -1.2488079 1.0578794
3.0000803 -1.2007577 1.0583941
3.0068221 -1.1526906 1.0589089
3.0135663 -1.104607 1.0594239
3.0203125 -1.0565071 1.0599391
3.0270612 -1.0083904 1.0604547
3.0338123 -0.96025759 1.0609701
3.0415397 -0.90488029 1.0591311
3.049726 -0.84708238 1.0646144
3.0574594 -0.7916615 1.0627761
3.0642209 -0.74345392 1.0632923
3.0709848 -0.69522965 1.0638087
3.0777512 -0.64698893 1.0643256
3.0845196 -0.5987317 1.0648425
3.0912902 -0.55045766 1.0653595
3.0980632 -0.50216711 1.0658766
2.5710824 -4.2678266 1.0976484
2.5776794 -4.2207913 1.0981642
2.5842791 -4.1737399 1.0986805
2.5908809 -4.1266727 1.0991969
2.5974846 -4.0795894 1.0997134
2.6057429 -4.0207124 1.1003596
2.6140051 -3.9618115 1.1010056
2.6206167 -3.9146721 1.1015228
2.6272306 -3.8675168 1.1020402
2.633847 -3.8203454 1.1025577
2.6402934 -3.7729793 1.0910362
2.6469135 -3.7257783 1.091552
2.6535361 -3.6785614 1.0920677
2.6601615 -3.6313286 1.0925841
2.6667886 -3.584079 1.0931004
2.6750755 -3.5249944 1.0937459
2.6833663 -3.4658859 1.0943918
2.6900017 -3.4185803 1.0949087
2.6962366 -3.3735628 1.0905768
2.7031016 -3.3237672 1.0838832
2.7097437 -3.2764161 1.0843987
2.7163875 -3.2290487 1.0849143
2.7230334 -3.1816649 1.0854299
2.7296817 -3.1342654 1.0859458
2.7363327 -3.0868495 1.086462
2.7429852 -3.0394173 1.0869782
2.7513049 -2.9801037 1.0876238
2.7596276 -2.9207666 1.0882698
2.766288 -2.8732777 1.0887867
2.7729511 -2.8257728 1.0893036
2.7796168 -2.7782516 1.0898209
2.7856681 -2.7346363 1.0862669
2.7881331 -2.7189474 1.1025525
2.7911048 -2.6949325 1.0786407
2.7935708 -2.6792364 1.0949275
2.7996261 -2.6355906 1.0913737
2.8063009 -2.5880044 1.0918915
2.8129773 -2.5404017 1.0924098
2.8196564 -2.4927831 1.0929281
2.8263381 -2.4451482 1.0934465
2.8330219 -2.3974969 1.0939653
2.8413794 -2.337909 1.0946137
2.8497407 -2.2782972 1.0952625
2.8564322 -2.2305889 1.0957818
2.8631263 -2.1828642 1.0963012
2.869822 -2.135123 1.096821
2.8765209 -2.0873656 1.0973408
2.8832219 -2.039592 1.0978609
2.889925 -1.9918019 1.098381
2.89663 -1.9439952 1.0989013
2.903338 -1.8961725 1.099422
2.9100482 -1.8483332 1.0999426
2.9167604 -1.8004775 1.1004636
2.9234748 -1.7526056 1.1009845
2.9318719 -1.6927415 1.1016363
2.9402716 -1.6328535 1.1022879
2.9469941 -1.5849239 1.1028097
2.9537191 -1.536978 1.1033317
2.9604461 -1.4890156 1.1038536
2.967176 -1.4410366 1.1043758
