# .PCD v0.7 - Point Cloud Data file format
VERSION 0.7
FIELDS x y z
SIZE 4 4 4
TYPE F F F
COUNT 1 1 1
WIDTH 1523
HEIGHT 1
VIEWPOINT 0 0 0 1 0 0 0
POINTS 1523
DATA ascii
2.5731301 0.69629073 0.71092755
2.6547961 0.71034914 0.69589669
2.777498 0.73838937 0.69653803
2.9123628 0.76920909 0.69724303
3.0641789 0.79178864 0.69832557
3.2296805 0.82894248 0.69920725
3.4144545 0.87042278 0.70019162
3.6220765 0.91703224 0.70129782
3.8570628 0.96978486 0.70254964
2.5652311 0.74461073 0.71038634
2.6425486 0.7599023 0.6945861
2.7646046 0.7902658 0.69516528
2.8987529 0.82363719 0.69580203
3.0497673 0.849042 0.69680887
3.2174294 0.8772527 0.69792646
3.4013894 0.92152172 0.69883585
3.6080837 0.97126156 0.69985753
3.8420036 1.0275531 0.7010138
2.557317 0.79302049 0.70984417
2.6303151 0.8093996 0.69327694
2.7542999 0.83172387 0.69406819
2.8878777 0.86713254 0.69465059
3.0353723 0.90623009 0.6952939
3.2051911 0.92551303 0.69664711
3.388339 0.97256488 0.69748151
3.5906153 1.0389618 0.6980595
3.5975993 1.0118942 0.69877839
3.8307207 1.0708348 0.69986314
2.5493865 0.84153348 0.70930088
2.6180935 0.85884792 0.69196922
2.7414341 0.88349301 0.69269836
2.8770127 0.91058743 0.69350022
3.0238695 0.95192826 0.69408327
3.1929657 0.97372365 0.69536901
3.375303 1.0235523 0.69612867
3.5836351 1.0660136 0.69734102
3.8194489 1.1140715 0.69871354
2.5414405 0.89013672 0.70875645
2.605886 0.9082405 0.69066292
2.7285826 0.93520886 0.69133013
2.8661578 0.95400196 0.69235092
3.0123777 0.99758178 0.6928739
3.1807525 1.0218844 0.69409221
3.3622808 1.074484 0.69477725
3.5731733 1.10656 0.69626427
3.8081868 1.1572728 0.69756496
2.533478 0.93884385 0.70821095
2.5936913 0.95758444 0.689358
2.7183113 0.97653872 0.69023669
2.8553131 0.99737614 0.6912027
3.0037658 1.0317941 0.69196755
3.1716011 1.0579741 0.69313544
2.5478468 1.5301445 0.69095081
2.6567955 1.5480891 0.68860102
2.6989746 1.5632644 0.67384589
2.7749026 1.5675434 0.68605471
2.8468063 1.5931029 0.67470717
2.9037986 1.5891119 0.69516671
3.0445621 1.612666 0.70511365
2.439291 1.531561 0.68201464
2.5599341 1.5564916 0.6725058
2.6907656 1.5951275 0.67296368
2.8381031 1.6266142 0.67377853
2.4286637 1.5805982 0.68097949
2.546999 1.6070704 0.67110634
2.6798313 1.6375713 0.67178845
2.8265104 1.6712514 0.67254156
2.4204731 1.6306993 0.68039811
2.5340827 1.6575766 0.66970897
2.6689088 1.6799668 0.6706146
2.8149312 1.715835 0.67130613
2.4122672 1.6808952 0.67981547
2.5211821 1.7080187 0.66831326
2.6552739 1.7328908 0.6691491
2.8033659 1.7603654 0.67007214
2.4040434 1.7311999 0.67923164
2.5108747 1.7483213 0.66719818
2.6416571 1.7857448 0.66768569
2.7889297 1.8159506 0.66853178
2.3958042 1.7816004 0.67864668
2.4980073 1.7986361 0.66580606
2.6307783 1.8279719 0.66651648
2.7745132 1.8714585 0.66699356
2.387547 1.83211 0.67806047
2.4851556 1.8488874 0.66441566
2.6171975 1.880686 0.66505688
2.7629967 1.9158032 0.66576475
2.3792741 1.8827159 0.67747313
2.4723227 1.8990666 0.66302735
2.6036348 1.9333305 0.66359919
2.7514932 1.9600948 0.66453731
2.372643 1.9232777 0.67700237
2.459506 1.9491825 0.6616407
2.5927989 1.9753903 0.66243464
2.7400038 2.0043335 0.66331142
2.3676634 1.9537406 0.67664886
2.3626766 1.9842451 0.6762948
2.4467075 1.9992261 0.66025609
2.579272 2.0278957 0.66098076
2.728528 2.0485194 0.66208696
2.3560183 2.0249729 0.67582214
2.4339256 2.049207 0.65887314
2.5657628 2.0803316 0.65952885
2.7142029 2.1036758 0.66055852
2.3476801 2.0759799 0.67523009
2.423712 2.0891414 0.65776831
2.55497 2.1222253 0.65836895
2.6998982 2.1587551 0.65903217
2.3393257 2.1270845 0.67463702
2.4109621 2.1389968 0.65638882
2.5441892 2.1640718 0.65721029
2.6884701 2.2027571 0.65781283
2.3309536 2.1783006 0.67404264
2.3982277 2.1887894 0.65501118
2.5307307 2.2163103 0.6557638
2.6770537 2.2467065 0.65659457
2.3225644 2.2296154 0.67344707
2.3855121 2.2385111 0.65363544
2.5172896 2.2684801 0.65431923
2.6656501 2.2906022 0.65537769
2.3158407 2.2707455 0.6729697
2.372812 2.2881701 0.6522615
2.5065491 2.3101597 0.65316468
2.6514153 2.3453968 0.65385866
2.3074639 2.3250132 0.66478461
2.3559501 2.3228369 0.64996302
2.4358594 2.3452687 0.64232761
2.4751167 2.3492775 0.6486643
2.4985008 2.3413897 0.65229958
2.5732288 2.3684351 0.64220357
2.6164865 2.3729868 0.64885801
2.2990599 2.3736959 0.66159087
2.2939894 2.4047134 0.6612246
4.0498352 -0.70008039 0.78827572
4.105689 -0.69108641 0.78182381
4.1632633 -0.68181598 0.77517009
4.2220898 -0.67180097 0.78312844
4.2827725 -0.66147035 0.79133773
3.7951653 -0.74253666 0.77833784
3.8430598 -0.73435527 0.78555787
3.892314 -0.72594178 0.79298288
3.9439378 -0.71814013 0.77313071
3.9961133 -0.70924228 0.78059268
2.7410872 -0.33253467 0.77061057
2.7350347 -0.29551131 0.77023339
2.7259388 -0.23987497 0.76966673
2.7183433 -0.19341491 0.76919347
2.7107322 -0.14685784 0.76871926
2.7015798 -0.090872839 0.76814908
2.6939366 -0.044121072 0.76767284
2.6862776 0.0027283924 0.7671957
2.6786044 0.049663886 0.76671761
2.6739933 0.077869244 0.76643026
2.6693764 0.10611173 0.76614261
2.661669 0.15325652 0.76566237
2.6539478 0.20048805 0.7651813
2.6462095 0.24781878 0.76469916
2.636905 0.30473518 0.76411945
2.6292157 0.35205826 0.75386781
2.6214287 0.39968964 0.75337303
2.6136274 0.44740909 0.75287724
2.6058097 0.49522942 0.75238055
2.5979774 0.54313821 0.75188273
2.5901287 0.59114844 0.75138402
2.5806901 0.64888287 0.75078422
2.5728085 0.69709724 0.75028336
2.5649095 0.74541372 0.74978143
2.5569956 0.7938202 0.74927849
2.5490654 0.84232986 0.74877459
2.5411201 0.89092982 0.74826968
2.5331576 0.93963349 0.74776375
3.5577388 1.6989461 0.75577062
3.7664988 1.7334698 0.7561388
2.549186 1.5315617 0.73297346
2.6582522 1.5495741 0.73231763
2.7764881 1.5691009 0.73160666
2.905534 1.5907514 0.74272591
3.0459931 1.6139637 0.74242717
3.1999657 1.6394094 0.7420997
3.3700871 1.6679138 0.75544035
2.4392929 1.5326495 0.73219275
2.4282691 1.581529 0.73107523
2.4200792 1.6316257 0.73054463
2.4118738 1.6818173 0.73001313
2.403651 1.7321175 0.72948039
2.395412 1.7825134 0.72894651
2.3871555 1.8330185 0.72841161
2.3788829 1.88362 0.72787559
2.3722527 1.9241782 0.72744608
2.3672729 1.9546382 0.72712338
2.3622863 1.9851398 0.72680038
2.3556285 2.0258636 0.72636908
2.3472908 2.0768659 0.72582889
2.3390145 2.1277897 0.71515864
2.3306422 2.1790023 0.71460587
2.3222539 2.2303128 0.71405196
2.3155305 2.2714403 0.71360803
2.3071101 2.322948 0.71305209
2.2986736 2.3745549 0.71249503
2.2936032 2.40557 0.71216023
4.0483322 -0.69876868 0.83072591
4.1041451 -0.68975842 0.82491612
4.1611447 -0.68002218 0.83350885
4.219368 -0.66952997 0.85717076
4.2204566 -0.67043805 0.82756513
4.2810903 -0.66008973 0.83647126
3.7934051 -0.74089009 0.83102047
3.8412566 -0.73268932 0.83897412
3.8909259 -0.72467697 0.83361661
3.9420362 -0.71643287 0.82810068
3.9941623 -0.70751476 0.83636171
2.7406754 -0.33144155 0.81874913
2.734623 -0.2944212 0.8184095
2.725528 -0.23878925 0.81789935
2.7179329 -0.19233316 0.81747329
2.7103224 -0.14577979 0.81704634
2.7011704 -0.0897993 0.81653291
2.6935275 -0.04305153 0.81610399
2.6858692 0.0037942065 0.81567442
2.6781962 0.050725766 0.81524396
2.6725323 0.085273385 0.81816566
2.6684825 0.1102378 0.8114596
2.6612616 0.15430996 0.81429392
2.6535406 0.2015374 0.81386077
2.6458035 0.24886428 0.81342667
2.6364987 0.305776 0.81290472
2.6288099 0.35309508 0.80270267
2.6210237 0.4007225 0.80225617
2.6132233 0.44843796 0.80180895
2.6054058 0.49625424 0.80136073
2.5975738 0.544159 0.80091155
2.5897257 0.59216517 0.80046153
2.5802875 0.64989477 0.79992032
2.5724058 0.69810486 0.7994684
2.5645072 0.74641722 0.79901546
2.5565941 0.79481971 0.79856169
2.5486641 0.84332514 0.79810703
2.5407195 0.89192098 0.79765147
3.8987777 1.204294 0.800174
2.5327582 0.94062054 0.79719496
2.8021939 1.0246915 0.79278517
2.9199169 1.0439725 0.79357839
3.0478139 1.0649199 0.79444015
3.1872623 1.0877594 0.79537988
3.3380945 1.1256753 0.79630142
3.5058506 1.1538073 0.79742718
3.6911383 1.1848793 0.79867041
3.8949401 1.2344619 0.79992759
2.5247014 0.98960751 0.80663294
2.5896196 1.0104617 0.79120523
2.6902523 1.0277318 0.79187781
2.7972434 1.0572188 0.79251295
2.9148502 1.0778629 0.7932955
3.0426285 1.1002924 0.79414576
3.1819577 1.1247495 0.79507285
3.330857 1.177399 0.7958737
3.4984567 1.2081368 0.79697949
3.6835938 1.2420911 0.79820096
3.889174 1.2797947 0.79955733
2.5188146 1.025516 0.8096056
2.5146008 1.0514867 0.8027631
2.581733 1.0606979 0.79078317
2.6821802 1.0799127 0.79144007
2.7906315 1.1006584 0.79214954
2.9097762 1.1117986 0.79301226
2.9063895 1.1344532 0.79282326
3.0357029 1.1475385 0.79375255
3.1748722 1.1741604 0.79466283
3.3236032 1.2292421 0.79544502
3.4928999 1.2489663 0.79664314
3.4891894 1.2762297 0.79641849
3.6760297 1.2994487 0.79773033
3.8814678 1.340374 0.79906231
2.5086989 1.0874867 0.80573511
2.5754099 1.1009711 0.79044461
2.6757088 1.1217482 0.7910893
2.7840071 1.1441826 0.79178536
2.9013019 1.1684805 0.79253924
3.0287626 1.1948842 0.79335856
3.1677709 1.2236801 0.79425198
3.3181524 1.2681993 0.7951228
3.4854743 1.3035264 0.79619348
3.6703441 1.3425583 0.79737645
2.5006735 1.136577 0.80528492
2.5674894 1.1514183 0.79002059
2.6676013 1.1741568 0.79064971
2.7757075 1.1987109 0.79132915
2.8928056 1.2253076 0.79206502
3.0200658 1.2542124 0.79286474
3.1606541 1.2733094 0.79384017
3.3126912 1.3072317 0.79479998
3.4798932 1.3445377 0.79585558
3.6646471 1.3857598 0.79702199
2.4926331 1.1857594 0.80483377
2.5595522 1.2019715 0.78959566
2.6594763 1.2266798 0.79020923
2.7673893 1.2533633 0.79087186
2.884289 1.2822689 0.79158962
3.0113478 1.3136867 0.79236984
3.1535213 1.323048 0.79342747
3.3053954 1.3593751 0.79436886
3.4724355 1.3993299 0.79540408
3.6589396 1.4290349 0.79666674
3.6551282 1.4579341 0.79642963
2.4854209 1.2300185 0.79945368
2.5515964 1.2526464 0.78916973
2.652962 1.2687898 0.78985614
2.7607193 1.2971843 0.79050523
2.8774602 1.3279461 0.79120839
3.0043559 1.3613838 0.79197282
3.1463728 1.3728967 0.79301387
3.2980821 1.4116393 0.79393667
3.4649606 1.4542556 0.7949515
3.6494017 1.5013572 0.79607332
2.4765811 1.2842364 0.79397416
2.5436232 1.3034281 0.78874296
2.6448016 1.3215427 0.78941363
2.7540367 1.3410909 0.79013783
2.8706167 1.3737158 0.7908265
2.997349 1.4091818 0.79157507
3.1392086 1.4228559 0.79259938
3.2907524 1.4640248 0.79350328
3.4574671 1.5093151 0.79449779
3.6436653 1.5448543 0.79571629
2.4684904 1.3337239 0.79351026
2.5356312 1.354332 0.78831512
2.6366229 1.3744109 0.78897029
2.7473404 1.385083 0.78976971
2.7423108 1.4181311 0.78949326
2.8637598 1.4195787 0.79044366
2.9903278 1.4570814 0.79117632
3.1320283 1.4729257 0.79218394
3.2852445 1.50339 0.79317778
3.2815666 1.5296741 0.79296041
3.4518352 1.5506935 0.79415691
3.6379168 1.5884446 0.7953586
2.4603848 1.3833047 0.79304552
2.5276222 1.4053435 0.78788644
2.6300654 1.4167982 0.78861475
2.7372725 1.4512327 0.78921628
2.8568888 1.4655347 0.79006022
2.9832911 1.5050825 0.79077685
3.1248319 1.5231067 0.79176754
3.2760415 1.5691612 0.79263389
3.4461927 1.5921564 0.79381526
3.6302352 1.6466892 0.79488057
2.4522612 1.4329922 0.79257965
2.5212014 1.446239 0.78754264
2.6218514 1.4698988 0.7881695
2.7305439 1.4954404 0.78884637
2.8482795 1.5231166 0.78957957
2.9762397 1.5531858 0.79037654
3.11762 1.5733993 0.79135025
3.2686605 1.6219131 0.79219764
3.4386532 1.6475524 0.79335886
3.559046 1.6999842 0.78465366
3.6244621 1.6904664 0.79452139
3.7679598 1.734579 0.78664619
2.4441228 1.4827737 0.79211301
2.5131588 1.4974663 0.78711206
2.5505266 1.5329804 0.77503532
2.6136186 1.523116 0.78772312
2.6597106 1.5510606 0.77607667
2.7238016 1.5397344 0.78847575
2.7780788 1.5706614 0.77720553
2.8413782 1.5692761 0.78919429
2.9068413 1.5919837 0.77843356
2.9709418 1.5893273 0.79007578
3.0474298 1.6152642 0.77977437
3.1122007 1.6111884 0.79103661
3.2015519 1.6407858 0.78124422
3.3712609 1.6688884 0.78286278
2.4377306 1.5331315 0.78201336
2.427875 1.5824598 0.78116101
2.4196854 1.632552 0.78068125
2.4114811 1.6827391 0.7802006
2.4032581 1.733035 0.77971888
2.3950198 1.7834262 0.7792362
2.3867636 1.8339269 0.77875257
2.3784914 1.8845236 0.77826798
2.3718612 1.9250783 0.77787954
2.3668821 1.9555354 0.77758777
2.361896 1.9860343 0.77729571
2.3552392 2.0267546 0.77690572
2.3469012 2.0777524 0.77641732
2.3386259 2.1286709 0.76580048
2.3302538 2.179879 0.76529956
2.321866 2.2311852 0.76479787
2.3151431 2.2723088 0.76439565
2.3067234 2.3238118 0.76389194
2.2982872 2.3754137 0.76338726
2.2932169 2.4064257 0.76308393
4.0473318 -0.69789499 0.85900903
4.2799702 -0.65916997 0.86654091
3.7501385 -0.72555882 0.8634032
3.903594 -0.70333773 0.8632772
4.0865726 -0.67050093 0.86565965
4.2815566 -0.61790442 0.86727458
3.7497334 -0.68980658 0.86393255
3.9102941 -0.643022 0.86531401
4.0870161 -0.6178906 0.86644304
4.2826591 -0.56229889 0.86810523
3.6022413 -0.67535347 0.86351639
3.601783 -0.65240395 0.86385554
3.7491906 -0.64191383 0.86464161
3.9101985 -0.59265924 0.86606169
4.0874624 -0.56495434 0.86723119
4.2834816 -0.52036613 0.86873049
3.465452 -0.62891906 0.86362135
3.6010923 -0.61785555 0.86436564
3.7486439 -0.59375072 0.8653546
3.910126 -0.55470157 0.86662525
4.0877995 -0.525047 0.86782539
3.4645236 -0.59567022 0.86411124
3.3381875 -0.57514703 0.86387581
3.2201076 -0.53543323 0.86396074
3.337054 -0.54299653 0.86434853
3.110487 -0.50842273 0.86389321
3.2187994 -0.50433642 0.86441708
3.0076177 -0.4735029 0.86397207
3.1090319 -0.47833648 0.86433399
2.9112532 -0.44079122 0.86404586
3.0060363 -0.44434154 0.86439842
2.8207963 -0.41008461 0.86411512
2.9095643 -0.41249996 0.86445892
2.7477326 -0.37631235 0.87686914
2.819015 -0.38261303 0.8645156
2.7414403 -0.3376551 0.87078571
2.7342122 -0.29333133 0.866575
2.7251179 -0.23770393 0.86612123
2.7175231 -0.19125143 0.86574233
2.709913 -0.14470203 0.86536252
2.7007608 -0.088726379 0.86490589
2.6931188 -0.04198204 0.8645246
2.6854603 0.0048596025 0.86414242
2.6777885 0.05178741 0.86375964
2.6716394 0.089398414 0.86345273
2.6670215 0.11764359 0.86322242
2.6608546 0.1553629 0.86291468
2.6531339 0.20258656 0.86252946
2.6453969 0.24990952 0.86214334
2.6370037 0.30133027 0.85893536
2.6294694 0.34725881 0.86378914
2.6205378 0.40196162 0.86090302
2.6127372 0.44967219 0.86051375
2.6053324 0.49503946 0.85769409
2.5971701 0.54517949 0.84993076
2.5893223 0.59318167 0.84952939
2.5798848 0.65090632 0.84904683
2.5720034 0.69911224 0.84864372
2.5641057 0.74742073 0.84823984
2.5561929 0.79581904 0.84783518
2.5482633 0.84432024 0.84742969
2.5403192 0.89291203 0.84702343
2.5323577 0.94160724 0.84661633
2.5243819 0.99039352 0.84620845
2.5179889 1.0294955 0.84588146
2.5131876 1.0588611 0.84563607
2.5083802 1.088266 0.84539008
2.500355 1.1373529 0.84497964
2.4923146 1.1865319 0.84456855
2.4839132 1.2381386 0.83667678
2.4762638 1.2850021 0.83379024
2.4681735 1.3344861 0.83336645
2.4600677 1.3840632 0.83294195
2.4519448 1.4337473 0.83251631
2.4438069 1.483525 0.83209002
2.4356515 1.5334105 0.83166301
2.4274809 1.5833904 0.83123511
2.419292 1.633478 0.83080608
2.4110875 1.6836606 0.83037633
2.4028656 1.7339519 0.82994568
2.3946273 1.7843387 0.82951427
2.3863719 1.8348349 0.82908183
2.3781004 1.8854272 0.82864857
2.3714707 1.9259779 0.82830131
2.3648305 1.9665951 0.82795346
2.3598433 1.9970994 0.82769227
2.3549271 2.0274673 0.81732696
2.3465898 2.0784609 0.81687975
2.338237 2.1295526 0.81643194
2.3298657 2.1807559 0.81598306
2.3214786 2.2320571 0.81553328
2.3147559 2.2731769 0.81517279
2.3063369 2.3246753 0.81472141
2.2979009 2.3762727 0.81426913
2.2928312 2.4072819 0.81399721
2.7473211 -0.37521628 0.92493832
2.741282 -0.33827934 0.92468202
2.7337191 -0.29202381 0.92436093
2.7246251 -0.23640212 0.92397481
2.717031 -0.18995407 0.92365235
2.7094214 -0.14340901 0.92332923
2.7006724 -0.08982747 0.92053807
2.6927099 -0.04091299 0.91293561
2.6850524 0.0059251366 0.91260099
2.6773801 0.052848816 0.91226572
2.6712313 0.090456545 0.91199702
2.6666143 0.11869945 0.91179538
2.6604474 0.15641576 0.91152591
2.6527271 0.20363547 0.91118854
2.6449904 0.25095448 0.91085047
2.6372399 0.29836062 0.91051179
2.629473 0.34586668 0.91017228
2.6201322 0.40299389 0.90976417
2.6123326 0.45070058 0.90942335
2.6041043 0.50115502 0.90486437
2.5967662 0.54619986 0.89893889
2.5889189 0.59419793 0.89858615
2.5794823 0.65191776 0.89816207
2.5716012 0.70011961 0.89780802
2.5637035 0.74842387 0.89745307
2.5557914 0.79681796 0.89709741
2.5478628 0.84531522 0.89674115
2.5399184 0.89390266 0.89638418
2.5319579 0.94259375 0.89602649
2.5239823 0.99137586 0.89566803
2.5175896 1.0304744 0.89538074
2.5127888 1.0598375 0.89516503
2.5079815 1.08924 0.8949489
2.4999568 1.1383225 0.89458835
2.4919169 1.1874971 0.89422697
2.4838598 1.2367773 0.89386487
2.4758666 1.2859588 0.8835516
2.467777 1.3354384 0.883178
2.459672 1.3850113 0.8828038
2.4515493 1.434691 0.88242871
2.4434121 1.4844644 0.8820529
2.4352562 1.5343451 0.88167632
2.4270866 1.5843207 0.8812992
2.4188983 1.6344039 0.88092113
2.4106946 1.684582 0.88054222
2.4024727 1.7348689 0.88016248
2.3942351 1.785251 0.87978226
2.3859804 1.8357427 0.87940091
2.3777096 1.8863304 0.87901902
2.3710799 1.9268776 0.87871289
2.3644402 1.9674913 0.87840623
2.3594532 1.9979928 0.87817603
2.3545377 2.0283577 0.86784303
2.3462007 2.0793469 0.86744767
2.3378482 2.1304338 0.8670516
2.3294773 2.1816323 0.86665463
2.3210909 2.232929 0.86625701
2.314369 2.2740448 0.86593819
2.3059497 2.3255384 0.86553895
2.2975149 2.377131 0.86513901
2.2924457 2.4081376 0.86489862
2.7469094 -0.37412015 0.97299826
2.7408707 -0.33718631 0.97277927
2.7333083 -0.2909345 0.97250497
2.724215 -0.23531723 0.9721753
2.7166212 -0.18887304 0.97189999
2.7090116 -0.14233197 0.97162414
2.6994598 -0.0837892 0.96713066
2.6923015 -0.039844174 0.96133602
2.684644 0.0069900672 0.96104884
2.6769724 0.053910024 0.96076113
2.6708241 0.091514736 0.96053064
2.6662066 0.11975528 0.96035743
2.6600404 0.1574685 0.96012628
2.6523209 0.20468436 0.95983672
2.6445849 0.25199938 0.95954663
2.6368344 0.29940152 0.95925605
2.6290677 0.34690362 0.95896459
2.6197278 0.40402606 0.95861447
2.6119285 0.45172867 0.95832199
2.6041126 0.49953213 0.95802897
2.5962825 0.54742402 0.9577353
2.5884349 0.5954172 0.95744109
2.5794947 0.6502645 0.95149189
2.5711992 0.70112675 0.94696248
2.5633023 0.7494269 0.94665647
2.5553899 0.79781681 0.94634998
2.5474617 0.84630984 0.94604295
2.5395179 0.89489317 0.9457351
2.5315576 0.94358003 0.94542688
2.5235825 0.99235797 0.94511777
2.5171905 1.0314531 0.94487017
2.5123899 1.0608137 0.94468421
2.5075831 1.0902135 0.944498
2.4995584 1.1392919 0.94418716
2.491519 1.1884623 0.94387561
2.4834626 1.237738 0.94356352
2.4754698 1.2869152 0.93330163
2.4673805 1.3363907 0.93297821
2.459276 1.3859591 0.93265426
2.451154 1.4356344 0.93232954
2.4430165 1.4854033 0.93200415
2.4348621 1.5352799 0.93167818
2.4266927 1.5852509 0.93135166
2.418505 1.6353297 0.93102437
2.4103014 1.6855034 0.93069643
2.4020805 1.7357856 0.93036777
2.3938439 1.7861633 0.93003845
2.3855884 1.8366505 0.92970842
2.3773181 1.8872335 0.92937773
2.3706894 1.9277772 0.92911273
2.3641276 1.9682078 0.91876024
2.3591411 1.9987072 0.91855466
2.3541474 2.0292478 0.91834885
2.3458116 2.0802324 0.91800517
2.3374596 2.1313148 0.91766089
2.3290899 2.1825087 0.91731596
2.3207035 2.2338004 0.91697025
2.3139815 2.2749124 0.91669321
2.3055634 2.3264017 0.91634613
2.2971287 2.3779893 0.91599858
2.2920592 2.4089925 0.9157896
2.7464983 -0.37302431 1.0210475
2.7404599 -0.33609331 1.0208659
2.7328978 -0.28984559 1.0206386
2.7238047 -0.23423272 1.0203654
2.7162113 -0.18779208 1.020137
2.7086027 -0.1412548 1.0199082
2.6994522 -0.085293531 1.0196331
2.6918113 -0.038561691 1.0194035
2.6841543 0.0082678711 1.0191733
2.6764832 0.055183109 1.0189426
2.6692011 0.099790864 1.0162958
2.6596339 0.15852098 1.0087171
2.6519141 0.20573291 1.0084754
2.6441784 0.25304404 1.0082333
2.6364286 0.30044225 1.0079907
2.6286623 0.34794024 1.0077475
2.6193233 0.40505797 1.0074552
2.6115243 0.45275676 1.0072111
2.6037087 0.50055605 1.0069665
2.5958791 0.54844385 1.0067214
2.5880322 0.59643298 1.0064757
2.5782633 0.65639758 0.99880302
2.570797 0.70213348 0.99610579
2.5629003 0.75042963 0.99584883
2.5549891 0.79881555 0.99559146
2.5470605 0.84730417 0.99533355
2.5391176 0.89588344 0.99507481
2.531158 0.94456619 0.99481589
2.5231833 0.9933399 0.99455631
2.516083 1.0366814 0.99715471
2.5120709 1.0615945 0.98429167
2.5071845 1.0911869 0.99403566
2.4991603 1.1402611 0.99377453
2.4911213 1.1894271 0.99351287
2.4830654 1.2386987 0.99325079
2.4749942 1.2880628 0.99298805
2.4669845 1.3373426 0.98276854
2.4588802 1.3869067 0.98249465
2.4507587 1.4365776 0.98222029
2.4426217 1.4863421 0.9819454
2.4344673 1.5362142 0.9816699
2.4262981 1.5861806 0.98139411
2.4181116 1.6362551 0.98111773
2.4099083 1.6864243 0.98084062
2.4016879 1.7367022 0.98056287
2.3934517 1.7870754 0.98028469
2.3851976 1.837558 0.9800058
2.3769276 1.8881364 0.97972631
2.3702986 1.9286764 0.97950244
2.363003 1.973511 0.97205096
2.3588293 1.9994212 0.9589265
2.3537583 2.030138 0.96884304
2.3454227 2.0811179 0.96855098
2.3370712 2.1321955 0.96825862
2.3287017 2.1833847 0.96796548
2.3203156 2.2346718 0.96767169
2.3135946 2.2757804 0.96743643
2.3051763 2.3272643 0.96714151
2.2967427 2.3788474 0.96684623
2.2916739 2.409848 0.96666867
2.7460048 -0.37170997 1.0786939
2.7403018 -0.33671734 1.0747179
2.732487 -0.28875658 1.0687629
2.7233944 -0.23314838 1.0685458
2.7158015 -0.18671159 1.0683646
2.7081926 -0.14017808 1.0681831
2.6996703 -0.087999567 1.0660454
2.6923037 -0.043060705 1.0697379
2.6837461 0.0093324427 1.0675994
2.6760752 0.056243926 1.0674164
2.667984 0.10585225 1.0630621
2.6592267 0.15957324 1.0572971
2.6515076 0.20678109 1.0571033
2.6437726 0.25408828 1.0569091
2.6360228 0.30148247 1.0567145
2.628257 0.34897667 1.0565194
2.6189187 0.40608969 1.056285
2.6111197 0.45378432 1.0560892
2.6033049 0.50157964 1.0558929
2.5954752 0.54946333 1.0556964
2.5876293 0.59744853 1.0554993
2.5781941 0.6551528 1.0552624
2.5703144 0.70334148 1.0550647
2.5628338 0.74916548 1.0524166
2.5545876 0.79981387 1.0448231
2.5466599 0.84829855 1.0446142
2.5387175 0.89687359 1.0444049
2.5307584 0.94555217 1.0441953
2.5227838 0.99432158 1.0439851
2.5147922 1.0431951 1.0437746
2.5067861 1.0921602 1.0435636
2.4987626 1.1412301 1.0433521
2.4907238 1.1903919 1.0431404
2.4826684 1.2396591 1.042928
2.4745975 1.2890189 1.0427154
2.4665883 1.3382944 1.0325474
2.4584849 1.3878542 1.0323238
2.4503639 1.4375207 1.0320997
2.4422274 1.4872807 1.0318753
2.4340732 1.5371484 1.0316503
2.4259043 1.5871103 1.031425
2.4177177 1.6371804 1.0311993
2.4095159 1.6873451 1.0309731
2.4012952 1.7376184 1.0307465
2.39306 1.7879872 1.0305192
2.3848062 1.8384653 1.0302914
2.3765366 1.8890392 1.0300632
2.3689752 1.9355203 1.0217935
2.361037 1.9841923 1.0175314
2.3533688 2.0310278 1.019327
2.3450336 2.0820034 1.0190867
2.3366828 2.1330762 1.0188459
2.3283134 2.1842604 1.0186048
2.3199284 2.235543 1.018363
2.3132071 2.2766476 1.0181692
2.3047903 2.3281271 1.0179267
2.2963567 2.3797052 1.0176835
2.2912881 2.4107029 1.0175374
2.7455935 -0.37061459 1.126722
2.7393026 -0.33197322 1.120849
2.7320766 -0.2876682 1.1168765
2.7229848 -0.2320641 1.1167158
2.7153916 -0.18563108 1.1165816
2.7077835 -0.13910151 1.116447
2.7001615 -0.092486925 1.1163123
2.692523 -0.045774866 1.1161773
2.6833379 0.010396629 1.116015
2.675668 0.0573043 1.1158794
2.6679814 0.10431018 1.1157434
2.6587386 0.16083542 1.1155801
2.6510201 0.20803888 1.1154437
2.6432853 0.25534126 1.1153069
2.6356175 0.30252284 1.1054287
2.627852 0.35001293 1.1052817
2.6185141 0.40712127 1.1051052
2.6107161 0.45481187 1.1049576
2.602901 0.50260317 1.1048098
2.5950723 0.55048287 1.1046618
2.5872262 0.59846395 1.1045133
2.5777915 0.65616316 1.1043348
2.5699127 0.70434797 1.1041858
2.5616 0.75531131 1.0998119
2.5541871 0.80081207 1.0940435
2.5462592 0.84929252 1.0938839
2.5383174 0.89786345 1.0937237
2.5303586 0.94653779 1.0935633
2.5223842 0.99530298 1.0934026
2.5143933 1.0441723 1.0932415
2.5063879 1.0931332 1.0930802
2.4983644 1.1421987 1.0929184
2.4903264 1.1913563 1.0927565
2.4822712 1.2406193 1.0925941
2.4742005 1.2899746 1.0924313
2.4666207 1.3364989 1.0865896
2.4580889 1.3888013 1.0821428
2.4499683 1.4384633 1.0819691
2.4418328 1.4882193 1.0817951
2.4336791 1.5380824 1.0816206
2.4255106 1.5880399 1.0814459
2.4173245 1.6381054 1.0812711
2.4091227 1.6882657 1.0810956
2.4009032 1.7385346 1.0809199
2.3926678 1.7888988 1.0807436
2.3844149 1.8393723 1.080567
2.3761461 1.8899419 1.0803901
2.3679368 1.9404416 1.0701376
2.3596342 1.9912183 1.0699497
2.3529794 2.0319176 1.0697992
2.344645 2.0828884 1.0696105
2.3362944 2.1339564 1.0694215
2.3279259 2.1851363 1.0692321
2.3195412 2.236414 1.0690423
2.3128207 2.2775149 1.0688901
2.3044035 2.3289893 1.0686997
2.2959712 2.380563 1.0685089
2.2909026 2.4115577 1.0683942
2.7451825 -0.36951965 1.1747395
2.7391448 -0.33259803 1.1746775
2.7315843 -0.28636205 1.1746
2.7224929 -0.23076349 1.1745068
2.7149007 -0.18433513 1.1744291
2.7077744 -0.14059362 1.1688405
2.6997526 -0.091414288 1.1646142
2.6921148 -0.044706184 1.1645265
2.6829302 0.011460861 1.164421
2.6752603 0.058364648 1.1643329
2.6675746 0.10536661 1.1642445
2.6583323 0.16188735 1.1641383
2.6506143 0.2090867 1.1640497
2.6428797 0.25638524 1.1639609
2.6352119 0.30356282 1.154132
2.6274471 0.35104904 1.1540332
2.6181095 0.40815243 1.1539145
2.610312 0.45583916 1.1538152
2.6024976 0.50362647 1.1537157
2.5946691 0.55150217 1.1536161
2.5868232 0.59947902 1.1535163
2.5773892 0.65717351 1.1533962
2.5695107 0.70535409 1.153296
2.5616155 0.7536369 1.1531955
2.5537055 0.80200964 1.1530949
2.5462778 0.84759939 1.1473699
2.5379174 0.89885312 1.1430327
2.529959 0.94752336 1.1429216
2.5219853 0.99628431 1.1428102
2.5139947 1.0451494 1.1426988
2.5059893 1.094106 1.1425869
2.4979665 1.1431674 1.1424749
2.4899292 1.1923206 1.1423626
2.4818742 1.2415792 1.1422502
2.4738042 1.2909303 1.1421374
2.4653718 1.3427198 1.1345543
2.4576938 1.3897483 1.1319505
2.4495735 1.4394062 1.1318271
2.441438 1.4891574 1.1317035
2.433285 1.5390162 1.1315795
2.425117 1.5889692 1.1314552
2.4169316 1.6390303 1.1313312
2.4087307 1.6891862 1.1312065
2.4005113 1.7394506 1.1310815
2.3922763 1.7898102 1.1309564
2.3840237 1.8402791 1.1308308
2.3758333 1.8906636 1.1206433
2.367547 1.9413394 1.1205071
2.3592446 1.9921117 1.1203705
2.3525901 2.0328071 1.1202612
2.3442562 2.0837731 1.1201241
2.335906 2.1348367 1.1199869
2.3275383 2.1860118 1.1198493
2.319154 2.2372851 1.1197113
2.3124337 2.2783821 1.1196009
2.3040175 2.3298521 1.1194625
2.2955852 2.3814209 1.1193238
2.2905173 2.4124126 1.1192404
2.7447715 -0.36842474 1.2227477
2.738734 -0.33150601 1.222723
2.7311738 -0.28527391 1.2226924
2.7220829 -0.22968005 1.2226554
2.7144911 -0.18325539 1.2226247
2.7065644 -0.13456729 1.2153547
2.6993434 -0.090342 1.2129054
2.6917064 -0.04363757 1.2128648
2.6825225 0.012524767 1.2128162
2.6748531 0.059424702 1.2127756
2.6671677 0.10642293 1.2127349
2.6610096 0.14408039 1.2127023
2.6563835 0.17236806 1.2126777
2.6502082 0.21013442 1.2126451
2.6424737 0.25742888 1.212604
2.6347258 0.30481058 1.2125629
2.626961 0.35229191 1.2125218
2.6181152 0.40655011 1.2068974
2.6099079 0.4568662 1.2026631
2.6020942 0.50464946 1.2026119
2.5942657 0.55252105 1.2025608
2.5864208 0.60049403 1.2025095
2.5769873 0.65818357 1.2024479
2.5691092 0.7063601 1.2023964
2.561214 0.75463873 1.2023448
2.5533049 0.80300736 1.2022932
2.5450416 0.8537553 1.1948504
2.5375173 0.8998425 1.1923305
2.5295596 0.94850862 1.1922687
2.5215864 0.9972654 1.1922067
2.5135958 1.0461262 1.1921446
2.5071144 1.0854723 1.2019911
2.5048296 1.0998816 1.1871281
2.4975691 1.1441356 1.1920201
2.489532 1.1932846 1.1919575
2.4814775 1.2425389 1.1918948
2.473408 1.2918857 1.1918321
2.4653211 1.3413386 1.1917692
2.4572983 1.3906951 1.1817483
2.4491785 1.4403485 1.1816753
2.4410439 1.4900956 1.1816018
2.4328911 1.5399499 1.1815283
2.4247234 1.5898983 1.1814548
2.4165382 1.6399548 1.1813811
2.4083376 1.6901064 1.1813073
2.4001191 1.7403663 1.1812332
2.3918848 1.7907214 1.181159
2.3836324 1.8411858 1.1810846
2.3754425 1.8915657 1.1709497
2.3671563 1.942237 1.1708647
2.358855 1.9930047 1.1707795
2.3537881 2.0236933 1.1808156
2.3514073 2.0386977 1.1656593
2.3438675 2.0846579 1.170626
2.3355184 2.1357169 1.1705403
2.3271506 2.1868873 1.1704545
2.3187666 2.2381554 1.1703686
2.312047 2.2792487 1.1702998
2.3036313 2.330714 1.1702135
2.2952764 2.3821063 1.1599677
2.2902088 2.4130962 1.1599094
2.7451556 -0.37205049 1.2659432
2.7394352 -0.33728331 1.2731558
2.7307634 -0.28418618 1.2707742
2.7216728 -0.22859669 1.2707936
2.7140813 -0.18217577 1.2708094
2.7064743 -0.13565785 1.2708256
2.6988537 -0.089055449 1.2708417
2.6912165 -0.042355683 1.2708582
2.6824367 0.011405217 1.2684571
2.6744454 0.060484435 1.2612088
2.6667604 0.10747878 1.2612157
2.6606028 0.14513329 1.2612212
2.6559775 0.17341857 1.2612252
2.649802 0.21118163 1.2612308
2.6420684 0.25847241 1.2612377
2.6343203 0.30585015 1.2612443
2.6265566 0.35332763 1.2612513
2.6168914 0.41264746 1.2539409
2.6095037 0.45789292 1.2515
2.6016901 0.50567216 1.2514971
2.5938628 0.55353987 1.2514948
2.5860181 0.60150874 1.2514917
2.5765851 0.6591934 1.2514884
2.5687075 0.70736581 1.2514857
2.560813 0.75564051 1.2514831
2.5529041 0.80400491 1.2514802
2.5449781 0.85247213 1.2514775
2.5370374 0.90102959 1.2514746
2.5291595 0.94949359 1.2416062
2.5211871 0.99824619 1.2415935
2.5131977 1.0471029 1.2415807
2.5067956 1.0862509 1.2415706
2.5035903 1.1058511 1.2415655
2.4971714 1.1451038 1.2415552
2.4891346 1.1942483 1.2415425
2.4810808 1.2434984 1.2415297
2.4730117 1.292841 1.2415169
2.4649253 1.3422894 1.2415041
2.4569027 1.3916416 1.2315346
2.4487834 1.4412906 1.2315117
2.4406493 1.4910333 1.2314887
2.4324973 1.5408832 1.2314657
2.42433 1.5908273 1.2314426
2.4161448 1.6408794 1.2314194
2.4079456 1.6910264 1.2313966
2.3997269 1.7412817 1.2313733
2.3914933 1.7916324 1.2313502
2.3836739 1.8395213 1.2288152
2.375052 1.8924676 1.221246
2.3667667 1.9431343 1.2212121
2.3584659 1.9938974 1.2211784
2.3534768 2.0244052 1.2211581
2.3501468 2.0447657 1.2211448
2.3434789 2.0855424 1.2211176
2.3351302 2.1365964 1.2210835
2.3267627 2.1877625 1.2210497
2.3183799 2.2390261 1.2210156
2.3116605 2.2801154 1.2209882
2.3032448 2.3315756 1.2209539
2.2948909 2.3829637 1.2107619
2.2898238 2.4139507 1.2107351
2.7453754 -0.37523782 1.3283151
2.7397387 -0.34069812 1.3259678
2.7303534 -0.28309837 1.3188465
2.7212632 -0.22751349 1.318922
2.7136726 -0.18109633 1.3189851
2.7060657 -0.13458242 1.3190482
2.6984448 -0.087983698 1.3191117
2.6908083 -0.041287545 1.319175
2.6812224 0.017450986 1.3151072
2.6740382 0.061544143 1.3096315
2.6663539 0.10853444 1.3096858
2.6601965 0.14618585 1.3097293
2.6555712 0.17446887 1.3097619
2.6493962 0.2122288 1.3098056
2.6416626 0.25951564 1.3098605
2.6339159 0.30688938 1.3099152
2.626152 0.35436291 1.3099699
2.6168156 0.4114511 1.3100358
2.609019 0.45912483 1.3100913
2.6016178 0.50445706 1.3076993
2.5934596 0.55455834 1.3004187
2.5856159 0.60252333 1.3004643
2.5761831 0.66020304 1.3005192
2.5683057 0.70837134 1.3005655
2.5604117 0.75664186 1.3006115
2.5525033 0.80500215 1.3006575
2.5445776 0.85346526 1.3007038
2.5366373 0.90201855 1.3007501
2.5287604 0.95047843 1.2909322
2.5207882 0.99922687 1.2909689
2.5127988 1.0480793 1.2910055
2.5063975 1.0872239 1.2910351
2.5031927 1.1068225 1.29105
2.4967744 1.1460718 1.2910793
2.4887376 1.1952121 1.2911162
2.4806843 1.2444578 1.2911531
2.4726157 1.2937962 1.2911903
2.4645295 1.3432401 1.2912273
2.4567845 1.3907181 1.2872808
2.4483891 1.4422327 1.2813382
2.4402549 1.491971 1.2813656
2.4321034 1.5418166 1.2813928
2.4239366 1.5917562 1.2814205
2.4157519 1.6418036 1.2814479
2.4075527 1.6919461 1.2814759
2.3993354 1.7421972 1.2815036
2.3911018 1.7925433 1.2815312
2.3824122 1.8458074 1.2772533
2.3746619 1.8933697 1.2715305
2.3663769 1.9440316 1.2715482
2.3580759 1.99479 1.2715657
2.3530874 2.025295 1.2715764
2.3497581 2.0456536 1.2715833
2.3430905 2.0864265 1.2715975
2.3347421 2.1374762 1.2716151
2.3263757 2.1886373 1.2716329
2.3179929 2.2398965 1.2716507
2.3112741 2.280982 1.2716651
2.3029363 2.3322654 1.2615381
2.2945051 2.3838208 1.2615457
2.2894382 2.4148049 1.2615502
2.7449646 -0.37414306 1.3762823
2.7385337 -0.33469906 1.3722681
2.7299435 -0.28201091 1.3669083
2.7223706 -0.23570581 1.367018
2.7147822 -0.1893044 1.3671279
2.705657 -0.13350695 1.3672601
2.6980367 -0.086911999 1.3673706
2.6904004 -0.040219907 1.3674812
2.6812179 0.015927847 1.3676143
2.6735497 0.062815368 1.3677254
2.6658654 0.10980122 1.3678368
2.6589382 0.15216091 1.3679374
2.6546779 0.17859283 1.355062
2.6489899 0.21327578 1.358371
2.6412573 0.26055866 1.3584737
2.6335101 0.3079285 1.3585763
2.625747 0.35539806 1.3586791
2.6164114 0.4124814 1.3588027
2.6086156 0.46015128 1.358906
2.6003904 0.51056677 1.354826
2.5930569 0.5555768 1.3493319
2.5852132 0.60353756 1.349426
2.5757811 0.66121244 1.3495393
2.567904 0.70937663 1.3496341
2.5600104 0.75764304 1.3497288
2.5521026 0.80599922 1.349824
2.5441775 0.85445815 1.3499191
2.5362377 0.90300733 1.3500146
2.528281 0.95165992 1.3501102
2.5203893 1.0002073 1.3403343
2.5124004 1.0490556 1.3404207
2.5059993 1.0881968 1.3404896
2.5027945 1.1077935 1.3405243
2.4963763 1.1470395 1.3405935
2.4883404 1.1961756 1.3406801
2.4802878 1.245417 1.3407667
2.4722197 1.2947509 1.3408537
2.4641337 1.3441907 1.340941
2.4557567 1.3955936 1.3350592
2.4479945 1.4431746 1.3311534
2.4398606 1.4929084 1.3312311
2.43171 1.5427494 1.3313088
2.4235435 1.5926846 1.3313867
2.4153593 1.6427277 1.3314648
2.4071603 1.6928658 1.3315433
2.3989434 1.7431124 1.3316218
2.3907106 1.7934539 1.3317004
2.3829761 1.840916 1.3260347
2.3742714 1.894271 1.3218049
2.3659871 1.9449286 1.3218738
2.3576868 1.9956826 1.3219428
2.3526983 2.0261846 1.3219841
2.3493695 2.0465415 1.3220117
2.3427017 2.0873106 1.3220674
2.3343542 2.1383557 1.3221363
2.3259878 2.1895118 1.3222058
2.317606 2.2407663 1.3222755
2.3108873 2.2818484 1.3223313
2.3025503 2.3331268 1.3122581
2.2941201 2.3846776 1.3123177
2.2890532 2.415659 1.3123536
2.7447186 -0.37348625 1.4050579
2.7386835 -0.33658844 1.4051751
2.7296154 -0.28114119 1.4053513
2.7220428 -0.23483908 1.4054985
2.7144547 -0.1884408 1.405646
2.7053297 -0.13264684 1.4058233
2.6977098 -0.086054906 1.4059713
2.690074 -0.039365713 1.4061197
2.680892 0.016778268 1.4062982
2.673224 0.063662745 1.4064472
2.6655402 0.1106454 1.4065967
2.6573825 0.16071519 1.4002889
2.6532974 0.18578991 1.3971316
2.6486654 0.21411328 1.3972158
2.6409328 0.26139286 1.3973566
2.6331866 0.30875963 1.3974975
2.6254237 0.356226 1.3976388
2.6160884 0.41330555 1.3978088
2.6082926 0.46097219 1.3979505
2.6004806 0.50873947 1.3980927
2.5926542 0.55659491 1.3982352
2.5848107 0.60455167 1.398378
2.5753791 0.66222161 1.3985496
2.567503 0.71038187 1.3986928
2.5596097 0.7586441 1.3988366
2.5517023 0.80699617 1.3989805
2.5437772 0.85545087 1.3991246
2.5358381 0.90399593 1.399269
2.5278819 0.95264435 1.3994141
2.5199907 1.0011876 1.389689
2.5120027 1.0500317 1.3898246
2.5042882 1.0970851 1.3939114
2.5025558 1.1083761 1.3702036
2.4959791 1.1480069 1.3900962
2.4879439 1.1971388 1.3902326
2.4798911 1.2463759 1.3903691
2.4718239 1.2957056 1.3905059
2.4637387 1.3451411 1.3906431
2.4556384 1.3946693 1.3907803
2.4475996 1.4441162 1.3809588
2.4394665 1.4938457 1.3810867
2.4313157 1.5436822 1.3812149
2.4231501 1.593613 1.3813431
2.4149668 1.6436517 1.3814719
2.4067676 1.6937851 1.3816007
2.3985519 1.7440273 1.3817303
2.3903193 1.7943643 1.3818598
2.3817146 1.8471992 1.3744633
2.3738813 1.8951725 1.3720677
2.365597 1.9458253 1.3721879
2.3572974 1.996575 1.3723079
2.3509469 2.0352869 1.3764327
2.3491359 2.0470741 1.3522636
2.3423135 2.0881944 1.3725252
2.3339665 2.1392348 1.372646
2.3256009 2.1903865 1.3727672
2.3175857 2.2395146 1.3688344
2.3105781 2.2825413 1.3628561
2.3021643 2.3339882 1.3629676
2.2937346 2.3855343 1.3630794
2.2886682 2.4165123 1.3631464
2.4473629 1.4446809 1.4108367
2.4392304 1.4944078 1.4109946
2.4310799 1.5442419 1.411153
2.4229143 1.59417 1.4113116
2.414731 1.6442058 1.4114705
2.4065323 1.6943365 1.4116298
2.3983169 1.7445762 1.4117903
2.3900845 1.7949106 1.4119502
2.3818345 1.8453541 1.4121104
2.373569 1.8958936 1.412271
2.3652854 1.9465426 1.4124318
2.356986 1.9972883 1.4125931
2.3503342 2.0379624 1.4127225
2.3420029 2.0889015 1.4128844
2.3336561 2.1399381 1.4130465
2.3252907 2.1910861 1.4132091
2.316402 2.2456362 1.4066346
2.3102694 2.2832341 1.4033738
2.3018558 2.3346772 1.4035269
2.2934265 2.3862193 1.4036804
2.2883604 2.4171953 1.4037726
3.1546736 -0.32178441 -1.0208409
3.1988919 -0.30816835 -1.0175488
3.2444658 -0.29413438 -1.0141554
3.5064714 -0.26931003 -1.0217234
3.5619321 -0.25317645 -1.018052
3.6193008 -0.23648782 -1.0142543
3.6786776 -0.21921508 -1.0103238
4.0236902 -0.18323116 -1.0186921
4.0980568 -0.16285911 -1.0143807
3.29146 -0.27966323 -1.0106565
3.3399413 -0.26473424 -1.0070469
3.0512037 -0.25680071 -0.98160017
3.0973196 -0.26572135 -0.98937428
3.1448522 -0.27489129 -0.99737531
3.1888714 -0.26058328 -0.99373281
3.2342384 -0.24583693 -0.98997879
3.2810178 -0.23063168 -0.98610789
3.3292749 -0.21494584 -0.98211473
3.389981 -0.24932517 -1.0033212
3.4416561 -0.23341265 -0.99947363
3.4950483 -0.21697137 -0.99549842
3.5502439 -0.19997461 -0.99138898
3.6073363 -0.18239395 -0.98713803
3.740171 -0.20132661 -1.006253
3.8038952 -0.18278928 -1.0020345
3.8699734 -0.16356687 -0.99766016
3.9385405 -0.14362077 -0.99312133
3.1350534 -0.22810474 -0.9739632
3.1788738 -0.21310826 -0.96997219
3.2240345 -0.19765265 -0.96585894
3.3790822 -0.19875638 -0.97799337
3.4305151 -0.18203834 -0.97373742
3.4836543 -0.16476573 -0.96934021
3.5385866 -0.14691035 -0.96479464
3.6664255 -0.16419853 -0.98273855
3.7276163 -0.14535561 -0.97818267
3.7910244 -0.12583002 -0.97346157
3.8567727 -0.10558389 -0.96856642
3.9249923 -0.084576786 -0.96348709
4.0097375 -0.12290956 -0.98840815
4.0837193 -0.10138806 -0.98351085
3.9958251 -0.062764779 -0.95821309
3.0018408 -0.22579873 -0.96287936
3.041801 -0.21143337 -0.95890564
3.0829291 -0.19664818 -0.95481551
3.2705994 -0.18171678 -0.96161783
3.3186345 -0.16527788 -0.95724297
3.5954037 -0.1284422 -0.9600929
2.9075069 -0.16655332 -0.92710322
2.9539642 -0.19573012 -0.94472218
2.9926357 -0.18115775 -0.9405517
3.0324197 -0.16616607 -0.93626118
3.0733647 -0.15073676 -0.93184525
3.125277 -0.18142457 -0.9506042
3.1688993 -0.16574253 -0.94626617
3.2138555 -0.14958118 -0.94179547
3.2602069 -0.13291825 -0.93718612
3.3080199 -0.1157298 -0.93243104
3.3682098 -0.14831164 -0.95272768
3.4194012 -0.13079242 -0.9480651
3.4722893 -0.11269259 -0.94324827
3.5269587 -0.093982913 -0.93826884
3.6542051 -0.10932922 -0.95522714
3.7150958 -0.08953698 -0.9501887
3.7781899 -0.069028668 -0.94496787
3.8436084 -0.047764618 -0.93955445
4.0694256 -0.040100828 -0.95273328
2.9449475 -0.15179254 -0.92274934
3.1155219 -0.13485019 -0.92729813
3.1813235 -0.11005399 -0.92020136
3.3573644 -0.097990729 -0.92752397
3.4083152 -0.079674229 -0.92245698
3.4609525 -0.060751457 -0.91722226
3.5835025 -0.074632056 -0.93311912
3.6420176 -0.054606363 -0.92778945
3.7026098 -0.033870023 -0.92227095
3.7653904 -0.01238447 -0.91655278
3.9114833 -0.025702443 -0.93393803
3.9819539 -0.0027962497 -0.92810673
4.0551734 0.021003438 -0.92204773
3.830482 0.0098917438 -0.91062444
2.8805404 -0.13076347 -0.90773672
2.9834485 -0.13661355 -0.9182719
3.023057 -0.1209982 -0.91366583
3.0638201 -0.10492752 -0.90892535
3.1057894 -0.088381261 -0.90404475
3.2498386 -0.084235325 -0.91281188
3.2974305 -0.066301145 -0.90767908
3.5153613 -0.041191969 -0.91181153
2.7760513 -0.083994895 -0.87724882
2.8186073 -0.11072151 -0.89338809
2.8718028 -0.087883696 -0.88629764
2.9314609 -0.086073905 -0.88988376
2.9742825 -0.092165738 -0.89604038
3.0137148 -0.075929709 -0.89112049
3.0542965 -0.0592205 -0.88605696
3.1225483 -0.056677803 -0.88993061
3.1935678 -0.05377505 -0.89383709
3.2394948 -0.035668012 -0.88849592
3.2868664 -0.016991653 -0.88298678
3.346545 -0.04779309 -0.90238184
3.3972569 -0.028683228 -0.89691257
3.4496448 -0.0089418478 -0.89126253
3.5037937 0.011463189 -0.88542247
3.5716321 -0.020962978 -0.90621561
3.6298623 -2.9529714e-05 -0.90042466
3.6901572 0.021645902 -0.89442879
3.7526264 0.044103291 -0.88821626
3.8980129 0.03300285 -0.90447366
3.9681227 0.056996889 -0.89808816
4.0409646 0.081925236 -0.89145374
2.9651353 -0.047814488 -0.87385708
3.1391122 -0.02429829 -0.87547427
3.1834579 -0.0060393238 -0.86994117
3.3357527 0.0022816674 -0.87730151
3.3862262 0.022180889 -0.87143165
3.5597932 0.032565758 -0.87938273
3.6177406 0.054402113 -0.87313312
3.6777382 0.077011324 -0.86666209
3.8173914 0.067385882 -0.88177556
3.8845809 0.091539867 -0.87509388
3.9543333 0.11661538 -0.86815733
4.0267978 0.14266591 -0.86095083
2.7346869 -0.058016621 -0.86156118
2.7677257 -0.042663313 -0.85659081
2.8058827 -0.047833793 -0.86195189
2.8630841 -0.045093566 -0.86490309
2.9180121 -0.020542173 -0.85711163
3.0043936 -0.030960171 -0.86862439
3.0655913 -0.004686927 -0.86046737
3.2291749 0.012784222 -0.86423683
3.2763283 0.032199405 -0.85835361
3.4383657 0.042737059 -0.86536801
2.7058601 -0.010878945 -0.84491408
2.7594166 -0.0014150747 -0.8359744
2.8148394 0.0020863239 -0.83842367
2.8722811 0.0059244358 -0.84086061
2.9090722 0.023021514 -0.83532572
2.9514549 0.018520888 -0.8406781
2.9950929 0.013910803 -0.84617776
3.0560169 0.041142032 -0.8375358
3.1292281 0.022633499 -0.85198498
3.1733716 0.041585058 -0.84610116
3.2188785 0.061122112 -0.84003532
3.2658138 0.08127214 -0.83377934
3.3249867 0.052234042 -0.8522824
3.3752229 0.072918631 -0.84601426
3.427115 0.094285205 -0.83953923
3.4922552 0.063983083 -0.85910088
3.5479851 0.085954435 -0.85261995
3.6056497 0.10868887 -0.84591383
3.6653531 0.13222688 -0.83897066
3.7398977 0.10043515 -0.85995799
3.8043385 0.12471849 -0.85300797
3.8711874 0.14990944 -0.84579819
2.6933854 0.035483599 -0.8412351
3.1193664 0.069457583 -0.82854962
3.1633086 0.089098535 -0.82231629
3.3142455 0.10206461 -0.82732391
3.3642452 0.12353071 -0.82065922
3.4807472 0.116368 -0.83284724
3.5362074 0.13920368 -0.82592708
3.5935917 0.16283144 -0.81876689
3.7272046 0.15661189 -0.83177763
3.7913222 0.18189029 -0.82432097
3.8578324 0.20811215 -0.81658596
3.9405828 0.17605989 -0.8383137
4.0126729 0.20322576 -0.83053863
2.6853089 0.085045002 -0.84163541
2.677242 0.13454755 -0.84203506
2.6691864 0.18398294 -0.84243399
2.6611397 0.23335966 -0.8428328
2.6531696 0.28246748 -0.85312372
2.645144 0.33171743 -0.85351521
2.6339257 0.4005608 -0.8540622
2.6387312 0.37107077 -0.85382777
2.6291237 0.43002585 -0.85429621
2.6211293 0.47908461 -0.85468608
2.6131442 0.52808535 -0.85507542
2.6051698 0.57701999 -0.85546428
2.5972049 0.62589681 -0.85585266
2.5892508 0.67470777 -0.85624051
2.581306 0.72346115 -0.856628
2.5733721 0.77214891 -0.85701495
2.5638642 0.83049566 -0.85747862
2.5559514 0.87905258 -0.85786432
2.5480497 0.92754424 -0.8582496
2.5401564 0.97597885 -0.85863459
2.5322742 1.0243485 -0.85901898
2.5244012 1.0726614 -0.85940284
2.5165389 1.1209096 -0.85978615
2.5086856 1.1691011 -0.86016911
2.5008433 1.2172283 -0.86055154
2.4914441 1.2749035 -0.86101002
2.4836226 1.322902 -0.86139131
2.475811 1.3708363 -0.86177236
2.468009 1.4187148 -0.86215252
2.4602172 1.4665291 -0.86253256
2.4524348 1.5142878 -0.86291206
2.4462161 1.5524502 -0.86321557
2.7067249 0.044422787 -0.81102002
2.7511244 0.039749973 -0.81539941
2.8106434 0.054021191 -0.8129347
2.8635206 0.048817463 -0.81941313
2.900151 0.066492349 -0.81358618
2.9378133 0.084665328 -0.80759472
3.0058329 0.067987002 -0.8207683
3.0670741 0.09644632 -0.81155473
3.1095273 0.11617446 -0.80516797
3.2086067 0.10934564 -0.81589097
3.2553246 0.13022719 -0.80926389
3.4158924 0.14570351 -0.81377518
2.687367 0.092196397 -0.80004519
2.7428489 0.080832265 -0.79486614
2.79353 0.10710513 -0.78592253
2.854779 0.091620669 -0.79801095
2.8912487 0.10987079 -0.79189277
2.9480286 0.13828459 -0.78236735
2.9964836 0.11297498 -0.79826134
3.0574501 0.14239274 -0.78856254
3.0997107 0.16278465 -0.78183955
3.1532693 0.13650165 -0.79858708
3.198359 0.15745531 -0.79180354
3.2448604 0.17906484 -0.7848075
3.3035297 0.15177366 -0.80242616
3.3532948 0.17401727 -0.795367
3.4046965 0.19699232 -0.7880758
3.4692678 0.16861871 -0.80666053
3.5244613 0.19231418 -0.79930383
3.5815654 0.21683048 -0.79169196
3.6530013 0.18729328 -0.8113538
3.7145455 0.21263392 -0.80367452
3.7783415 0.23890181 -0.79571426
3.9268732 0.2353314 -0.80855703
3.9985902 0.26360592 -0.80021679
2.6769834 0.13533817 -0.80238247
3.1432528 0.1837946 -0.77491271
3.2928405 0.20136148 -0.77758914
3.4578168 0.22073564 -0.78054082
3.5127432 0.24528629 -0.77274919
3.6406832 0.24221091 -0.78381187
3.7019217 0.26850212 -0.77564883
3.7653983 0.2957539 -0.76718789
3.8445156 0.26614872 -0.78745759
3.9132025 0.29443043 -0.77888691
3.9845493 0.32380709 -0.76998466
2.6689267 0.18477945 -0.80280697
2.6608794 0.23416205 -0.80323064
2.6529083 0.28327575 -0.81354856
2.644882 0.33253151 -0.81396538
2.633662 0.40138298 -0.8145476
2.638468 0.37188947 -0.81429803
2.6288598 0.43085155 -0.81479669
2.6208644 0.4799161 -0.81521165
2.6128786 0.52892262 -0.81562597
2.6049032 0.57786298 -0.81603986
2.5969377 0.62674564 -0.8164531
2.5889828 0.67556226 -0.8168661
2.581037 0.72432142 -0.81727827
2.5731025 0.7730149 -0.81769007
2.5635929 0.83136839 -0.81818348
2.5556798 0.87993103 -0.81859428
2.5477765 0.92842829 -0.8190043
2.5398827 0.97686857 -0.81941408
2.5320685 1.02502 -0.8296234
2.524195 1.0733372 -0.83002573
2.5163319 1.1215894 -0.83042747
2.5084779 1.1697853 -0.83082891
2.5006349 1.2179165 -0.83122975
2.4912353 1.2755967 -0.83171028
2.483413 1.3235993 -0.83211017
2.475601 1.3715378 -0.83250946
2.467798 1.4194204 -0.83290815
2.460006 1.4672389 -0.83330649
2.4522228 1.5150017 -0.83370429
2.444036 1.5653219 -0.83829325
2.4352059 1.6196227 -0.84430033
2.427454 1.6671937 -0.84469056
2.4197125 1.7147012 -0.84508008
2.4119794 1.7621533 -0.8454693
2.4042571 1.8095427 -0.84585786
2.3919203 1.8852493 -0.84647888
2.3965437 1.856877 -0.84624612
2.3873005 1.9135979 -0.84671128
2.3796089 1.9607991 -0.84709847
2.3703909 2.017365 -0.84756231
2.3627195 2.064441 -0.84794843
2.3550582 2.111455 -0.84833401
2.3474057 2.1584144 -0.848719
2.342819 2.1865616 -0.84894991
2.6825287 0.13889198 -0.76849031
2.7429566 0.14143315 -0.76549828
2.8021734 0.15808734 -0.76185578
2.8417029 0.15564609 -0.76599675
2.8823655 0.1531571 -0.77024531
2.9388943 0.18246162 -0.76026946
3.0069969 0.16779323 -0.7724753
3.0478475 0.18823572 -0.76562226
3.0899165 0.20928802 -0.75856471
3.1881356 0.20545149 -0.76777279
3.2344215 0.2277855 -0.76040965
3.3423712 0.22437881 -0.77013749
3.3935287 0.24815214 -0.76244092
3.5695703 0.27068645 -0.76468843
2.6703968 0.18806705 -0.75658566
2.7388346 0.1923728 -0.74049753
2.7936392 0.20006905 -0.74086708
2.8286626 0.21949297 -0.73407191
2.8735011 0.19635148 -0.74864417
2.9297805 0.22654292 -0.73821974
2.9975996 0.21289408 -0.74990988
3.0382664 0.23397569 -0.74273336
3.0801454 0.25568539 -0.73534298
3.13326 0.23097791 -0.75129354
3.1779363 0.25333467 -0.74379885
3.2240076 0.2763896 -0.73607004
3.2821777 0.25082889 -0.7528125
3.331475 0.27461597 -0.7449702
3.3823895 0.29918337 -0.73687047
3.4463947 0.27271929 -0.7544874
3.5010564 0.29812083 -0.7462638
3.557606 0.32439986 -0.73775631
3.6283972 0.29698056 -0.75634384
3.6893327 0.32421699 -0.74770015
3.8312368 0.32401997 -0.75841182
3.8995724 0.35335788 -0.7493031
2.6605537 0.23516531 -0.75371349
3.1232905 0.27805182 -0.72772908
3.2715404 0.30017594 -0.72809601
3.4350021 0.32457018 -0.72850096
3.6161437 0.35160285 -0.72894943
3.7524908 0.35244712 -0.7387411
3.8179953 0.38172641 -0.7294488
3.8859813 0.41211447 -0.71980488
3.9705496 0.38382998 -0.73984212
2.6525164 0.28448841 -0.75416809
2.6448355 0.33170217 -0.7585609
2.6365371 0.38274574 -0.76496261
2.6285298 0.43188393 -0.76540929
2.6205337 0.48095572 -0.76585567
2.6125462 0.52996945 -0.76630151
2.6045702 0.57891709 -0.76674652
2.5966032 0.62780678 -0.76719117
2.5886471 0.67663074 -0.76763523
2.5807006 0.72539699 -0.7680788
2.5727646 0.77409756 -0.76852167
2.5632541 0.83245963 -0.76905239
2.5553396 0.88102931 -0.76949412
2.5474358 0.92953372 -0.76993531
2.5395412 0.97798121 -0.77037591
2.5317256 1.0261395 -0.78061807
2.5238509 1.0744636 -0.78105134
2.5159862 1.1227229 -0.78148395
2.508132 1.1709257 -0.78191632
