# .PCD v0.7 - Point Cloud Data file format
VERSION 0.7
FIELDS x y z
SIZE 4 4 4
TYPE F F F
COUNT 1 1 1
WIDTH 1462
HEIGHT 1
VIEWPOINT 0 0 0 1 0 0 0
POINTS 1462
DATA ascii
2.9048975 -0.23892453 -1.2346324
2.903729 -0.18947674 -1.2355983
2.9025567 -0.13988639 -1.2365671
2.9013803 -0.090153009 -1.2375387
2.9002016 -0.040275708 -1.238513
2.8990185 0.0097456984 -1.2394902
2.8978324 0.059912309 -1.2404702
2.8966429 0.11022436 -1.2414531
2.8955736 0.16317576 -1.2351832
2.8947408 0.20867477 -1.2263137
3.862165 -2.6870503 -1.2264075
3.8618696 -2.6590164 -1.2122154
3.8608778 -2.6168153 -1.2128035
3.8595519 -2.5604205 -1.2135892
3.858223 -2.5038729 -1.2143772
3.85689 -2.4471722 -1.2151673
3.8558884 -2.4045506 -1.2157612
3.8548841 -2.3618324 -1.2163564
3.8535423 -2.3047454 -1.2171519
3.8521969 -2.2475038 -1.2179494
3.8511853 -2.2044744 -1.2185489
3.8501716 -2.1613479 -1.2191499
3.8488171 -2.1037145 -1.2199528
3.8474588 -2.0459232 -1.2207582
3.8464377 -2.002481 -1.2213634
3.8454139 -1.9589397 -1.2219702
3.8440466 -1.9007514 -1.2227809
3.8430185 -1.8570104 -1.2233905
3.84236 -1.8132247 -1.2091119
3.8409836 -1.7546357 -1.2099079
3.8399487 -1.7105931 -1.2105061
3.8929076 -1.6858802 -1.2076035
3.4041321 -1.5906332 -1.2224578
3.4777904 -1.5691857 -1.2142764
3.6396346 -1.5797424 -1.2253631
3.7237995 -1.5565666 -1.2166853
3.819895 -1.5326936 -1.2093707
3.9091356 -1.5672793 -1.2286878
2.9527347 -1.580714 -1.2013735
3.0700264 -1.5901023 -1.2102838
3.1300359 -1.5707228 -1.2026579
3.1965747 -1.6002316 -1.2198972
3.2615659 -1.5802772 -1.2121592
3.3292475 -1.5594968 -1.2041011
3.417819 -1.5388726 -1.2001292
3.5478549 -1.5327061 -1.2043883
3.6743205 -1.5111382 -1.2061307
3.8177743 -1.5030916 -1.2094539
2.9360735 -1.5452121 -1.1975427
2.9936845 -1.5375888 -1.1904153
3.0083075 -1.5618804 -1.1938646
3.0894041 -1.5318528 -1.1926343
3.1912444 -1.5257488 -1.1949953
3.2998123 -1.5192477 -1.1975123
3.4147842 -1.4990075 -1.2002372
3.537926 -1.4773293 -1.2031558
3.671186 -1.4683342 -1.2062496
3.8145907 -1.4586493 -1.209579
2.9349926 -1.4994551 -1.1984205
2.9908471 -1.5025067 -1.1905063
3.0855558 -1.4836196 -1.1927609
3.1863501 -1.4635186 -1.1951604
3.2958302 -1.4678192 -1.1976501
3.4107335 -1.4458016 -1.2003813
3.5348375 -1.4360048 -1.2032689
3.6680472 -1.4254847 -1.2063684
3.8103414 -1.3993275 -1.2097458
2.9339075 -1.4535711 -1.1993009
2.9870605 -1.4556899 -1.1906278
3.0817025 -1.4353343 -1.1928877
3.1824296 -1.4136698 -1.1952926
3.2918434 -1.4163318 -1.197788
3.4066787 -1.3925325 -1.2005256
3.5317457 -1.3946378 -1.2033823
3.6638582 -1.3682913 -1.2065271
3.8071504 -1.3547872 -1.2098711
2.9328203 -1.4075598 -1.2001835
2.9832702 -1.4088243 -1.1907495
3.0778449 -1.386997 -1.1930141
3.178504 -1.3637655 -1.1954246
3.2878523 -1.3647851 -1.197926
3.4026184 -1.3392 -1.2006701
3.5276196 -1.3394253 -1.2035336
3.6596637 -1.3110248 -1.206686
3.8039567 -1.3101976 -1.2099966
2.9320025 -1.3729713 -1.200847
2.9667587 -1.3500955 -1.1934988
3.073983 -1.3386077 -1.1931409
3.1745734 -1.3138057 -1.1955568
3.2838557 -1.3131791 -1.1980642
3.3995707 -1.299161 -1.2007786
3.5245216 -1.2979735 -1.2036473
2.9392424 -1.2988678 -1.1953704
3.0710835 -1.302283 -1.193236
2.9292831 -1.2455553 -1.1916147
2.9281819 -1.1989646 -1.1924922
2.927078 -1.1522434 -1.1933722
2.9259713 -1.1053913 -1.1942545
2.9248612 -1.0584078 -1.1951395
2.9237478 -1.0112923 -1.1960268
2.9226465 -0.95225275 -1.1853595
2.9212468 -0.89297116 -1.1864554
2.920419 -0.84543866 -1.1755172
2.9192922 -0.79772305 -1.1763823
2.9181626 -0.74987227 -1.1772501
2.9198651 -0.70526946 -1.1828082
3.0204563 -0.66792732 -1.1948977
2.9220772 -0.65225911 -1.1927125
3.0175133 -0.631055 -1.1949943
3.1210847 -0.63386762 -1.1973556
3.229444 -0.61065006 -1.1999424
3.3462827 -0.59940267 -1.2026702
3.4703476 -0.57331049 -1.2056299
2.9182186 -0.60455012 -1.1928364
3.0135865 -0.58184719 -1.1951232
3.11709 -0.58309227 -1.19749
3.2253797 -0.55817366 -1.2000827
3.3431833 -0.5586974 -1.2027802
3.467195 -0.53114426 -1.2057452
3.6024971 -0.53071803 -1.2088481
3.7459033 -0.49999121 -1.2122717
2.9143558 -0.55679089 -1.1929604
3.009655 -0.53258592 -1.1952522
3.113091 -0.53226012 -1.1976243
3.2213109 -0.50563639 -1.2002232
3.339046 -0.50436956 -1.2029272
3.4640398 -0.48894313 -1.2058606
3.5982227 -0.47237805 -1.2090098
3.7426467 -0.45455375 -1.2123991
2.9121649 -0.50852108 -1.193561
3.0057192 -0.48327115 -1.1953814
3.1090879 -0.48137075 -1.197759
3.218256 -0.46619537 -1.2003286
3.3349037 -0.44997633 -1.2030742
3.4608817 -0.44669819 -1.2059762
3.5940087 -0.40908834 -1.1995165
3.7339792 -0.40534544 -1.2012727
2.9110155 -0.45984727 -1.1944607
3.0017791 -0.43390265 -1.1955107
3.0294521 -0.4134475 -1.1784654
3.1050801 -0.43042415 -1.1978939
3.1287236 -0.41095468 -1.1787844
3.2151978 -0.4267163 -1.2004342
3.2342153 -0.40830553 -1.1791235
3.3391614 -0.40731293 -1.1913345
3.4620347 -0.40344727 -1.1929805
2.9099667 -0.40699565 -1.1874555
2.9358642 -0.41579777 -1.1781644
2.9087167 -0.34986702 -1.1845034
2.9072664 -0.28844231 -1.1856172
2.9061029 -0.23913793 -1.1865114
2.9049354 -0.18969172 -1.1874081
2.9037647 -0.14010291 -1.1883074
2.9025905 -0.090370834 -1.1892093
2.9014137 -0.040495083 -1.1901138
2.9002326 0.0095248828 -1.1910208
2.8990479 0.059689928 -1.1919305
2.8981645 0.10994467 -1.1806909
2.8971555 0.15785213 -1.1766737
2.8960848 0.21094809 -1.1703007
3.8629644 -2.6591663 -1.1684366
3.8619735 -2.6169662 -1.1689802
3.8606496 -2.5605721 -1.1697068
3.8593218 -2.5040259 -1.1704353
3.8583574 -2.4473777 -1.1564991
3.857357 -2.4047568 -1.1570332
3.856355 -2.3620398 -1.1575687
3.8550146 -2.304955 -1.1582842
3.8536716 -2.2477143 -1.1590016
3.8526611 -2.2046866 -1.159541
3.851649 -2.161561 -1.1600815
3.8502965 -2.103929 -1.1608038
3.8489404 -2.0461395 -1.1615282
3.8479209 -2.0026984 -1.1620727
3.846899 -1.9591579 -1.1626184
3.8455331 -1.9009714 -1.1633477
3.8445067 -1.8572316 -1.1638958
3.8434777 -1.8133917 -1.1644453
3.8421025 -1.7548038 -1.1651796
3.8410687 -1.710762 -1.1657317
3.8929293 -1.6859549 -1.1619636
2.9312747 -1.2806011 -1.144297
2.9304526 -1.2457401 -1.1449049
2.929353 -1.1991506 -1.145717
2.9282508 -1.1524308 -1.1465316
2.9274392 -1.1056271 -1.1356223
2.926331 -1.0586452 -1.1364249
2.92522 -1.0115315 -1.1372297
2.9241214 -0.95249403 -1.1264592
2.9227235 -0.89321446 -1.1274513
2.921602 -0.8456347 -1.1282474
2.9204769 -0.79792047 -1.1290458
2.919349 -0.75007105 -1.1298466
2.9185009 -0.71409929 -1.1304485
3.596354 -0.3990891 -1.1514072
3.7337461 -0.39563462 -1.1508143
3.0316598 -0.41323581 -1.1415323
3.1310391 -0.41073528 -1.1407292
3.2366471 -0.40807819 -1.1398759
3.3490877 -0.40524915 -1.1389674
3.4690468 -0.4022308 -1.137998
2.9110727 -0.39907491 -1.1357198
2.937974 -0.415593 -1.1422892
2.9099174 -0.35007727 -1.1365397
2.9084697 -0.28865451 -1.1375675
2.9073074 -0.23935145 -1.1383926
2.9061418 -0.18990654 -1.13922
2.904973 -0.14031905 -1.1400499
2.9038007 -0.090588756 -1.140882
2.9026251 -0.040714342 -1.1417167
2.9014459 0.0093040783 -1.1425538
2.9005675 0.059412025 -1.1312594
2.8996859 0.10966501 -1.1199321
2.8984973 0.16011961 -1.120741
2.8973055 0.21072128 -1.1215523
3.8640592 -2.6593163 -1.1246592
3.8630698 -2.6171169 -1.1251587
3.8617473 -2.560724 -1.1258259
3.8604212 -2.5041788 -1.1264951
3.859458 -2.4475317 -1.1124997
3.858459 -2.404912 -1.1129891
3.8574576 -2.362196 -1.1134795
3.8561194 -2.3051121 -1.1141353
3.8547773 -2.2478726 -1.1147926
3.8537688 -2.2048457 -1.1152867
3.8527575 -2.1617208 -1.1157818
3.8514068 -2.10409 -1.1164436
3.8500519 -2.0463016 -1.1171073
3.8490329 -2.0028613 -1.117606
3.8480124 -1.9593222 -1.1181061
3.8467824 -1.896318 -1.1089216
3.8459949 -1.8574532 -1.104404
3.8449676 -1.813614 -1.1048921
3.8435946 -1.755028 -1.1055443
3.842562 -1.7109874 -1.1060345
3.8929505 -1.6860294 -1.1163535
2.932734 -1.280831 -1.0859735
2.9319134 -1.2459712 -1.0865203
2.9308164 -1.1993831 -1.0872509
2.9297161 -1.152665 -1.0879837
2.9289064 -1.105863 -1.0769926
2.9278011 -1.0588827 -1.0777131
2.9266915 -1.0117706 -1.0784355
2.9253006 -0.95268708 -1.0793414
2.9239051 -0.89340931 -1.0802504
2.922785 -0.8458308 -1.0809801
2.9216619 -0.79811782 -1.0817115
2.9205351 -0.75026989 -1.0824453
2.9196887 -0.71429908 -1.0829968
3.5992045 -0.39883375 -1.1080614
3.7367637 -0.39536834 -1.1059146
3.0346069 -0.41295314 -1.0922456
3.1341283 -0.41044283 -1.0899439
3.2398913 -0.40777504 -1.0874977
3.3525012 -0.40493447 -1.0848932
3.4717453 -0.40198559 -1.0960937
2.9122717 -0.39928368 -1.0878268
2.9407897 -0.41531971 -1.0944155
2.911118 -0.35028747 -1.0885782
2.909673 -0.28886631 -1.08952
2.9085119 -0.23956494 -1.090276
2.9073484 -0.19012146 -1.0910342
2.9061806 -0.14053553 -1.0917946
2.9050107 -0.090806536 -1.0925572
2.9041398 -0.040988505 -1.0812237
2.9029627 0.0090280473 -1.0819732
2.9020865 0.059134379 -1.0705914
2.900903 0.10944125 -1.0713276
2.8997164 0.15989463 -1.0720659
2.8985264 0.21049464 -1.0728065
3.865519 -2.6595163 -1.0662916
3.864531 -2.6173177 -1.0667318
3.8632107 -2.5609264 -1.0673201
3.8618867 -2.5043828 -1.0679103
3.8605585 -2.447686 -1.0685018
3.8595607 -2.405067 -1.0689465
3.8585606 -2.3623517 -1.0693921
3.8572235 -2.305269 -1.0699877
3.8558831 -2.2480309 -1.070585
3.8548758 -2.2050045 -1.0710338
3.8538659 -2.1618807 -1.0714839
3.8525162 -2.1042509 -1.0720851
3.8511629 -2.0464637 -1.072688
3.8501456 -2.0030246 -1.0731412
3.8491259 -1.9594858 -1.0735955
3.848001 -1.9061755 -1.069198
3.847111 -1.857619 -1.0597867
3.8460853 -1.8137809 -1.0602287
3.8447134 -1.7551961 -1.0608194
3.8436825 -1.7111565 -1.0612636
3.8929789 -1.686129 -1.0555799
2.9341938 -1.2810607 -1.027653
2.9333742 -1.2462021 -1.0281388
2.9322793 -1.1996158 -1.0287877
2.9311812 -1.1528993 -1.0294389
2.9300802 -1.1060516 -1.0300915
2.9289761 -1.0590727 -1.0307462
2.9278691 -1.0119619 -1.0314026
2.9264796 -0.95288008 -1.0322257
2.9250865 -0.89360386 -1.0330516
2.9239681 -0.84602678 -1.0337147
2.9228463 -0.79831523 -1.0343794
2.9217217 -0.75046855 -1.0350461
2.9208763 -0.71449882 -1.0355473
3.6030073 -0.3984932 -1.050208
3.7407901 -0.39501339 -1.0459851
3.0375569 -0.41267022 -1.0429081
3.1372216 -0.4101499 -1.0391043
3.243139 -0.40747148 -1.035062
3.3550632 -0.40469834 -1.0442992
3.4744456 -0.40174025 -1.0541482
2.9134707 -0.39949247 -1.0399362
2.9443126 -0.4149777 -1.0345032
2.9123189 -0.35049766 -1.0406188
2.9108758 -0.28907835 -1.0414747
2.9097168 -0.2397784 -1.0421617
2.9085548 -0.19033647 -1.0428507
2.9075119 -0.13830176 -1.0363358
2.9065232 -0.091078818 -1.0321543
2.905654 -0.041262649 -1.020734
2.9044795 0.0087522967 -1.0213958
2.9033012 0.058912061 -1.0220597
2.9021204 0.10921763 -1.0227255
2.9009352 0.15966921 -1.0233932
2.8997471 0.21026765 -1.0240628
3.8669791 -2.6597159 -1.0079263
3.8659923 -2.6175189 -1.0083076
3.8646741 -2.5611291 -1.0088171
3.8633518 -2.5045869 -1.0093279
3.8620265 -2.4478912 -1.0098401
3.8610294 -2.4052734 -1.0102249
3.8600307 -2.3625593 -1.0106109
3.8586957 -2.3054781 -1.0111265
3.8573577 -2.2482414 -1.0116435
3.8563514 -2.2052166 -1.0120324
3.8553431 -2.1620936 -1.0124218
3.8539956 -2.104466 -1.0129424
3.852644 -2.04668 -1.0134645
3.8516288 -2.003242 -1.0138569
3.8506107 -1.9597046 -1.0142502
3.8492503 -1.9015218 -1.0147759
3.8482275 -1.8577851 -1.0151709
3.8472021 -1.8139479 -1.0155669
3.8458319 -1.7553642 -1.0160961
3.8448024 -1.7113253 -1.0164939
3.8930008 -1.6862035 -1.0100294
2.9353609 -1.2812445 -0.98099899
2.9345431 -1.2463869 -0.98143595
2.9334497 -1.1998019 -0.9820199
2.9323533 -1.1530865 -0.98260528
2.9312539 -1.1062404 -0.9831925
2.9301515 -1.0592628 -0.98378128
2.9290457 -1.0121533 -0.98437184
2.927659 -0.95307308 -0.98511219
2.9262679 -0.89379859 -0.98585516
2.9251509 -0.84622288 -0.98645145
2.924031 -0.79851258 -0.98704946
2.9229078 -0.75066739 -0.98764908
2.9220638 -0.71469861 -0.98809993
3.6068144 -0.39815244 -0.99228418
3.7438121 -0.39474702 -1.0009907
3.0405095 -0.41238707 -0.99351948
3.1403174 -0.40985674 -0.98821056
3.2463906 -0.40716758 -0.98256844
3.3576283 -0.40446189 -1.0036669
3.4780495 -0.40141281 -0.99816602
2.91467 -0.39970121 -0.99204779
2.9478405 -0.41463512 -0.97452062
2.9135199 -0.35070795 -0.99266177
2.9120781 -0.28929061 -0.99343163
2.9112225 -0.24004523 -0.98202193
2.910063 -0.190605 -0.98262435
2.9090786 -0.14352679 -0.9783715
2.9080353 -0.091351196 -0.97175461
2.9068658 -0.041482046 -0.97234464
2.9056931 0.0085314577 -0.97293657
2.9045167 0.058689792 -0.97353023
2.903337 0.10899366 -0.9741255
2.9021542 0.15944393 -0.97472256
2.9009676 0.21004115 -0.97532129
3.8680742 -2.6598656 -0.96415412
3.8670883 -2.6176693 -0.96449107
3.8657715 -2.561281 -0.9649412
3.8644507 -2.5047398 -0.96539265
3.8631265 -2.4480455 -0.96584529
3.8621311 -2.4054286 -0.96618563
3.8611333 -2.3627152 -0.96652657
3.8598003 -2.305635 -0.96698225
3.8584633 -2.2483997 -0.96743917
3.8574581 -2.2053754 -0.96778274
3.8564513 -2.1622536 -0.96812707
3.8551049 -2.1046269 -0.96858704
3.8537562 -2.0468423 -0.9690485
3.853112 -2.0034592 -0.95457512
3.8520954 -1.959923 -0.95490748
3.8507366 -1.9017421 -0.95535165
3.8497157 -1.8580064 -0.9556855
3.8486919 -1.8141704 -0.95602018
3.8473239 -1.7555883 -0.95646739
3.8462963 -1.7115508 -0.95680356
3.8930218 -1.686278 -0.96450871
2.9365284 -1.2814282 -0.93434703
2.9357119 -1.2465718 -0.93473524
2.9346199 -1.199988 -0.93525392
2.9335248 -1.1532739 -0.93577391
2.9324276 -1.1064291 -0.93629551
2.9313269 -1.0594528 -0.93681854
2.9302225 -1.0123446 -0.93734306
2.928838 -0.95326608 -0.9380008
2.927449 -0.89399326 -0.93866068
2.9263339 -0.84641886 -0.93919033
2.9252157 -0.79870999 -0.93972147
2.9240944 -0.75086606 -0.94025421
2.9232514 -0.71489841 -0.94065464
3.7458282 -0.39456931 -0.97096932
3.0427265 -0.41217455 -0.95644593
3.1426415 -0.40963674 -0.95000637
3.2488315 -0.40693954 -0.94316214
3.3601949 -0.40422538 -0.96300375
3.4175253 -0.38918346 -0.94552875
3.4807551 -0.40116701 -0.95613837
3.6159966 -0.38135698 -0.95002031
2.9206486 -0.39843658 -0.94510722
2.9499588 -0.41442952 -0.93849486
3.0732319 -0.39065549 -0.93740571
3.2318702 -0.37109113 -0.94063127
3.4066858 -0.34953168 -0.94418597
3.600286 -0.3256557 -0.94812256
2.915446 -0.35068852 -0.94485068
3.0608509 -0.3427678 -0.93580002
3.2185509 -0.32092592 -0.93894202
3.3922889 -0.29686391 -0.9424026
3.584651 -0.2702226 -0.94623411
2.9132812 -0.28950247 -0.9453907
3.0485139 -0.29508072 -0.93419963
3.2052786 -0.27098197 -0.93725812
3.3779552 -0.24443726 -0.94062686
3.5690911 -0.21505602 -0.94435465
2.9124267 -0.24025865 -0.93391234
3.0362279 -0.24759136 -0.93260574
3.19206 -0.22125566 -0.93558091
3.3636749 -0.19225289 -0.9388572
3.5574658 -0.17384696 -0.94295037
2.9112687 -0.19081999 -0.9344455
3.0209446 -0.18851544 -0.93062323
3.178899 -0.17174472 -0.93391091
3.3459127 -0.12734929 -0.936656
3.3530049 -0.15326329 -0.93753487
3.5458763 -0.13280596 -0.9415499
2.9101071 -0.14123878 -0.93498015
3.0057344 -0.12972321 -0.92865014
3.1657946 -0.12244774 -0.93224818
3.3388369 -0.10149384 -0.93577904
3.5304852 -0.078302726 -0.93969017
2.9089427 -0.091514505 -0.93551642
2.9906039 -0.071237147 -0.92668736
2.9966464 -0.094593056 -0.92747116
3.1527474 -0.073363498 -0.9305926
3.3282549 -0.062828049 -0.93446767
3.5151677 -0.024059828 -0.93783933
3.7313533 -0.0095034754 -0.9425692
2.9077744 -0.041646495 -0.93605423
2.9815648 -0.036299109 -0.9255147
3.1397555 -0.024490265 -0.92894399
3.3141994 -0.011467944 -0.93272579
3.5037255 0.016460871 -0.93645656
3.7146924 0.047531433 -0.94060999
2.9066031 0.0083658732 -0.93659359
2.9695542 0.010126039 -0.92395663
3.1268198 0.024173185 -0.9273026
3.3002067 0.039660379 -0.93099171
3.4923284 0.056821071 -0.9350794
3.7022498 0.090128519 -0.93914652
2.9054279 0.058523178 -0.93713444
2.957593 0.056361705 -0.92240494
3.1139395 0.072628237 -0.92566824
3.2862773 0.09055838 -0.92926544
3.4771924 0.11042161 -0.93325043
3.6898584 0.13254751 -0.93768936
2.9042499 0.10882592 -0.93767703
2.9456801 0.10240871 -0.92085969
3.1011143 0.12087597 -0.92404085
3.2724106 0.14122781 -0.92754692
3.4621274 0.16376831 -0.93143004
3.6734064 0.18887049 -0.93575454
2.9030681 0.15927503 -0.9382211
2.933816 0.1482686 -0.91932052
3.0883436 0.16891792 -0.9224205
3.258606 0.19167021 -0.92583621
3.4471347 0.21686321 -0.92961836
3.6611183 0.23093665 -0.93430936
2.9018829 0.20987099 -0.93876672
2.9219999 0.19394229 -0.91778767
3.0756276 0.21675564 -0.92080694
3.248291 0.22936092 -0.92455786
2.9131677 0.22808155 -0.91664201
3.8691683 -2.6600156 -0.92038339
3.8681841 -2.6178203 -0.92067599
3.8668687 -2.5614328 -0.92106706
3.8655496 -2.5048926 -0.92145902
3.8642268 -2.4481997 -0.92185217
3.8632326 -2.4055834 -0.92214763
3.8622363 -2.3628712 -0.92244381
3.8609047 -2.3057919 -0.92283958
3.8595693 -2.2485576 -0.92323649
3.8585653 -2.2055345 -0.92353475
3.8575597 -2.1624136 -0.92383379
3.8562148 -2.1047878 -0.92423338
3.8548667 -2.0470042 -0.9246341
3.8542237 -2.0036223 -0.91011542
3.8532085 -1.9600871 -0.91040212
3.8518517 -1.9019073 -0.91078514
3.8508315 -1.8581724 -0.91107309
3.8498094 -1.8143373 -0.91136175
3.848443 -1.7557564 -0.91174746
3.8474162 -1.7117198 -0.91203737
3.8930438 -1.6863525 -0.91901177
2.9376962 -1.281612 -0.88769728
2.9368804 -1.2467564 -0.88803655
2.9357905 -1.200174 -0.88848996
2.9346974 -1.1534612 -0.88894469
2.9336011 -1.1066177 -0.88940066
2.932502 -1.0596428 -0.88985795
2.9313996 -1.0125359 -0.89031649
2.930017 -0.95345902 -0.89089143
2.9286301 -0.89418793 -0.89146841
2.9275167 -0.8466149 -0.89193141
2.9264007 -0.79890728 -0.89239579
2.9252806 -0.75106478 -0.89286149
2.9244394 -0.71509808 -0.89321166
3.9551606 -3.1932566 -0.88359815
4.0519133 -3.2090394 -0.89696562
4.0812593 -3.1648173 -0.87102824
3.8893702 -3.1358309 -0.84593374
3.9829938 -3.1499736 -0.85817742
3.8706284 -2.6602156 -0.86202449
3.8696456 -2.618021 -0.86225802
3.8683324 -2.561635 -0.86257011
3.8670151 -2.5050967 -0.86288303
3.865694 -2.448405 -0.86319673
3.8647013 -2.4057901 -0.86343259
3.8637064 -2.3630788 -0.86366898
3.8623769 -2.3060014 -0.86398488
3.8610435 -2.2487686 -0.86430162
3.8600414 -2.2057464 -0.86453974
3.8590367 -2.1626265 -0.86477834
3.8576941 -2.1050024 -0.86509734
3.8563478 -2.0472205 -0.865417
3.855336 -2.0037851 -0.86565739
3.854322 -1.960251 -0.86589831
3.8529665 -1.9020722 -0.8662203
3.851948 -1.8583384 -0.86646235
3.8509264 -1.8145041 -0.866705
3.8495619 -1.7559245 -0.86702913
3.848536 -1.7118888 -0.86727279
3.8930655 -1.6864269 -0.87354445
2.9388633 -1.2817959 -0.84104949
2.9380493 -1.2469411 -0.84134007
2.9369609 -1.2003601 -0.84172827
2.935869 -1.1536486 -0.84211743
2.9347749 -1.1068064 -0.8425079
2.9336772 -1.0598328 -0.84289938
2.9325767 -1.0127273 -0.84329194
2.931196 -0.95365196 -0.84378433
2.9298112 -0.89438254 -0.84427822
2.9286997 -0.84681076 -0.84467465
2.9275846 -0.79910469 -0.84507221
2.9265885 -0.74889791 -0.83838004
2.9259236 -0.71534777 -0.83391088
3.8000684 -3.1223412 -0.83425516
3.9162261 -3.0927541 -0.82060242
4.0112891 -3.1059642 -0.83233058
3.7390683 -3.0681355 -0.79874587
3.8255866 -3.0801585 -0.80941993
4.0400543 -3.0612085 -0.80604649
3.6563969 -3.0566471 -0.78854644
3.8717227 -2.6603656 -0.81825691
3.8707416 -2.6181719 -0.81844622
3.8694291 -2.5617871 -0.81869906
3.868114 -2.5052497 -0.81895262
3.8667943 -2.4485593 -0.81920683
3.865803 -2.4059451 -0.81939799
3.8648088 -2.3632348 -0.81958944
3.8634808 -2.3061583 -0.81984538
3.8622839 -2.2441859 -0.81029832
3.8615167 -2.2059584 -0.80554718
3.8605137 -2.1628394 -0.80572551
3.8591735 -2.105217 -0.8059637
3.8578293 -2.047437 -0.80620259
3.8568187 -2.0040028 -0.80638212
3.8558061 -1.9604695 -0.80656213
3.8544528 -1.9022924 -0.80680269
3.853436 -1.8585596 -0.80698353
3.8524165 -1.8147266 -0.80716479
3.8510537 -1.7561487 -0.8074069
3.8500292 -1.7121142 -0.80758899
3.8930931 -1.6865261 -0.81296092
2.9400308 -1.2819796 -0.79440385
2.9392176 -1.2471259 -0.79464555
2.9381309 -1.200546 -0.79496855
2.9370413 -1.1538359 -0.7952925
2.9359484 -1.1069951 -0.79561722
2.9348524 -1.0600227 -0.79594296
2.9337537 -1.0129186 -0.7962696
2.9326696 -0.9538933 -0.78490335
2.9312878 -0.89462584 -0.78529358
2.9301779 -0.84705585 -0.78560674
2.9290652 -0.79935139 -0.78592086
2.928124 -0.75392711 -0.78147972
2.9274077 -0.71559745 -0.77461332
3.9435182 -3.048964 -0.79485291
4.0693088 -3.0156906 -0.77931494
3.6798577 -3.0155227 -0.76428109
3.7637169 -3.0261593 -0.7740047
3.8646801 -3.0155146 -0.77136189
3.9712627 -3.0044467 -0.76867563
3.5229278 -2.9956183 -0.74608469
3.5996733 -3.0053527 -0.75498354
3.7287803 -2.9845123 -0.74231911
3.7887557 -2.9835176 -0.74887145
3.872818 -2.6605153 -0.77449095
3.8718371 -2.6183226 -0.77463591
3.8705268 -2.5619388 -0.77482957
3.8692126 -2.5054023 -0.77502376
3.8678944 -2.4487131 -0.77521849
3.8669043 -2.4060998 -0.77536476
3.8659117 -2.3633904 -0.77551156
3.8645852 -2.3063152 -0.7757076
3.8634884 -2.2538779 -0.77097529
3.8626237 -2.2061174 -0.76130438
3.8616219 -2.1629992 -0.76143742
3.8602827 -2.1053782 -0.76161516
3.8589401 -2.0475988 -0.76179338
3.8579311 -2.0041656 -0.76192731
3.8569195 -1.9606332 -0.7620616
3.8555679 -1.9024576 -0.76224107
3.8545518 -1.8587255 -0.76237595
3.8535335 -1.8148936 -0.76251125
3.8521726 -1.7563167 -0.76269192
3.8511488 -1.712283 -0.76282775
3.8931158 -1.6866003 -0.76755303
2.9414897 -1.2822094 -0.73609978
2.9406779 -1.2473569 -0.73628056
2.9395933 -1.2007786 -0.73652202
2.9385061 -1.1540701 -0.73676413
2.9374146 -1.1072309 -0.73700696
2.9363213 -1.0602602 -0.73725051
2.9352245 -1.0131576 -0.73749471
2.9341431 -0.95413446 -0.72602552
2.9327638 -0.89486915 -0.72631198
2.9316566 -0.84730083 -0.726542
2.9305458 -0.79959804 -0.72677261
2.9294322 -0.75176024 -0.72700387
2.9285955 -0.71579719 -0.7271778
3.977808 -2.9787037 -0.72488666
4.0447731 -2.9769363 -0.73143893
3.512413 -2.9905086 -0.70555848
3.5642419 -2.9891331 -0.71102571
3.61766 -2.9877157 -0.71666056
3.6727426 -2.9862537 -0.72247094
3.730356 -2.9849801 -0.71461141
3.7898357 -2.9836657 -0.70649427
3.850445 -2.9820654 -0.71242458
3.9130685 -2.9804125 -0.71855217
3.8742774 -2.6607153 -0.71613836
3.8732982 -2.6185236 -0.71622431
3.87199 -2.5621414 -0.71633905
3.8706775 -2.5056067 -0.71645409
3.8693619 -2.4489186 -0.71656942
3.8683729 -2.4063065 -0.71665615
3.8673816 -2.3635979 -0.71674311
3.8660572 -2.306524 -0.71685922
3.8647287 -2.2492955 -0.71697569
3.8637302 -2.2062762 -0.71706319
3.8627295 -2.1631591 -0.71715093
3.8613925 -2.1055386 -0.71726817
3.8600512 -2.0477612 -0.71738583
3.8590429 -2.0043287 -0.7174741
3.8580327 -1.9607973 -0.71756274
3.8566825 -1.9026225 -0.71768111
3.8556678 -1.8588915 -0.7177701
3.8546507 -1.8150604 -0.71785933
3.853291 -1.7564846 -0.71797854
3.8522687 -1.7124519 -0.71806806
3.893137 -1.6866747 -0.72217464
2.9429488 -1.2824391 -0.67779881
2.9421387 -1.2475877 -0.67791849
2.9410565 -1.2010111 -0.67807847
2.9399703 -1.1543044 -0.67823893
2.9388816 -1.1074667 -0.67839974
2.9377902 -1.0604976 -0.67856109
2.9366956 -1.0133967 -0.67872292
2.9353218 -0.9543274 -0.67892575
2.9339445 -0.89506376 -0.6791293
2.9328392 -0.84749669 -0.67929268
2.9317298 -0.79979539 -0.67945653
2.930618 -0.75195897 -0.6796208
2.9297826 -0.71599686 -0.67974436
3.9164639 -2.9813952 -0.66033077
3.981292 -2.9797022 -0.66568416
4.0483484 -2.9779508 -0.67122161
3.51529 -2.9913926 -0.65341085
3.5671837 -2.9900298 -0.6580922
3.6206696 -2.9886255 -0.66291732
3.6758227 -2.9871776 -0.66789275
3.7327218 -2.9856839 -0.67302567
3.792259 -2.9843795 -0.66423535
3.8529286 -2.9827907 -0.66947699
3.875737 -2.6609151 -0.6577884
3.874759 -2.6187243 -0.65781522
3.8734524 -2.5623436 -0.65785098
3.8721423 -2.5058105 -0.65788692
3.8708289 -2.4491241 -0.65792298
3.8698413 -2.4065132 -0.65795004
3.8688517 -2.3638058 -0.65797716
3.8675292 -2.3067336 -0.65801346
3.8662028 -2.2495062 -0.65804976
3.8652053 -2.2064879 -0.65807706
3.8642066 -2.1633723 -0.65810448
3.8628712 -2.1057532 -0.65814108
3.8615324 -2.047977 -0.65817779
3.8605258 -2.0045462 -0.65820539
3.8595171 -1.9610158 -0.65823305
3.8581691 -1.9028426 -0.65827006
3.8571558 -1.859113 -0.65829778
3.8561401 -1.8152829 -0.65832567
3.8547826 -1.7567087 -0.65836287
3.8537621 -1.7126774 -0.65839082
3.8931656 -1.6867735 -0.66170955
2.9441159 -1.2826228 -0.63116038
2.9433072 -1.2477723 -0.63123131
2.9422259 -1.2011971 -0.63132614
2.9411421 -1.1544915 -0.63142115
2.9400551 -1.1076553 -0.63151646
2.9389651 -1.0606877 -0.63161206
2.9378722 -1.013588 -0.63170791
2.9365008 -0.95452029 -0.63182807
2.9351254 -0.89525837 -0.63194871
2.9340212 -0.84769273 -0.63204545
2.9334872 -0.81198382 -0.62029415
2.9327233 -0.79599565 -0.63609201
2.9318039 -0.75215763 -0.63223988
2.9309697 -0.7161966 -0.63231313
3.919013 -2.9821327 -0.61663133
3.9839058 -2.9804511 -0.62124771
4.0510316 -2.9787123 -0.62602288
3.5181687 -2.9922771 -0.60122031
3.5701277 -2.9909275 -0.60511464
3.6236815 -2.9895363 -0.60912853
3.6789055 -2.9881017 -0.6132676
3.7358785 -2.9866216 -0.61753768
3.7946844 -2.9850941 -0.62194526
3.8554142 -2.9835167 -0.62649697
3.8768311 -2.6610649 -0.61402738
3.8758547 -2.6188753 -0.61400992
3.8745499 -2.5624955 -0.61398655
3.8732412 -2.5059633 -0.61396313
3.8719287 -2.4492784 -0.61393964
3.8709426 -2.4066677 -0.613922
3.8699546 -2.3639617 -0.61390436
3.8686328 -2.3068905 -0.61388063
3.8673081 -2.2496641 -0.61385691
3.8663123 -2.2066469 -0.61383915
3.8653142 -2.163532 -0.61382127
3.8639805 -2.1059144 -0.61379737
3.8626432 -2.0481393 -0.61377347
3.8616376 -2.004709 -0.61375546
3.8606303 -1.9611796 -0.6137374
3.8592839 -1.9030077 -0.61371332
3.8582716 -1.8592788 -0.6136952
3.8572569 -1.8154497 -0.61367702
3.855901 -1.7568768 -0.61365277
3.8548818 -1.7128462 -0.61363453
3.8931868 -1.6868478 -0.61639029
2.9452829 -1.2828065 -0.5845241
2.9444749 -1.2479571 -0.58454621
2.9433959 -1.2013832 -0.58457583
2.9423137 -1.1546789 -0.58460552
2.9412284 -1.1078439 -0.58463526
2.94014 -1.0608776 -0.58466512
2.9390485 -1.0137793 -0.58469504
2.9376795 -0.95471317 -0.58473253
2.9363065 -0.89545286 -0.5847702
2.935204 -0.84788871 -0.58480042
2.9343755 -0.81213146 -0.58482313
2.9338219 -0.78824848 -0.58483827
2.9329898 -0.75235629 -0.5848611
2.932157 -0.71639621 -0.58488399
3.9215636 -2.9828701 -0.57289857
3.9865224 -2.9812012 -0.57677674
4.0537171 -2.9794743 -0.58078837
3.5210507 -2.9931626 -0.54898691
3.5730746 -2.9918256 -0.55209285
3.6266966 -2.990448 -0.55529422
3.6819911 -2.9890268 -0.55859542
3.7390373 -2.987561 -0.56200123
3.7979209 -2.9860477 -0.56551671
3.8587308 -2.9844851 -0.56914723
3.8779256 -2.6612146 -0.57026803
3.87695 -2.6190257 -0.57020622
3.8756466 -2.5626473 -0.57012367
3.8743396 -2.5061164 -0.57004094
3.873029 -2.4494321 -0.56995797
3.8720441 -2.4068229 -0.56989557
3.8710563 -2.3641171 -0.56983304
3.8697369 -2.3070476 -0.56974953
3.8684139 -2.2498224 -0.56966573
3.8674192 -2.2068059 -0.56960279
3.8664222 -2.1636918 -0.56953961
3.8650899 -2.106075 -0.56945527
3.8637538 -2.0483015 -0.56937069
3.8627496 -2.0048721 -0.56930715
3.8617432 -1.9613436 -0.56924337
3.8603981 -1.9031727 -0.56915826
3.8593874 -1.859445 -0.56909424
3.8583739 -1.8156166 -0.56903005
3.8570197 -1.7570449 -0.56894433
3.8560016 -1.7130152 -0.56887984
3.893208 -1.686922 -0.57110047
2.9456434 -1.2481419 -0.53786319
2.944566 -1.2015691 -0.53782761
2.9434855 -1.1548661 -0.53779191
2.9424014 -1.1080326 -0.53775615
2.9413149 -1.0610675 -0.53772026
2.9402251 -1.0139706 -0.53768426
2.9388585 -0.95490611 -0.53763908
2.9374871 -0.89564747 -0.53759384
2.9363863 -0.84808463 -0.53755748
2.9355586 -0.81232852 -0.53753012
2.9350061 -0.78844613 -0.53751189
2.9341755 -0.75255495 -0.53748447
2.9333441 -0.71659595 -0.53745699
3.3784924 1.4037714 -0.52561891
3.4235651 1.4073412 -0.52813691
3.4697263 1.410997 -0.5307157
3.517015 1.4147429 -0.53335756
3.5654731 1.4185804 -0.53606468
3.4466558 1.4578763 -0.55895102
3.4934568 1.462175 -0.56192464
3.5414107 1.4665804 -0.56497157
3.9249673 -2.9838552 -0.51454353
3.9900143 -2.9822016 -0.51743603
4.057301 -2.9804914 -0.52042806
3.5232131 -2.9938273 -0.509785
3.5752861 -2.9925001 -0.51229882
3.6297135 -2.9913597 -0.50141424
3.6850793 -2.9899526 -0.50387627
3.7421994 -2.9885006 -0.50641626
3.8011599 -2.9870021 -0.50903809
3.8620503 -2.9854541 -0.51174575
3.879385 -2.6614146 -0.51192427
3.8784111 -2.6192269 -0.51180345
3.8771098 -2.5628498 -0.51164204
3.8758049 -2.5063205 -0.51148015
3.8744962 -2.4496377 -0.51131785
3.8735118 -2.4070294 -0.51119584
3.8725259 -2.3643248 -0.51107353
3.8712082 -2.3072565 -0.51091009
3.8698876 -2.2500331 -0.51074624
3.8688941 -2.2070177 -0.5106231
3.8678992 -2.1639049 -0.51049966
3.8665693 -2.1062899 -0.51033467
3.8652351 -2.0485175 -0.51016921
3.8642323 -2.0050895 -0.51004487
3.8632271 -1.9615622 -0.50992024
3.8618844 -1.9033929 -0.50975364
3.8608754 -1.8596661 -0.50962847
3.8598635 -1.8158391 -0.50950295
3.8585112 -1.7572689 -0.50933522
3.8694112 -1.7045088 -0.50469697
3.8932292 -1.6869957 -0.52583432
2.9468117 -1.2483264 -0.49118227
2.9457355 -1.201755 -0.49108151
2.9446568 -1.1550535 -0.49098048
2.9435751 -1.1082211 -0.49087915
2.9424899 -1.0612574 -0.49077752
2.941402 -1.0141617 -0.4906756
2.9400368 -0.95509911 -0.49054781
2.938668 -0.89584219 -0.4904196
2.9375687 -0.84828061 -0.49031666
2.9367428 -0.81252545 -0.49023929
2.9361908 -0.78864378 -0.49018764
2.9353616 -0.75275356 -0.49010998
2.934531 -0.71679562 -0.49003217
3.2707205 1.3027306 -0.4635261
3.3345442 1.306179 -0.46611714
3.3784251 1.3085498 -0.46789855
3.4233479 1.3109766 -0.46972227
3.4693508 1.3134614 -0.47158983
3.5164738 1.3160067 -0.47350287
3.5647578 1.3186142 -0.47546306
3.3129134 1.3517181 -0.49355063
3.3563545 1.3546103 -0.49564534
3.4008248 1.3575714 -0.49778962
3.4463592 1.3606032 -0.49998525
3.4929984 1.3637091 -0.5022341
3.5652661 1.368521 -0.50571877
3.9275219 -2.9845941 -0.47074381
3.9926348 -2.9829528 -0.47289583
4.0599895 -2.9812543 -0.47512195
3.525377 -2.9944921 -0.4705562
3.5774992 -2.9931743 -0.4724772
3.631978 -2.9920444 -0.4609758
3.687397 -2.9906476 -0.46280745
3.7445729 -2.9892061 -0.46469715
3.8035905 -2.9877181 -0.46664774
3.8645418 -2.9861817 -0.46866223
3.8804796 -2.6615644 -0.46816802
3.8795068 -2.6193774 -0.46800292
3.8782065 -2.5630016 -0.46778232
3.8769031 -2.5064731 -0.46756113
3.8755958 -2.4497917 -0.46733934
3.8746133 -2.4071844 -0.46717259
3.8736281 -2.3644805 -0.46700549
3.8723125 -2.3074136 -0.46678218
3.8709927 -2.250191 -0.46655825
3.8700011 -2.2071767 -0.46638995
3.8690069 -2.1640644 -0.46622124
3.8676779 -2.106451 -0.46599579
3.8663459 -2.0486796 -0.46576974
3.8653445 -2.0052524 -0.46559981
3.8643405 -1.961726 -0.46542948
3.8629992 -1.9035579 -0.46520185
3.8619909 -1.8598322 -0.46503073
3.8609803 -1.8160059 -0.46485925
3.8596296 -1.757437 -0.46463007
3.8759365 -1.7002521 -0.46499023
2.9479797 -1.2485112 -0.44450343
2.9469056 -1.2019411 -0.44433749
2.9458277 -1.1552409 -0.44417107
2.9447479 -1.1084098 -0.44400424
2.9436646 -1.0614473 -0.44383687
2.9425783 -1.014353 -0.44366908
2.9412153 -0.95529199 -0.44345862
2.9398482 -0.89603674 -0.44324747
2.938751 -0.84847647 -0.44307801
2.9379263 -0.81272233 -0.44295061
2.9373753 -0.78884137 -0.44286552
2.9365473 -0.75295228 -0.44273764
2.9357181 -0.71699536 -0.44260952
3.1889341 1.2533096 -0.43292859
3.2293754 1.2549876 -0.43426314
3.2707381 1.2567043 -0.43562809
3.3130536 1.2584602 -0.4370245
3.3785183 1.2611767 -0.43918478
3.4460623 1.2639792 -0.44141373
3.4925406 1.265908 -0.44294748
3.5401559 1.2678844 -0.44451877
3.5889485 1.2699078 -0.44612893
3.9300768 -2.985333 -0.42691049
3.9943807 -2.9834528 -0.44318384
3.9961288 -2.9839535 -0.41345802
4.0626779 -2.9820168 -0.42977995
3.5282643 -2.9953794 -0.41821533
3.580452 -2.9940741 -0.41934469
3.634244 -2.9927299 -0.42050874
3.6897159 -2.9913428 -0.42170912
3.7469478 -2.9899123 -0.42294762
3.8060234 -2.988435 -0.42422602
3.8670342 -2.9869099 -0.42554626
3.8815737 -2.6617141 -0.42441332
3.8806024 -2.6195283 -0.42420399
3.8793035 -2.5631535 -0.42392421
3.8780019 -2.5066261 -0.42364371
3.8766956 -2.4499457 -0.4233624
3.8757143 -2.4073393 -0.42315096
3.8747306 -2.3646367 -0.42293903
3.8734157 -2.3075702 -0.42265582
3.8720982 -2.250349 -0.42237186
3.8711069 -2.2073357 -0.42215839
3.8701143 -2.1642244 -0.42194447
3.8687873 -2.106612 -0.42165855
3.8674564 -2.0488417 -0.42137185
3.8664563 -2.0054152 -0.42115635
3.8654535 -1.9618897 -0.42094034
3.8641138 -1.9037228 -0.42065167
3.8631067 -1.859998 -0.42043468
3.8620968 -1.8161727 -0.42021719
3.8607481 -1.757605 -0.41992655
3.8765063 -1.7003735 -0.42001468
2.94944 -1.2487421 -0.3861579
2.9483676 -1.2021736 -0.38591051
2.9472921 -1.1554749 -0.38566241
2.946214 -1.1086454 -0.38541365
2.9451325 -1.0616847 -0.38516417
2.9440482 -1.0145921 -0.38491398
2.9423943 -0.95548481 -0.39637157
2.9410291 -0.89623129 -0.39607751
2.9399335 -0.84867239 -0.39584148
2.93911 -0.81291926 -0.39566407
2.9385598 -0.78903902 -0.39554554
2.9377334 -0.75315082 -0.39536744
2.9369051 -0.71719497 -0.39518899
3.2297742 1.1644218 -0.37937081
3.2921016 1.1654531 -0.38048524
3.3563561 1.166517 -0.38163409
3.4005339 1.167248 -0.38242397
3.4457631 1.1679966 -0.38323268
3.4920809 1.168763 -0.38406083
3.5395279 1.1695486 -0.38490918
3.5881455 1.1703535 -0.38577846
3.0925684 1.1621504 -0.37691757
3.1500204 1.1631011 -0.37794483
3.1793971 1.1858201 -0.39194599
3.2296898 1.2096367 -0.40677664
3.291878 1.2114402 -0.40835792
3.334615 1.2126799 -0.4094446
3.3783522 1.2139486 -0.41055673
3.4231257 1.2152469 -0.41169521
3.4689724 1.2165766 -0.41286099
3.5159316 1.2179385 -0.41405502
3.5640447 1.2193344 -0.4152784
3.1302805 1.2067534 -0.40424889
3.9334848 -2.9863186 -0.36842141
3.9987509 -2.9847047 -0.36884153
4.0662661 -2.9830348 -0.36927617
3.5311544 -2.9962673 -0.3658314
3.5834076 -2.9949756 -0.36616781
3.6372674 -2.9936442 -0.36651453
3.6928098 -2.9922705 -0.36687207
3.7501147 -2.9908531 -0.36724097
3.8092668 -2.9893906 -0.36762175
3.8703582 -2.9878795 -0.36801502
3.8830328 -2.6619141 -0.36607587
3.8820627 -2.6197288 -0.3658075
3.8807662 -2.5633554 -0.36544886
3.8794661 -2.5068297 -0.36508921
3.8781621 -2.450151 -0.36472863
3.8771822 -2.4075458 -0.36445758
3.8762004 -2.3648441 -0.3641859
3.8748877 -2.3077796 -0.36382285
3.8735719 -2.2505596 -0.36345881
3.8725829 -2.2075474 -0.3631852
3.8715909 -2.1644373 -0.3629109
3.8702662 -2.1068265 -0.36254439
3.8689373 -2.049058 -0.36217687
3.8679383 -2.0056324 -0.36190057
3.8669376 -1.9621081 -0.36162367
3.8655996 -1.9039429 -0.36125362
3.8645942 -1.860219 -0.36097544
3.8635862 -1.8163952 -0.36069664
3.8622389 -1.7578291 -0.36032403
3.8772674 -1.7005353 -0.36006796
2.9508996 -1.2489729 -0.32781541
2.9498296 -1.202406 -0.32748657
2.9487565 -1.155709 -0.32715681
2.9476802 -1.1088811 -0.32682613
2.9466012 -1.0619221 -0.32649451
2.9455192 -1.0148311 -0.32616198
2.943867 -0.95572603 -0.3375158
2.9425046 -0.89647448 -0.33711812
2.941411 -0.84891731 -0.33679894
2.9405892 -0.81316543 -0.33655897
2.9400401 -0.78928596 -0.33639869
2.9392152 -0.75339913 -0.33615783
2.9383881 -0.7174446 -0.33591649
3.3133311 1.0737391 -0.3250607
3.3563559 1.0733851 -0.32518366
3.4003882 1.0730227 -0.32530954
3.4454658 1.0726519 -0.32543838
3.4916241 1.0722719 -0.32557032
3.538904 1.0718826 -0.32570544
3.5873466 1.0714841 -0.3258439
2.9663014 1.0765951 -0.32406878
3.0016251 1.0763044 -0.32416975
3.0561197 1.075856 -0.3243255
3.1121857 1.0753946 -0.32448575
3.1506534 1.0750781 -0.32459572
3.1899724 1.0747546 -0.3247081
3.250726 1.0742545 -0.32488176
3.2920835 1.1196088 -0.35269731
3.3346846 1.1197855 -0.35313854
3.3782802 1.1199663 -0.35359004
3.4457498 1.1202456 -0.35428882
3.5153904 1.1205338 -0.35501009
3.5633316 1.1207321 -0.35550663
3.6124604 1.1209354 -0.35601544
3.0190678 1.1184784 -0.34986973
3.0555725 1.1186297 -0.3502478
3.0928655 1.1187842 -0.35063404
3.1504438 1.1190224 -0.35123038
3.2097313 1.1192681 -0.3518444
3.2504435 1.1194369 -0.35226604
3.8736849 -2.9888508 -0.31043184
3.9360428 -2.9870584 -0.32452103
4.0013752 -2.9854562 -0.32419732
4.0689597 -2.9837992 -0.32386243
3.5340455 -2.9971554 -0.31340438
3.5863633 -2.9958766 -0.3129465
3.640291 -2.9945579 -0.31247449
3.6959045 -2.9931982 -0.31198779
3.753283 -2.9917946 -0.31148562
3.8125129 -2.9903467 -0.31096724
3.8844922 -2.6621139 -0.30774093
3.883523 -2.6199298 -0.30741352
3.8822286 -2.5635579 -0.30697599
3.8805642 -2.5069828 -0.32117495
3.8792624 -2.450305 -0.32075489
3.8782837 -2.4077008 -0.32043913
3.8776298 -2.379246 -0.32022822
3.8769751 -2.3507533 -0.32001704
3.8759916 -2.3079364 -0.3196997
3.8746772 -2.2507179 -0.31927565
3.8736887 -2.2077062 -0.31895685
3.8726988 -2.164597 -0.31863734
3.8713748 -2.1069872 -0.31821036
3.870048 -2.0492198 -0.31778222
3.86905 -2.0057955 -0.31746039
3.8680501 -1.962272 -0.31713781
3.8667142 -1.9041079 -0.31670672
3.8657095 -1.8603851 -0.31638265
3.8647029 -1.8165619 -0.31605786
3.8633575 -1.7579972 -0.31562379
3.8778377 -1.7006568 -0.31512344
2.9520676 -1.2491575 -0.28114387
2.9509993 -1.2025919 -0.28074986
2.9499278 -1.1558963 -0.28035477
2.9488533 -1.1090698 -0.27995855
2.9477758 -1.062112 -0.27956125
2.9466953 -1.0150223 -0.27916282
2.9453399 -0.95596701 -0.27866316
2.9439802 -0.89671779 -0.27816185
2.9428887 -0.84916216 -0.27775949
2.9420688 -0.81341159 -0.277457
2.9415207 -0.78953302 -0.27725494
2.940697 -0.75364751 -0.27695134
2.9398723 -0.7176941 -0.27664712
3.4002438 0.97941434 -0.26856908
3.4451699 0.97793865 -0.26802701
3.0570135 0.99069011 -0.27271053
3.1129243 0.98885339 -0.2720359
3.1512823 0.98759335 -0.27157307
3.210526 0.9856472 -0.2708582
3.2715495 0.98364246 -0.27012193
3.3134682 0.98226506 -0.26961613
3.3672817 1.0037262 -0.28304672
3.4226842 1.025682 -0.29678953
3.4682205 1.0247457 -0.29657936
3.5148528 1.0237865 -0.2963641
3.562624 1.022805 -0.29614359
3.6115737 1.0217983 -0.29591763
2.9109182 1.004913 -0.27439421
2.9674327 0.99363285 -0.2737914
3.0023808 1.0203762 -0.29027563
3.0564697 1.0332117 -0.29847997
3.1126587 1.0320562 -0.2982206
3.170491 1.0308669 -0.29795367
3.2101877 1.0300509 -0.29777041
3.250777 1.0292164 -0.29758304
3.2922883 1.028363 -0.29739144
3.3347545 1.0274898 -0.29719543
2.9153013 1.0361142 -0.2991316
2.949502 1.0354111 -0.29897374
3.8761818 -2.9895797 -0.26721197
3.9386027 -2.9877982 -0.28058708
4.0040016 -2.9862087 -0.27951834
4.0716558 -2.9845638 -0.27841276
3.5369372 -2.9980438 -0.2609342
3.5893207 -2.9967771 -0.25968075
3.643317 -2.995472 -0.25838867
3.6990013 -2.9941263 -0.25705627
3.7564545 -2.9927368 -0.25568148
3.8149495 -2.9910638 -0.26844487
3.8855865 -2.6622636 -0.2639913
3.8846183 -2.6200807 -0.26361963
3.8833258 -2.5637097 -0.26312295
3.8816628 -2.5071359 -0.27726227
3.8803625 -2.4504592 -0.27678275
3.8793843 -2.4078555 -0.27642226
3.8787317 -2.3794017 -0.27618149
3.8780777 -2.3509095 -0.27594045
3.877095 -2.3080933 -0.27557817
3.8757823 -2.2508757 -0.27509406
3.8747954 -2.2078652 -0.27473015
3.8738062 -2.1647568 -0.2743654
3.872484 -2.1071484 -0.27387798
3.8711586 -2.049382 -0.27338919
3.8701625 -2.0059588 -0.27302179
3.8691633 -1.962436 -0.27265355
3.8678286 -1.904273 -0.27216142
3.8668251 -1.860551 -0.27179149
3.8658197 -1.8167287 -0.27142072
3.8644757 -1.7581651 -0.27092519
3.8784072 -1.7007781 -0.27019444
2.9532359 -1.2493422 -0.23447436
2.9521692 -1.202778 -0.23401523
2.9510989 -1.1560835 -0.23355484
2.950026 -1.1092583 -0.23309311
2.9489503 -1.0623019 -0.23263009
2.9478714 -1.0152135 -0.23216578
2.9465179 -0.95615995 -0.23158354
2.9451609 -0.89691222 -0.23099931
2.9440711 -0.84935808 -0.23053041
2.9432518 -0.81360853 -0.23017791
2.9427047 -0.78973055 -0.22994247
2.9418824 -0.75384605 -0.22958863
2.9410589 -0.71789372 -0.22923413
3.1714525 0.89952224 -0.21834823
3.2309577 0.89611155 -0.21674789
3.2718165 0.89376986 -0.21564904
3.3136046 0.89137465 -0.21452521
3.4224658 0.93183422 -0.23990342
3.4678476 0.92978752 -0.23901883
3.5143187 0.92769134 -0.238113
3.5619204 0.92554456 -0.23718515
3.610693 0.92334467 -0.23623449
2.9187098 0.91516238 -0.22513385
2.9685576 0.91115105 -0.22380495
3.0216386 0.90810895 -0.22237736
3.0762246 0.9049803 -0.22090933
3.1134822 0.93146116 -0.23725276
3.1710618 0.94317347 -0.24480379
3.2106411 0.94138825 -0.24403231
3.2717996 0.93862975 -0.24284022
3.3348234 0.93578726 -0.24161173
3.3781366 0.93383384 -0.24076749
3.4911702 0.97642726 -0.26747197
3.5382841 0.97487962 -0.26690349
3.5865524 0.97329378 -0.26632109
3.636018 0.97166878 -0.26572421
2.9056911 0.95959944 -0.23750176
2.9680862 0.9523285 -0.24876021
3.0210524 0.94993967 -0.24772778
3.0573606 0.94830167 -0.24702005
2.9008517 1.0097978 -0.2371144
3.8786807 -2.9903088 -0.22395955
3.9420195 -2.9887865 -0.22196366
4.0075059 -2.9872124 -0.21990003
4.0752525 -2.985584 -0.21776523
3.5398316 -2.9989331 -0.20842089
3.5922809 -2.9976792 -0.20637055
3.6463456 -2.9963875 -0.20425703
3.7013264 -2.994823 -0.21582806
3.7588351 -2.9934444 -0.2137979
3.8173871 -2.9917819 -0.22589104
2.9544036 -1.2495267 -0.18780696
2.9533384 -1.2029639 -0.1872827
2.95227 -1.1562707 -0.18675697
2.9511991 -1.1094468 -0.18622974
2.9501247 -1.0624917 -0.18570104
2.9490473 -1.0154047 -0.18517087
2.9476962 -0.95635277 -0.18450597
2.946341 -0.89710665 -0.18383889
2.9452529 -0.84955394 -0.18330346
2.9444354 -0.8138054 -0.18290095
2.9438889 -0.78992808 -0.18263209
2.9430678 -0.75404465 -0.18222809
2.9419711 -0.70608699 -0.18168809
2.9408708 -0.65799314 -0.18114658
3.1668553 -0.63353568 -0.20855062
2.9397678 -0.60976273 -0.18060352
3.1762569 -0.57938147 -0.20762484
3.690186 -0.52142429 -0.2185047
2.9386609 -0.56139511 -0.18005893
3.1857455 -0.52472186 -0.2066904
3.700465 -0.47392961 -0.21774067
3.7073672 -0.4420386 -0.21722764
2.9375517 -0.51288956 -0.17951275
3.1953247 -0.46954927 -0.20574723
3.7143059 -0.40997511 -0.21671186
2.9364388 -0.46424571 -0.17896505
3.204993 -0.41385695 -0.20479514
3.7247908 -0.36153087 -0.21593255
2.9353223 -0.41546285 -0.17841578
3.2123013 -0.37175876 -0.20407544
3.7353513 -0.3127344 -0.21514758
2.9339228 -0.35428041 -0.17772689
3.2196674 -0.32932732 -0.20335007
3.7460089 -0.26349202 -0.21435544
2.9325182 -0.29289338 -0.1770357
3.2295673 -0.27230263 -0.2023752
3.7567439 -0.21388866 -0.21355748
2.931391 -0.24361911 -0.17648087
3.239562 -0.21473128 -0.20139101
3.7675784 -0.16382819 -0.21275219
2.9302607 -0.19420302 -0.17592449
3.2496526 -0.15660597 -0.20039734
2.929127 -0.14464477 -0.17536648
3.257282 -0.11266097 -0.19964609
2.9279895 -0.094943509 -0.17480686
3.2624011 -0.083175138 -0.19914202
3.2675443 -0.053546373 -0.19863552
2.9268496 -0.045098752 -0.17424566
3.2753103 -0.0088139866 -0.19787081
2.9257059 0.0048903096 -0.17368278
3.2831266 0.03620993 -0.19710109
2.9245586 0.05502427 -0.17311828
3.288372 0.066422045 -0.19658457
3.2936425 0.096782736 -0.19606557
2.9234085 0.10530352 -0.1725522
3.3016007 0.14262316 -0.19528192
2.9222548 0.155729 -0.1719844
3.3096116 0.1887664 -0.19449309
2.921098 0.20630117 -0.171415
3.3176882 0.23529151 -0.19369771
2.9199376 0.25702062 -0.17084391
3.3285475 0.29784185 -0.19262838
2.9187739 0.30788812 -0.17027119
3.3367598 0.34514621 -0.19181971
2.9185863 0.35505962 -0.16562849
3.345041 0.39284745 -0.19100426
2.9213071 0.3998675 -0.16903442
3.3533781 0.44087017 -0.19018327
3.3589735 0.47310114 -0.18963228
2.9278531 0.44713342 -0.1722631
3.3646054 0.5055002 -0.18907814
2.923279 0.48780429 -0.16379122
2.9439168 0.51808357 -0.17890096
3.3731127 0.55443025 -0.18824121
2.9138026 0.53858227 -0.15538105
2.9500167 0.56147188 -0.17812546
3.3816781 0.60369456 -0.18739858
2.9126201 0.59027505 -0.15478092
2.9561534 0.60512173 -0.17734532
3.3903172 0.65338099 -0.18654871
2.9114344 0.64212036 -0.15417904
2.9623363 0.64910287 -0.17655922
3.3990157 0.70340949 -0.18569298
2.9685576 0.69335139 -0.17576835
2.9727302 0.72303021 -0.17523789
3.4077892 0.75386983 -0.18482989
2.9790282 0.76782179 -0.17443725
3.4166238 0.80468011 -0.18396078
2.9775248 0.82101923 -0.1738691
3.2312646 0.85187292 -0.18993559
3.2926929 0.84760398 -0.18783033
3.334892 0.84467202 -0.18638408
3.3780658 0.841672 -0.1849044
3.4335625 0.8612262 -0.19719246
3.4907191 0.88122314 -0.20976184
3.5376682 0.87853211 -0.20849919
3.5857637 0.87577546 -0.20720573
3.6350482 0.87295091 -0.20588024
2.9163053 0.85198081 -0.18233168
2.9692073 0.87008262 -0.19891696
3.0220358 0.86641186 -0.19710636
3.0767405 0.8626104 -0.19523153
3.1330183 0.85869974 -0.19330274
3.1716292 0.85601693 -0.19197947
3.3782277 0.8876707 -0.21278723
2.90452 0.90384072 -0.18840195
2.9033117 0.95661533 -0.18784465
2.9021001 1.009547 -0.18728571
3.6051621 -3.0280762 -0.13954076
3.681752 -3.0116789 -0.16215414
3.7448411 -3.0132916 -0.15901062
3.8190091 -3.0054181 -0.16938289
3.8870478 -3.0069799 -0.16624826
3.948036 -3.0184867 -0.14888602
3.9671583 -2.9987121 -0.17710996
4.0407519 -3.000212 -0.17399295
3.5618432 -3.0086129 -0.16812886
3.6207879 -3.0101202 -0.16519183
3.7028768 -2.9952872 -0.18832681
3.7618568 -2.9945292 -0.18580541
2.9555717 -1.2497114 -0.14114167
2.9545078 -1.2031497 -0.14055225
2.9534411 -1.1564579 -0.1399612
2.9523718 -1.1096355 -0.13936847
2.9512992 -1.0626816 -0.1387741
2.9502237 -1.0155958 -0.13817808
2.9488747 -0.95654565 -0.13743058
2.947521 -0.8973012 -0.1366806
2.946435 -0.8497498 -0.13607866
2.9456182 -0.81400228 -0.13562617
2.9450727 -0.79012579 -0.13532393
2.944253 -0.75424325 -0.13486971
2.9431572 -0.70628703 -0.13426264
2.942059 -0.65819466 -0.13365383
2.9409578 -0.60996562 -0.13304333
2.9398522 -0.56159943 -0.13243105
2.9387448 -0.51309526 -0.13181707
2.9376338 -0.46445265 -0.1312013
2.9365196 -0.4156712 -0.13058376
2.9351223 -0.35449049 -0.12980932
2.9337196 -0.29310533 -0.12903228
2.9325943 -0.24383238 -0.12840851
2.9314654 -0.19441809 -0.12778302
2.9303334 -0.14486115 -0.12715563
2.929198 -0.095161445 -0.12652652
2.9280596 -0.045317892 -0.12589554
2.9269178 0.0046697399 -0.12526277
2.9257729 0.054802045 -0.12462816
2.9246247 0.10507997 -0.12399171
2.9234729 0.15550388 -0.12335341
2.9223175 0.20607461 -0.12271324
2.9211588 0.25679252 -0.12207122
2.919997 0.30765864 -0.12142731
2.9188316 0.35867316 -0.12078153
2.9176631 0.40983748 -0.12013388
2.916784 0.44830406 -0.11964691
2.9159036 0.48686466 -0.1191588
2.914726 0.53840506 -0.11850636
2.9135451 0.59009671 -0.11785204
2.9123611 0.64194089 -0.11719576
2.9108641 0.6939981 -0.1288835
2.9096081 0.7435621 -0.13322113
2.9081666 0.79851562 -0.13998009
2.9069674 0.85097659 -0.13935274
2.9057646 0.90359312 -0.13872348
2.9045582 0.95636576 -0.13809237
2.9033484 1.0092964 -0.13745937
3.7753863 -3.0525169 -0.10213356
3.8417048 -3.054899 -0.097840317
3.9291296 -3.0380373 -0.12098151
4.0011659 -3.0402522 -0.11685475
4.0861845 -3.0324161 -0.12703156
3.6494951 -3.0479946 -0.11028328
3.6655378 -3.0299323 -0.13608201
3.7196822 -3.0410354 -0.11939096
3.7926824 -3.0338416 -0.12879822
3.8596804 -3.0359018 -0.12496007
4.020844 -3.0203481 -0.14525825
2.9567389 -1.249896 -0.094478391
2.955677 -1.2033356 -0.093823902
2.9546123 -1.1566452 -0.093167514
2.9535446 -1.1098239 -0.0925093
2.9524736 -1.0628713 -0.091849253
2.9513998 -1.015787 -0.091187343
2.950053 -0.95673847 -0.090357281
2.9487016 -0.89749587 -0.089524433
2.9476168 -0.84994572 -0.088856027
2.9468017 -0.81419909 -0.088353477
2.9462562 -0.79032332 -0.088017896
2.9454377 -0.75444192 -0.087513477
2.9443443 -0.70648706 -0.086839348
2.9432473 -0.65839607 -0.086163275
2.9421475 -0.61016846 -0.085485287
2.9410443 -0.56180346 -0.084805399
2.9399378 -0.5133009 -0.084123522
2.9388289 -0.46465969 -0.083439708
2.9377165 -0.41587961 -0.082753979
2.936321 -0.35470065 -0.081893951
2.9349208 -0.29331729 -0.081030995
2.9337971 -0.244046 -0.080338344
2.9326706 -0.19463277 -0.079643726
2.93154 -0.14507739 -0.07894709
2.9304068 -0.095379099 -0.078248441
2.9292703 -0.045537218 -0.077547766
2.9281299 0.0044489643 -0.076845057
2.9269869 0.054579832 -0.076140344
2.9258399 0.1048563 -0.075433493
2.92469 0.15527877 -0.074724622
2.9235368 0.20584795 -0.074013755
2.92238 0.25656426 -0.073300786
2.9212201 0.30742911 -0.072585739
2.9200566 0.35844216 -0.071868591
2.9188898 0.40960479 -0.071149349
2.9180126 0.44807023 -0.070608608
2.9171329 0.48662966 -0.070066601
2.9159572 0.53816837 -0.069342032
2.9147782 0.58985841 -0.068615414
2.9135957 0.64170104 -0.067886613
2.9124103 0.69369656 -0.067155667
2.9109752 0.74849343 -0.073806778
2.9096529 0.79561573 -0.083059646
2.9082098 0.85073042 -0.089750178
2.9070089 0.90334553 -0.089047365
2.9058042 0.95611668 -0.088342465
2.9045966 1.0090452 -0.087635413
4.0356569 -3.0823858 -0.055737585
3.6948783 -3.0683854 -0.080332518
