# .PCD v0.7 - Point Cloud Data file format
VERSION 0.7
FIELDS x y z
SIZE 4 4 4
TYPE F F F
COUNT 1 1 1
WIDTH 1498
HEIGHT 1
VIEWPOINT 0 0 0 1 0 0 0
POINTS 1498
DATA ascii
3.4651546 -1.9610885 0.49625582
2.6729507 -1.7556816 0.5531137
2.9194953 -1.7956518 0.51513863
3.0651965 -1.8161031 0.51352185
3.2343779 -1.8562096 0.5116204
3.4116044 -1.8818067 0.50965261
3.5962141 -1.8904001 0.50762957
2.6813111 -1.7124929 0.55840528
3.0403275 -1.7662303 0.51386613
3.1882148 -1.7687409 0.51225185
3.2064769 -1.8033435 0.51200199
3.3804421 -1.8261155 0.51007396
3.572901 -1.8511784 0.50794119
2.6896765 -1.6692786 0.56369996
3.1702003 -1.7346072 0.5124982
3.3498743 -1.7714854 0.51048726
3.5386314 -1.7935234 0.50839919
3.7483327 -1.8178662 0.50607961
2.7001407 -1.6152233 0.57032281
3.1524284 -1.700933 0.51274133
3.3101687 -1.700526 0.51102412
3.329881 -1.7357543 0.51075763
3.5050414 -1.7370123 0.50884819
3.7229927 -1.7778198 0.50641453
2.7106118 -1.5611303 0.57695043
3.2907329 -1.6657903 0.51128697
3.4614584 -1.6636885 0.50943077
3.4830894 -1.70008 0.50914168
3.673507 -1.6995943 0.50707066
3.698051 -1.7383996 0.50674456
2.7189951 -1.5178258 0.58225614
3.4401419 -1.627826 0.50971562
3.6493416 -1.6613855 0.50739181
2.7273827 -1.4744955 0.58756506
3.4191375 -1.5924827 0.50999695
3.6138258 -1.6052316 0.50786364
2.7378745 -1.420295 0.59420574
3.5790229 -1.5502042 0.50832605
2.748374 -1.3660568 0.60085112
2.7567794 -1.322636 0.60617113
2.7651896 -1.2791893 0.6114943
2.7757103 -1.2248431 0.61815286
2.786238 -1.1704592 0.62481618
2.7946665 -1.1269217 0.63015056
2.8030994 -1.083358 0.63548797
2.8136482 -1.0288657 0.64216453
2.8242047 -0.97433525 0.64884573
2.8326557 -0.93068045 0.65419441
2.8411114 -0.88699955 0.65954638
2.8516886 -0.83236021 0.66624093
2.862273 -0.77768272 0.67294019
2.8707469 -0.73391026 0.67830324
2.8792255 -0.69011146 0.68366951
2.8877094 -0.64628637 0.68903905
2.8983216 -0.59146684 0.69575578
2.9089413 -0.53660882 0.7024771
2.917443 -0.4926917 0.70785779
2.9259491 -0.44874814 0.71324188
2.9365902 -0.39378047 0.71997672
2.9612651 -3.1235912 0.43088791
3.109123 -3.1407418 0.42907202
2.9197724 -3.0445483 0.43027937
3.0785685 -3.0854135 0.42866707
2.7749553 -3.0072811 0.43174958
2.8928697 -2.9932978 0.42988479
3.0486722 -3.031276 0.42827111
3.220098 -3.0730622 0.42649561
2.7506473 -2.9586298 0.43135783
2.866513 -2.943089 0.42949817
3.0194123 -2.9782913 0.42788339
3.1874721 -3.0169842 0.42610854
3.373064 -3.0597134 0.4241485
2.8406875 -2.8938913 0.42911938
2.9907684 -2.9264233 0.42750394
3.1555665 -2.9621451 0.42573002
3.3373575 -3.0015504 0.42377332
2.9627223 -2.8756363 0.42713234
3.1243594 -2.9085054 0.42535987
3.3024712 -2.9447236 0.42340675
3.4997132 -2.9848332 0.42124367
2.481931 -2.7469549 0.49730897
3.0938263 -2.8560247 0.42499763
3.2683773 -2.8891885 0.42304838
3.4614518 -2.9258711 0.42089236
2.4922256 -2.6937785 0.50384843
3.202461 -2.781817 0.42235586
3.235049 -2.8348997 0.4226982
3.4240937 -2.8683023 0.42054924
2.5025268 -2.6405652 0.51039249
3.3697875 -2.7846158 0.42005041
2.5107737 -2.5979657 0.51563144
3.5529284 -2.787349 0.4175224
2.5210896 -2.5446792 0.52218443
3.5138259 -2.7304516 0.41721383
2.5314119 -2.4913561 0.52874202
2.539676 -2.4486682 0.53399152
2.547945 -2.4059551 0.53924435
2.5582533 -2.3534579 0.55665535
2.5593755 -2.3457799 0.53020537
2.5665307 -2.3107016 0.56191659
2.5691044 -2.295598 0.5374645
2.5769634 -2.2553022 0.54680163
2.5868232 -2.2041836 0.55034131
2.5968037 -2.1530323 0.56250548
2.6060102 -2.105257 0.56524247
2.6143208 -2.0623298 0.5705182
2.6247156 -2.0086336 0.57711762
2.6351178 -1.9549004 0.58372158
2.6434453 -1.911884 0.58900839
2.6517775 -1.8688421 0.5942983
2.6621997 -1.8150022 0.60091525
3.6217868 -1.992974 0.50171894
3.6439285 -1.9706733 0.50699186
2.6726298 -1.7611251 0.60753667
3.6198874 -1.9302269 0.50731319
2.6809793 -1.7179934 0.61283767
2.6893339 -1.6748363 0.61814171
2.6997845 -1.6208522 0.62477636
2.7102425 -1.566831 0.63141572
2.7186139 -1.5235838 0.63673085
2.7269909 -1.480311 0.64204907
2.7374694 -1.4261824 0.64870161
2.7479556 -1.3720162 0.65535867
2.7563498 -1.328653 0.66068804
2.7647491 -1.2852639 0.66602051
2.7752552 -1.2309901 0.67269093
2.7858636 -1.1754364 0.66847092
2.7942827 -1.1319451 0.67381275
2.8027072 -1.0884281 0.67915785
2.8132451 -1.0339938 0.68584377
2.8237903 -0.97952163 0.69253445
2.832232 -0.93591344 0.69789064
2.8406792 -0.89227921 0.70325005
2.8512454 -0.83769834 0.7099539
2.8618188 -0.78307939 0.71666265
2.8702834 -0.73935378 0.72203332
2.8787534 -0.69560194 0.72740722
2.889348 -0.64087391 0.73412919
2.89995 -0.58610755 0.74085593
2.9084377 -0.54226404 0.74624115
2.9169302 -0.49839401 0.75162941
2.9254279 -0.45449787 0.75702095
2.9360573 -0.39958924 0.76376516
3.1722932 -3.2551315 0.42990887
3.0039403 -3.2048881 0.43151382
3.1403565 -3.1973004 0.42948574
3.3225563 -3.2491696 0.42771101
3.4854076 -3.2427082 0.42532909
3.2876136 -3.1891096 0.42729649
3.2534699 -3.1304226 0.42689148
3.4470577 -3.1802413 0.42492607
3.4096208 -3.1192605 0.42453259
3.5389132 -3.0452404 0.42160383
2.4818709 -2.7502654 0.54055744
2.4921548 -2.6971443 0.54710639
2.5024457 -2.6439869 0.5536595
2.5106843 -2.6014314 0.55890578
2.5189273 -2.558851 0.5641551
2.5292385 -2.5055888 0.57072133
2.539557 -2.4522901 0.57729197
2.547817 -2.4096212 0.58255225
2.5581496 -2.3562489 0.58913201
2.5684891 -2.3028398 0.5957163
2.5767667 -2.2600827 0.60098737
2.5850074 -2.2182665 0.61708581
2.5850906 -2.2163348 0.59543723
2.5932925 -2.1754701 0.622365
2.5964673 -2.1579437 0.6081059
2.6057758 -2.1102345 0.6194607
2.6140759 -2.067364 0.62474585
2.6244571 -2.0137382 0.63135684
2.6348457 -1.9600753 0.63797247
2.6431625 -1.9171156 0.64326847
2.651484 -1.8741302 0.6485678
2.6618934 -1.8203615 0.65519643
2.6723099 -1.7665557 0.66182965
2.6806481 -1.7234807 0.66713983
2.688992 -1.6803805 0.67245317
2.6994288 -1.6264678 0.67909956
2.7098732 -1.5725179 0.68575048
2.7182341 -1.529328 0.69107497
2.7266004 -1.4861125 0.69640243
2.7370653 -1.4320555 0.70306659
2.7475374 -1.377961 0.70973539
2.7559209 -1.3346554 0.715074
2.7643089 -1.291324 0.72041589
2.7748022 -1.2371223 0.72709787
2.7853956 -1.1816428 0.72290826
2.7938042 -1.1382095 0.7282595
2.8022177 -1.0947503 0.73361385
2.8127415 -1.0403885 0.7403115
2.8232732 -0.98598891 0.74701387
2.8317044 -0.94243896 0.75237948
2.8401403 -0.89886296 0.75774807
2.850692 -0.84435487 0.76446384
2.8612518 -0.78980893 0.77118409
2.8697059 -0.74614173 0.77656418
2.8781641 -0.70244837 0.78194737
2.8887451 -0.64779377 0.78868115
2.8993332 -0.59310085 0.79541969
2.9078093 -0.54931587 0.80081397
2.9162912 -0.50550485 0.80621177
2.9247777 -0.46166763 0.81161273
2.9353929 -0.40683272 0.81836861
2.9437561 -0.36439738 0.83468789
2.4817958 -2.7543936 0.59448981
2.4915576 -2.7037842 0.59802812
2.5014579 -2.6530459 0.61013067
2.5105717 -2.6057532 0.61287028
2.5188293 -2.5623541 0.6073488
2.5291297 -2.5091472 0.61392421
2.5394375 -2.4559042 0.6205042
2.547689 -2.41328 0.62577176
2.5580111 -2.3599634 0.63236064
2.5683403 -2.3066101 0.63895428
2.5766089 -2.2638979 0.64423275
2.5848832 -2.2211607 0.64951432
2.5952325 -2.1677022 0.6561209
2.6055892 -2.114207 0.66273195
2.613831 -2.0723841 0.67883307
2.6139288 -2.0703776 0.65721595
2.6221247 -2.0295446 0.68413055
2.6243026 -2.0167944 0.66383386
2.6333725 -1.970844 0.68263686
2.6429372 -1.9212909 0.68657303
2.6512501 -1.8783507 0.69187969
2.6616483 -1.8246385 0.69851762
2.6720543 -1.7708894 0.70516002
2.6803844 -1.7278601 0.71047777
2.6887193 -1.6848052 0.71579838
2.6991453 -1.6309495 0.72245401
2.709579 -1.5770566 0.72911423
2.717931 -1.5339123 0.73444599
2.7262886 -1.4907426 0.73978102
2.7367423 -1.4367429 0.74645442
2.7472036 -1.3827057 0.75313246
2.7555785 -1.3394459 0.75847858
2.7639582 -1.2961605 0.7638278
2.7744398 -1.2420162 0.77051908
2.7849293 -1.1878343 0.77721494
2.7933269 -1.1444588 0.78257543
2.8017299 -1.1010574 0.78793919
2.8122396 -1.0467678 0.79464853
2.8227577 -0.9924407 0.80136228
2.8311772 -0.94894868 0.80673724
2.8396022 -0.90543073 0.81211525
2.8501408 -0.85099548 0.81884253
2.8606868 -0.79652232 0.82557446
2.8691294 -0.75291348 0.83096379
2.8775768 -0.70927852 0.83635634
2.8881438 -0.65469682 0.84310168
2.8987176 -0.60007703 0.84985173
2.9071834 -0.55635095 0.85525554
2.9156539 -0.51259851 0.86066264
2.9241288 -0.46881995 0.86607277
2.9347303 -0.41405863 0.87284034
2.943217 -0.37022328 0.87825757
2.4817207 -2.758512 0.64829421
2.4899259 -2.7161295 0.65355122
2.5001895 -2.6631155 0.66012686
2.5104601 -2.6100645 0.6667068
2.5187068 -2.5667222 0.66121274
2.5289941 -2.5135851 0.66779959
2.5392892 -2.4604113 0.67439109
2.5475304 -2.4178429 0.67966771
2.5566707 -2.3704174 0.68243611
2.5665984 -2.3195388 0.69457513
2.5764129 -2.2686558 0.69816089
2.5846765 -2.2259743 0.70345163
2.5950127 -2.1725857 0.71006966
2.6053555 -2.1191604 0.71669221
2.6136358 -2.0763905 0.72199392
2.6219211 -2.0335956 0.72729886
2.6322849 -1.980065 0.73393452
2.6425993 -1.9275378 0.75136387
2.6427681 -1.9244169 0.71899605
2.6508994 -1.8846654 0.75668162
2.6510746 -1.8815107 0.72430825
2.661221 -1.8321028 0.7741192
2.6614041 -1.828907 0.74175012
2.671735 -1.7762935 0.75919384
2.6800547 -1.7333211 0.76452059
2.688379 -1.690323 0.76985055
2.6987915 -1.6365383 0.77651769
2.7088242 -1.5844169 0.77860224
2.7176285 -1.5384873 0.77772838
2.7259772 -1.4953631 0.78307068
2.7364211 -1.4414206 0.78975332
2.7468712 -1.3874407 0.79644054
2.7552369 -1.3442266 0.80179393
2.7636082 -1.300987 0.8071506
2.7740791 -1.2469001 0.81385106
2.7845573 -1.1927757 0.82055616
2.7929459 -1.1494461 0.8259241
2.8013399 -1.1060909 0.83129525
2.8118393 -1.0518591 0.83801359
2.8223457 -0.99758971 0.84473681
2.8307574 -0.95414406 0.85011899
2.8391731 -0.91067243 0.85550439
2.8497009 -0.85629517 0.86224103
2.8602359 -0.80188012 0.86898208
2.8686693 -0.75831777 0.8743788
2.8771081 -0.71472937 0.87977874
2.8876638 -0.66020608 0.88653338
2.898227 -0.60564482 0.89329261
2.9066837 -0.56196541 0.89870375
2.9151449 -0.51825982 0.90411824
2.9248555 -0.46825197 0.91252017
2.9350755 -0.41516104 0.91468376
2.9426792 -0.37603703 0.92173743
2.4816606 -2.7617989 0.69123578
2.4898574 -2.7194605 0.69650006
2.5001111 -2.6665013 0.70308465
2.510371 -2.6135058 0.709674
2.518585 -2.5710804 0.71494895
2.5288594 -2.518012 0.72154719
2.5391409 -2.4649076 0.72814989
2.5473711 -2.4223948 0.73343575
2.5556078 -2.3798566 0.73872489
2.5659087 -2.3266478 0.74534053
2.5762174 -2.2734022 0.75196087
2.58447 -2.2307765 0.7572608
2.5947931 -2.1774578 0.76389009
2.6051228 -2.1241024 0.77052414
2.6133926 -2.0813882 0.77583498
2.6216674 -2.0386496 0.78114879
2.6320174 -1.9851888 0.78779608
2.642375 -1.9316916 0.79444772
2.6506665 -1.8888643 0.7997725
2.6602204 -1.8393668 0.80374724
2.6701589 -1.7883332 0.81445175
2.6797261 -1.7387691 0.81843466
2.6879718 -1.6969271 0.83454388
2.6881077 -1.6947283 0.81300408
2.6942084 -1.6647134 0.8385514
2.6992848 -1.6375936 0.82883233
2.7093058 -1.5855329 0.83093339
2.7172513 -1.5441924 0.83170187
2.7255893 -1.501125 0.83705342
2.7360191 -1.4472536 0.84374744
2.7464557 -1.3933449 0.85044616
2.754811 -1.3501881 0.85580868
2.7631712 -1.3070058 0.86117452
2.7736285 -1.2529904 0.86788636
2.7840936 -1.1989377 0.87460309
2.7924712 -1.1556655 0.87997991
2.800854 -1.1123677 0.88536024
2.8113401 -1.058208 0.89209032
2.8218327 -1.0040106 0.89882481
2.8302329 -0.96062261 0.90421641
2.8386381 -0.91720879 0.90961081
2.8491521 -0.86290389 0.91635877
2.859673 -0.80856127 0.9231115
2.8680956 -0.76505691 0.92851734
2.8765235 -0.72152668 0.93392652
2.8870654 -0.66707611 0.94069254
2.8977368 -0.61120093 0.93664402
2.9061844 -0.56756812 0.94206262
2.9146371 -0.52390939 0.94748443
2.9252098 -0.46929783 0.95426631
2.9357901 -0.41464832 0.96105278
2.9435096 -0.3750301 0.96964562
2.481586 -2.7658973 0.7447859
2.4897723 -2.7236142 0.75005913
2.5000129 -2.6707237 0.7566551
2.5102823 -2.61694 0.75255382
2.5184877 -2.5745585 0.75783592
2.5266979 -2.5321519 0.76312137
2.536968 -2.4791081 0.76973259
2.547245 -2.4260275 0.77634823
2.5554724 -2.383534 0.78164452
2.565763 -2.3303804 0.78826928
2.5760612 -2.2771904 0.79489875
2.5843055 -2.2346091 0.80020589
2.5938015 -2.1854134 0.80416733
2.6036897 -2.134639 0.81483567
2.6131985 -2.0853772 0.8188054
2.6214643 -2.0426831 0.8241266
2.631804 -1.9892784 0.83078277
2.6421511 -1.9358373 0.83744335
2.6504343 -1.8930548 0.8427754
2.6587219 -1.8502469 0.84811091
2.6690891 -1.7967005 0.85478467
2.6794634 -1.7431171 0.86146319
2.6877692 -1.7002208 0.86680961
2.6981573 -1.6465634 0.87349725
2.707835 -1.5968262 0.88332736
2.710706 -1.5809976 0.87077528
2.7168 -1.5510205 0.89630109
2.7169502 -1.5487471 0.8747924
2.723043 -1.5187743 0.9003225
2.7259216 -1.5029061 0.88776904
2.7356184 -1.4530728 0.89761281
2.746042 -1.3992354 0.90432274
2.7543859 -1.3561354 0.90969443
2.7627354 -1.3130101 0.9150694
2.7731798 -1.2590662 0.92179269
2.7836304 -1.2050848 0.9285205
2.7919974 -1.16187 0.93390667
2.800369 -1.1186296 0.93929607
2.8108416 -1.0645416 0.94603735
2.8213208 -1.0104162 0.95278335
2.8297102 -0.96708572 0.95818394
2.838104 -0.92372948 0.96358752
2.848604 -0.8694967 0.97034705
2.8591118 -0.81522638 0.97711104
2.8675232 -0.77177989 0.98252583
2.8759398 -0.72830766 0.98794419
2.8864684 -0.67392957 0.99472153
2.8971262 -0.61812949 0.99070299
2.9055629 -0.57455492 0.99613065
2.9140041 -0.5309543 1.0015616
2.9245634 -0.47641587 1.008355
2.9351292 -0.42183921 1.0151531
2.9435885 -0.37814769 1.0205953
2.4815116 -2.7699869 0.79820949
2.4896879 -2.7277582 0.80349177
2.4978688 -2.6855047 0.80877703
2.50863 -2.6293664 0.80770594
2.5183666 -2.5788958 0.81131822
2.5265663 -2.5365443 0.81661248
2.536823 -2.4835691 0.82323498
2.547087 -2.4305575 0.8298617
2.5553038 -2.3881192 0.83516717
2.5655816 -2.3350348 0.84180313
2.5758669 -2.2819145 0.84844363
2.5841 -2.2393885 0.85375994
2.5923388 -2.1968379 0.85907918
2.6026442 -2.1436129 0.86573291
2.6129563 -2.0903516 0.87239099
2.6212113 -2.0477128 0.87772125
2.6315382 -1.9943781 0.88438851
2.6418717 -1.9410068 0.89106047
2.6501441 -1.8982803 0.89640164
2.6584213 -1.8555287 0.90174592
2.6687753 -1.8020524 0.90843129
2.6791363 -1.7485391 0.91512078
2.6874983 -1.7046049 0.90975749
2.697876 -1.651004 0.9164542
2.7082608 -1.597366 0.92315531
2.7165744 -1.554426 0.9285199
2.7248929 -1.5114607 0.93388766
2.7344499 -1.4622513 0.94221234
2.7395434 -1.4350456 0.93255186
2.7456286 -1.4051104 0.95805991
2.7457938 -1.4027622 0.93658268
2.7518783 -1.3728312 0.9620952
2.75477 -1.3568989 0.94956857
2.7623878 -1.3178021 0.95808238
2.7728212 -1.2639152 0.96481466
2.7832611 -1.209991 0.9715516
2.7916191 -1.1668217 0.97694492
2.7999821 -1.1236269 0.98234147
2.8104439 -1.0695964 0.98909193
2.8209121 -1.0155282 0.99584687
2.8292925 -0.97224373 1.0012547
2.8376782 -0.92893362 1.0066657
2.8481674 -0.87475842 1.0134341
2.8586636 -0.82054561 1.020207
2.8670669 -0.7771455 1.0256292
2.8754749 -0.73371947 1.0310549
2.8859921 -0.67939925 1.0378413
2.8965161 -0.62504125 1.0446326
2.904942 -0.58152485 1.0500692
2.9133725 -0.5379824 1.0555091
2.9239175 -0.4835166 1.062314
2.9344697 -0.42901292 1.0691233
2.9429181 -0.3853797 1.0745746
2.481452 -2.7732503 0.84084755
2.48962 -2.7310655 0.84613681
2.4977927 -2.6888556 0.8514291
2.5080154 -2.6360574 0.85804933
2.5182452 -2.5832231 0.86467373
2.5264347 -2.5409267 0.86997718
2.5366786 -2.4880199 0.87661076
2.5469291 -2.4350772 0.88324875
2.555136 -2.392694 0.88856292
2.5645862 -2.343735 0.89254469
2.5744319 -2.2931812 0.90319711
2.5838952 -2.2441566 0.90718716
2.5921235 -2.2016613 0.91251522
2.6024151 -2.1485054 0.91918004
2.6127148 -2.0953138 0.92584938
2.6209595 -2.0527308 0.93118858
2.6312726 -1.9994658 0.93786716
2.6415932 -1.9461641 0.94455028
2.6498549 -1.9034935 0.94990051
2.6581218 -1.8607979 0.95525384
2.6684625 -1.8073914 0.96195
2.6788101 -1.7539485 0.968651
2.687161 -1.7100722 0.96331501
2.6963608 -1.6623439 0.96619737
2.7063234 -1.6112887 0.97840369
2.7162001 -1.5600903 0.98210859
2.7245078 -1.5171815 0.98748547
2.7349 -1.4635086 0.99421114
2.7452989 -1.4097985 1.0009413
2.7536242 -1.3668009 1.0063292
2.7619538 -1.3237778 1.0117204
2.7722843 -1.27117 1.0291828
2.7725525 -1.2675457 0.99702615
2.7819827 -1.22133 1.0390544
2.7836189 -1.2108879 1.0113699
2.7909596 -1.1754633 1.0520527
2.7912416 -1.1717633 1.0198951
2.7994998 -1.129859 1.0360198
2.8099475 -1.0758997 1.0427816
2.8204031 -1.0219032 1.0495476
2.8287721 -0.9786759 1.0549645
2.837147 -0.9354232 1.0603845
2.8471258 -0.88369697 1.064142
2.8582168 -0.82585412 1.0632149
2.866611 -0.78249991 1.0686442
2.87501 -0.73912007 1.074077
2.8855166 -0.68485767 1.0808725
2.8960295 -0.63055754 1.0876727
2.9044464 -0.58708733 1.0931165
2.9128683 -0.54359138 1.0985638
2.9234025 -0.48918372 1.1053777
2.9339437 -0.43473816 1.1121958
2.9423831 -0.39115149 1.1176544
2.948581 -0.35989562 1.1325107
2.4813781 -2.7773204 0.89401954
2.489536 -2.7351897 0.89931762
2.4976976 -2.6930344 0.90461886
2.5079081 -2.6403046 0.91124988
2.5181248 -2.5875385 0.91788566
2.5259056 -2.5470595 0.91867989
2.5365634 -2.4915724 0.91921037
2.5468037 -2.4386845 0.92585742
2.5550013 -2.3963449 0.93117863
2.5632041 -2.353981 0.93650311
2.5734649 -2.3009899 0.94316304
2.5837319 -2.247962 0.94982767
2.5919516 -2.2055109 0.955163
2.6022332 -2.1524107 0.9618367
2.6125219 -2.0992739 0.96851498
2.6207583 -2.0567355 0.97386134
2.6289995 -2.0141723 0.97921056
2.6393087 -1.9609315 0.98590207
2.6496241 -1.907654 0.99259794
2.6578822 -1.8650029 0.99795848
2.6682127 -1.8116525 1.0046636
2.6785495 -1.7582655 1.0113734
2.6868246 -1.7155265 1.0167449
2.6951046 -1.6727622 1.0221196
2.7054622 -1.6192702 1.0288423
2.7158263 -1.5657413 1.0355699
2.7241235 -1.5228887 1.0409557
2.7345023 -1.4692863 1.0476925
2.7448881 -1.4156468 1.0544338
2.7532022 -1.3727057 1.0598307
2.7615213 -1.3297393 1.0652307
2.7719276 -1.2759943 1.0719854
2.7823408 -1.2222122 1.0787448
2.7906771 -1.1791569 1.0841559
2.7990186 -1.1360761 1.0895702
2.808598 -1.0867531 1.0979408
2.8137281 -1.0593626 1.0883546
2.8197927 -1.029533 1.1138206
2.8199956 -1.0269926 1.0924206
2.8282528 -0.98509276 1.1085461
2.836617 -0.94189721 1.1139752
2.8477237 -0.88421357 1.1165625
2.8576593 -0.83247375 1.116846
2.8660424 -0.78917706 1.1222845
2.8744307 -0.74585474 1.1277261
2.8849235 -0.6916644 1.1345327
2.8954232 -0.63743645 1.1413442
2.9038291 -0.59402394 1.1467971
2.9122396 -0.55058581 1.1522532
2.9227605 -0.4962506 1.1590781
2.9332879 -0.4418776 1.1659077
2.941716 -0.39834896 1.171375
2.94804 -0.36568636 1.1754779
2.4813042 -2.7813807 0.94706631
2.4894514 -2.7393043 0.95237327
2.4976034 -2.6972034 0.95768321
2.506989 -2.648586 0.96167332
2.5167751 -2.5983391 0.97229463
2.5265973 -2.5470226 0.97019166
2.5343742 -2.5065629 0.97100323
2.5446012 -2.4537485 0.97766072
2.5548341 -2.4008982 0.98432273
2.5630267 -2.3585889 0.98965597
2.5732739 -2.3056664 0.99632686
2.5835283 -2.2527077 1.0030026
2.5917373 -2.2103117 1.0083468
2.6020057 -2.1572804 1.0150315
2.6122813 -2.104213 1.0217208
2.6205075 -2.0617297 1.0270758
2.6287384 -2.019222 1.032434
2.6390333 -1.9660503 1.0391364
2.6493361 -1.9128425 1.0458434
2.6575842 -1.8702472 1.0512127
2.6679006 -1.8169664 1.0579292
2.6782246 -1.7636491 1.0646499
2.6861029 -1.722665 1.065504
2.6948278 -1.67716 1.0647691
2.7051749 -1.6237241 1.071501
2.7155282 -1.5702513 1.0782375
2.7238166 -1.5274436 1.0836301
2.7341847 -1.4738973 1.0903758
2.7445598 -1.4203143 1.097126
2.7528656 -1.3774184 1.1025299
2.7611766 -1.3344972 1.1079371
2.7715719 -1.2808088 1.1147007
2.7819743 -1.2270833 1.1214689
2.7903018 -1.1840733 1.1268872
2.7986345 -1.1410379 1.1323086
2.809058 -1.0872067 1.1390902
2.8194883 -1.0333383 1.1458766
2.8278387 -0.99021399 1.1513091
2.8361938 -0.9470641 1.1567453
2.8465364 -0.89439416 1.1742288
2.8467531 -0.89178485 1.1528611
2.8571031 -0.83907765 1.1703494
2.8654752 -0.79583824 1.1757966
2.873853 -0.75257337 1.1812471
2.8843317 -0.6984548 1.1880649
2.8948178 -0.64429873 1.1948874
2.9032128 -0.60094404 1.2003492
2.9116127 -0.55756366 1.2058142
2.9221194 -0.50330037 1.2126499
2.9326341 -0.44899991 1.2194909
2.9410503 -0.40552926 1.2249671
2.9473665 -0.37291011 1.2290766
2.4792252 -2.7943201 0.97750247
2.4873655 -2.7522802 0.98281413
2.4975469 -2.6996999 0.98945767
2.5056975 -2.6576073 0.99477595
2.5158923 -2.604955 1.0014287
2.5260947 -2.5522676 1.0080858
2.5342619 -2.5100887 1.0134149
2.5444777 -2.4573288 1.0200812
2.5547006 -2.4045334 1.0267519
2.5628848 -2.362268 1.032092
2.573122 -2.3094003 1.0387719
2.5833657 -2.2564964 1.0454563
2.5915666 -2.2141445 1.0508077
2.6018245 -2.1611683 1.057501
2.6120894 -2.1081562 1.0641991
2.620307 -2.0657172 1.0695611
2.6285293 -2.0232532 1.0749264
2.6388142 -1.9701372 1.0816377
2.6491063 -1.9169849 1.0883534
2.6573455 -1.8744339 1.0937299
2.6676517 -1.8212088 1.1004548
2.6779652 -1.7679471 1.1071844
2.6869545 -1.721029 1.1059352
2.6945515 -1.6815488 1.1073322
2.7048872 -1.6281688 1.1140729
2.7152309 -1.5747522 1.1208183
2.723511 -1.5319893 1.126218
2.7338679 -1.4784992 1.1329725
2.7442322 -1.4249724 1.1397314
2.7525294 -1.3821214 1.1451423
2.7608316 -1.3392453 1.1505564
2.7712162 -1.2856133 1.1573288
2.7816083 -1.2319443 1.1641058
2.7899272 -1.1889796 1.1695312
2.7982516 -1.1459898 1.1749599
2.8086638 -1.0922152 1.1817499
2.8190837 -1.0384036 1.1885452
2.8274252 -0.99532479 1.1939851
2.8357716 -0.95222044 1.1994281
2.8462119 -0.89830291 1.2062366
2.8566592 -0.84434813 1.2130497
2.8642881 -0.80519855 1.2216048
2.867228 -0.78902239 1.2092017
2.8732762 -0.75927454 1.2346294
2.8735068 -0.75659627 1.2132939
2.8795543 -0.72685277 1.2387259
2.8847208 -0.69927847 1.2292007
2.8943353 -0.64977556 1.2376195
2.9027207 -0.60646677 1.2430886
2.9123459 -0.55690897 1.2515173
2.9224732 -0.50430942 1.2538178
2.932111 -0.45468396 1.2622551
2.9405196 -0.41125968 1.2677383
2.9481864 -0.37191322 1.2763292
2.4849927 -2.5787945 -1.6996264
2.4936543 -2.534004 -1.6948063
2.5023212 -2.4891856 -1.689983
2.510994 -2.4443393 -1.6851572
2.5218425 -2.3882411 -1.6791201
2.5326989 -2.3321021 -1.6730788
2.5413904 -2.2871583 -1.6682421
2.5500872 -2.2421863 -1.6634024
2.5587895 -2.1971867 -1.6585599
2.567497 -2.152159 -1.6537144
2.5783896 -2.0958333 -1.6476531
2.5892899 -2.0394669 -1.6415873
2.5980165 -1.9943409 -1.636731
2.6067491 -1.9491869 -1.6318718
2.6154864 -1.9040046 -1.6270096
2.6242294 -1.8587942 -1.6221442
2.6351662 -1.80224 -1.6160583
2.6468 -1.742636 -1.6015543
2.6548104 -1.7014937 -1.5930791
2.6635756 -1.6561688 -1.5881979
2.6723464 -1.6108158 -1.5833135
2.6811223 -1.5654341 -1.5784259
2.6899037 -1.5200242 -1.5735353
2.7008891 -1.4632204 -1.5674176
2.7118819 -1.4063751 -1.5612955
2.7206829 -1.3608657 -1.5563943
2.7294886 -1.3153278 -1.5514898
2.738301 -1.2697616 -1.5465826
2.7471182 -1.2241666 -1.5416722
2.7559412 -1.1785432 -1.5367585
2.7669778 -1.1214722 -1.5306122
2.7780228 -1.0643595 -1.5244613
2.7868648 -1.018636 -1.519537
2.7957125 -0.9728837 -1.5146093
2.8045659 -0.92710274 -1.5096792
2.8134248 -0.88129306 -1.5047454
2.8222892 -0.83545464 -1.4998087
2.8333778 -0.7781145 -1.4936334
2.4849427 -2.5815415 -1.6637424
2.493597 -2.5367875 -1.6589148
2.5022573 -2.4920063 -1.6540846
2.5109229 -2.4471967 -1.6492512
2.5209005 -2.395436 -1.646082
2.5313029 -2.3419793 -1.6354882
2.5412946 -2.2901452 -1.6323111
2.5499845 -2.2452106 -1.6274641
2.5586801 -2.2002482 -1.6226144
2.5673804 -2.1552575 -1.6177614
2.5773847 -2.1036935 -1.6097808
2.5826623 -2.0754039 -1.6212417
2.5891106 -2.0437219 -1.5936342
2.5892005 -2.0415955 -1.6175979
2.5978751 -1.99757 -1.6007526
2.6042719 -1.9669889 -1.5611705
2.6070068 -1.9508513 -1.5884554
2.6152792 -1.9084086 -1.5790359
2.6240129 -1.8632482 -1.5741609
2.6344054 -1.8092989 -1.5713648
2.644372 -1.7585239 -1.5547806
2.6545606 -1.7061217 -1.5450792
2.6633165 -1.6608472 -1.5401882
2.6720772 -1.6155442 -1.5352939
2.6808441 -1.5702132 -1.5303968
2.6896157 -1.5248537 -1.5254966
2.7005887 -1.4681131 -1.5193667
2.7115698 -1.4113309 -1.5132326
2.720361 -1.3658723 -1.5083215
2.7291574 -1.3203853 -1.5034074
2.7379601 -1.2748698 -1.4984903
2.7467678 -1.2293259 -1.4935702
2.7555809 -1.1837533 -1.488647
2.7666059 -1.1267462 -1.4824884
2.7776382 -1.0696973 -1.4763253
2.7864709 -1.024025 -1.4713913
2.7953086 -0.97832376 -1.466454
2.8041525 -0.93259412 -1.4615138
2.8130014 -0.88683575 -1.4565704
2.8218563 -0.84104878 -1.4516238
2.8329332 -0.78377318 -1.4454364
2.4848759 -2.5851972 -1.6159824
2.4935217 -2.5404925 -1.6111453
2.5021722 -2.49576 -1.6063054
2.510828 -2.4509997 -1.6014622
2.5194902 -2.4062119 -1.5966164
2.5303247 -2.3501868 -1.5905545
2.5411675 -2.2941208 -1.5844884
2.5498481 -2.2492356 -1.5796318
2.5584974 -2.2053392 -1.5628333
2.5671866 -2.1604106 -1.5579683
2.5768247 -2.1103346 -1.5559927
2.5872893 -2.056668 -1.5437188
2.5976403 -2.0029407 -1.5409172
2.6063042 -1.9589714 -1.5240818
2.6150203 -1.9139018 -1.5191982
2.6229963 -1.872934 -1.510734
2.6259778 -1.856413 -1.5250423
2.6324129 -1.8247998 -1.4974657
2.6325254 -1.8225555 -1.5213761
2.6433859 -1.7672292 -1.503304
2.6543105 -1.7107399 -1.4971825
2.6630564 -1.6655152 -1.4922818
2.6718082 -1.6202626 -1.4873781
2.6805656 -1.5749818 -1.4824713
2.6893284 -1.5296727 -1.4775614
2.7002895 -1.4729952 -1.4714195
2.7112582 -1.4162763 -1.465273
2.7200401 -1.3708683 -1.4603524
2.728827 -1.3254319 -1.455429
2.7376199 -1.2799671 -1.4505019
2.7464178 -1.2344737 -1.445572
2.7552214 -1.1889521 -1.4406393
2.7662339 -1.1320086 -1.4344685
2.7772546 -1.0750234 -1.4282932
2.7860773 -1.029402 -1.4233495
2.7949054 -0.98375207 -1.4184026
2.8037398 -0.93807364 -1.4134527
2.8125792 -0.89236653 -1.4084996
2.8214242 -0.84663081 -1.4035435
2.8324883 -0.78941935 -1.3973438
2.4848092 -2.5888448 -1.5683243
2.4934459 -2.544189 -1.5634779
2.5025065 -2.4978337 -1.5512466
2.5107105 -2.4557416 -1.5418752
2.5193605 -2.411015 -1.5370172
2.5296471 -2.35762 -1.5342213
2.5400724 -2.3041582 -1.5219789
2.5496781 -2.2542543 -1.5199908
2.5583155 -2.210418 -1.5032015
2.5669928 -2.1655509 -1.4983249
2.5756752 -2.1206565 -1.4934448
2.5865366 -2.0644972 -1.4873405
2.5974057 -2.0082979 -1.4812317
2.606107 -1.9633057 -1.4763411
2.6148138 -1.9182854 -1.4714476
2.6235266 -1.8732373 -1.4665511
2.6322439 -1.8281609 -1.4616514
2.6431487 -1.7717746 -1.4555223
2.6533132 -1.7194958 -1.4458193
2.6563079 -1.7029037 -1.4600979
2.662734 -1.6713368 -1.4325405
2.662863 -1.6690103 -1.4564166
2.6715403 -1.6249709 -1.4395652
2.6802881 -1.5797403 -1.4346488
2.6890409 -1.5344814 -1.4297292
2.6999907 -1.4778669 -1.4235755
2.7109475 -1.421211 -1.4174172
2.7197196 -1.3758534 -1.4124868
2.728497 -1.3304675 -1.4075537
2.7372804 -1.2850533 -1.4026171
2.7460687 -1.2396107 -1.3976777
2.7548628 -1.1941397 -1.392735
2.7658632 -1.1372596 -1.3865522
2.7768719 -1.0803381 -1.3803651
2.7856851 -1.0347677 -1.3754116
2.7945039 -0.98916882 -1.3704551
2.8033283 -0.94354135 -1.3654956
2.8121579 -0.89788532 -1.360533
2.8209932 -0.85220081 -1.355567
2.8320451 -0.79505336 -1.3493552
2.8407795 -0.7507267 -1.332396
2.4843023 -2.595258 -1.5138906
2.4924223 -2.5538378 -1.5011716
2.5015409 -2.5067825 -1.4946727
2.5105934 -2.4604719 -1.4824369
2.5192318 -2.4158063 -1.477567
2.5278752 -2.3711135 -1.4726942
2.5386875 -2.315207 -1.4665986
2.5495081 -2.2592602 -1.4604989
2.5581708 -2.2144704 -1.4556156
2.5668383 -2.1696529 -1.450729
2.5755119 -2.1248076 -1.4458396
2.5855019 -2.0729885 -1.4425914
2.5959063 -2.0195222 -1.4319588
2.6059103 -1.9676299 -1.4287026
2.6146078 -1.9226595 -1.4237995
2.6233106 -1.8776608 -1.4188933
2.632019 -1.8326346 -1.4139843
2.6429124 -1.7763108 -1.4078434
2.6538134 -1.7199461 -1.401698
2.6625404 -1.6748216 -1.396778
2.671273 -1.6296691 -1.3918551
2.6800115 -1.5844885 -1.386929
2.6886833 -1.5404782 -1.3700806
2.6888268 -1.5380816 -1.3939197
2.6952426 -1.5065635 -1.3663802
2.6997294 -1.4821216 -1.3817955
2.7093086 -1.4331715 -1.3680199
2.7194002 -1.3808278 -1.3647243
2.7281678 -1.3354923 -1.3597813
2.7369413 -1.2901285 -1.3548355
2.7457206 -1.2447364 -1.3498864
2.7545047 -1.1993161 -1.344934
2.7654936 -1.1424994 -1.3387394
2.77649 -1.0856414 -1.3325403
2.7852936 -1.0401218 -1.3275771
2.7941031 -0.99457371 -1.3226112
2.8029175 -0.9489972 -1.3176421
2.8117373 -0.90339214 -1.3126698
2.8205633 -0.85775876 -1.3076943
2.8316028 -0.80067521 -1.3014706
2.8418763 -0.74783444 -1.2916703
2.4824915 -2.6090605 -1.4508414
2.4911039 -2.5645316 -1.4459717
2.5018759 -2.5088353 -1.4398807
2.5104992 -2.4642465 -1.4350045
2.5191286 -2.4196301 -1.4301252
2.5277629 -2.3749859 -1.4252428
2.538564 -2.3191407 -1.4191355
2.5493724 -2.2632551 -1.4130237
2.5580254 -2.2185147 -1.4081309
2.5666842 -2.1737463 -1.4032352
2.5753481 -2.1289501 -1.3983364
2.5840173 -2.0841262 -1.3934343
2.5948625 -2.0280561 -1.3873025
2.6057141 -1.9719454 -1.3811662
2.6144023 -1.9270244 -1.3762536
2.6230955 -1.8820753 -1.371338
2.6317947 -1.8370985 -1.3664193
2.6404991 -1.7920938 -1.3614975
2.6513872 -1.735797 -1.355341
2.6622832 -1.6794597 -1.3491801
2.6710064 -1.6343572 -1.3442476
2.6797349 -1.5892266 -1.3393121
2.6884692 -1.544068 -1.3343734
2.6972084 -1.4988812 -1.3294318
2.7081409 -1.4423568 -1.3232503
2.7190013 -1.3870311 -1.3051621
2.7191606 -1.3845519 -1.3289665
2.7255678 -1.3530802 -1.3014464
2.7285967 -1.3363149 -1.315667
2.7366033 -1.295193 -1.3071563
2.745373 -1.2498512 -1.3021977
2.7541475 -1.2044814 -1.2972361
2.7651243 -1.147728 -1.2910296
2.7761087 -1.0909331 -1.2848184
2.7849028 -1.0454643 -1.2798458
2.7937021 -0.99996692 -1.2748703
2.8025072 -0.95444125 -1.2698915
2.8113177 -0.90888715 -1.2649097
2.8201339 -0.86330467 -1.259925
2.8311615 -0.80628496 -1.2536892
2.8421977 -0.74922377 -1.2474489
2.8510332 -0.70354152 -1.2424531
2.8575454 -0.67070115 -1.2267646
2.4824278 -2.6126692 -1.4035407
2.4910307 -2.5681884 -1.3986615
2.5017915 -2.5125532 -1.3925588
2.510406 -2.4680128 -1.3876734
2.5190256 -2.4234455 -1.3827845
2.5276508 -2.37885 -1.3778926
2.5375834 -2.3273332 -1.3746293
2.547935 -2.2741394 -1.3640196
2.5578814 -2.2225499 -1.3607481
2.5665305 -2.1778307 -1.3558428
2.5751853 -2.1330838 -1.3509345
2.5838451 -2.0883093 -1.3460231
2.5946779 -2.0323005 -1.3398796
2.6055186 -1.9762515 -1.3337317
2.6141968 -1.9313796 -1.3288094
2.6228812 -1.8864802 -1.3238844
2.6315708 -1.841553 -1.3189563
2.6402655 -1.7965978 -1.3140249
2.6511421 -1.7403632 -1.3078567
2.6620264 -1.684088 -1.3016838
2.6707401 -1.6390352 -1.296742
2.6794591 -1.5939544 -1.2917969
2.688184 -1.5488459 -1.2868489
2.6969137 -1.503709 -1.2818978
2.7078347 -1.4472473 -1.2757047
2.7187629 -1.3907444 -1.2695067
2.7275116 -1.3455095 -1.264545
2.7362661 -1.3002464 -1.25958
2.7442667 -1.2591565 -1.2510645
2.7473037 -1.2423509 -1.2652537
2.7537022 -1.2109227 -1.2377547
2.7538805 -1.2083484 -1.2615267
2.764756 -1.1529452 -1.2434223
2.7757287 -1.0962135 -1.2371993
2.7845128 -1.0507951 -1.2322174
2.793303 -1.0053486 -1.2272323
2.8020978 -0.95987356 -1.2222441
2.810899 -0.9143703 -1.2172529
2.819705 -0.86883855 -1.2122585
2.8307216 -0.81188267 -1.2060108
2.8417451 -0.75488514 -1.1997588
2.8505707 -0.70925391 -1.1947534
2.8594019 -0.66359419 -1.1897449
2.8674619 -0.62219965 -1.1811786
2.4823647 -2.6162701 -1.3563408
2.4888091 -2.5829494 -1.3526747
2.4995568 -2.5273805 -1.3465608
2.5103128 -2.4717717 -1.340443
2.5189235 -2.4272528 -1.3355448
2.527539 -2.3827059 -1.3306438
2.5361605 -2.3381319 -1.3257396
2.5469451 -2.2823746 -1.3196052
2.5577371 -2.2265768 -1.3134663
2.5663772 -2.1819065 -1.3085517
2.5750225 -2.1372085 -1.3036338
2.583673 -2.092483 -1.2987131
2.5944939 -2.0365357 -1.292558
2.6053231 -1.9805481 -1.2863981
2.6139925 -1.9357259 -1.2814666
2.6226673 -1.8908756 -1.2765322
2.6313474 -1.8459978 -1.2715948
2.6400328 -1.8010921 -1.2666543
2.6508977 -1.7449195 -1.2604742
2.6617701 -1.6887064 -1.2542895
2.6704745 -1.6437032 -1.2493382
2.679184 -1.5986723 -1.2443838
2.6878994 -1.5536134 -1.2394265
2.69662 -1.5085266 -1.234466
2.7075286 -1.452127 -1.228261
2.7184451 -1.3956869 -1.2220513
2.7271845 -1.3505019 -1.2170801
2.7359295 -1.305289 -1.2121056
2.7446802 -1.2600479 -1.2071282
2.7534359 -1.2147788 -1.2021476
2.7643883 -1.158151 -1.1959174
2.7752542 -1.1027983 -1.1778165
2.7754433 -1.1001666 -1.2015489
2.7840264 -1.0574431 -1.1728225
2.7842209 -1.0547862 -1.19656
2.7929041 -1.0107186 -1.1796968
2.8016899 -0.9652943 -1.1746992
2.8104813 -0.91984165 -1.1696982
2.8192778 -0.87436068 -1.1646944
2.830282 -0.81746823 -1.1584351
2.8412938 -0.76053429 -1.1521713
2.8501101 -0.71495408 -1.1471565
2.8589313 -0.66934538 -1.1421385
2.8681273 -0.62229627 -1.1297365
2.8764682 -0.57950324 -1.1202085
2.8851793 -0.5352959 -1.1032871
2.8916807 -0.50250918 -1.0876265
2.4823005 -2.6198633 -1.3092409
2.4887385 -2.5865788 -1.305568
2.4994752 -2.5310705 -1.2994426
2.5102193 -2.475522 -1.293313
2.5188205 -2.4310517 -1.2884057
2.5274279 -2.3865538 -1.2834952
2.5360398 -2.3420284 -1.2785819
2.5468123 -2.2863317 -1.2724357
2.5575933 -2.2305949 -1.2662852
2.5662236 -2.1859734 -1.2613612
2.5748599 -2.1413245 -1.2564341
2.5835011 -2.096648 -1.2515042
2.5921481 -2.0519438 -1.2465711
2.6029642 -1.9960231 -1.2404002
2.6137881 -1.9400628 -1.2342249
2.6224537 -1.8952619 -1.2292812
2.6311243 -1.8504332 -1.2243344
2.6398008 -1.805577 -1.2193846
2.6506534 -1.7494659 -1.2131926
2.6615145 -1.6933147 -1.2069964
2.6702094 -1.6483612 -1.2020358
2.6789095 -1.6033798 -1.197072
2.6876154 -1.5583707 -1.1921054
2.6963265 -1.5133336 -1.1871355
2.7072232 -1.4569964 -1.1809187
2.718128 -1.4006186 -1.1746974
2.7268581 -1.3554837 -1.169717
2.7355938 -1.3103207 -1.1647332
2.7443345 -1.2651298 -1.1597464
2.7530806 -1.2199107 -1.1547564
2.7640216 -1.1633461 -1.1485145
2.7749703 -1.1067402 -1.1422681
2.7837358 -1.0614228 -1.1372672
2.7925062 -1.0160772 -1.1322632
2.8007011 -0.97486323 -1.1109297
2.8035796 -0.95800227 -1.1378528
2.8098562 -0.92802656 -1.0985584
2.8101683 -0.9239378 -1.1340965
2.8178704 -0.88686568 -1.090012
2.8196189 -0.87562615 -1.1207657
2.8273177 -0.83857548 -1.0766773
2.8304243 -0.82039183 -1.1055256
2.8407307 -0.76757801 -1.0928363
2.849535 -0.72206134 -1.0878099
2.8583441 -0.67651618 -1.08278
2.8666701 -0.63380146 -1.0732545
2.8758571 -0.58679885 -1.0608479
2.8846807 -0.54118139 -1.0558064
2.8957183 -0.48411784 -1.0495001
2.9066329 -0.42851451 -1.0313259
2.4822378 -2.6234493 -1.2622412
2.4886687 -2.5902004 -1.2585613
2.4985394 -2.539005 -1.2552643
2.5088336 -2.48611 -1.2446717
2.5187185 -2.4348423 -1.2413666
2.5273166 -2.3903935 -1.2364471
2.5359194 -2.3459167 -1.2315245
2.5445273 -2.3014121 -1.2265986
2.5552952 -2.2457418 -1.2204372
2.5660708 -2.1900318 -1.2142712
2.574698 -2.1454318 -1.209335
2.5833297 -2.1008041 -1.2043957
2.5919676 -2.0561488 -1.1994534
2.602772 -2.0002897 -1.1932709
2.6135843 -1.9443903 -1.1870841
2.6222405 -1.8996384 -1.1821309
2.6309023 -1.8548591 -1.1771749
2.6395688 -1.8100523 -1.1722158
2.6482413 -1.7652174 -1.1672536
2.6590891 -1.7091336 -1.1610463
2.669945 -1.6530093 -1.1548345
2.6786358 -1.6080774 -1.1498616
2.6873319 -1.5631177 -1.1448857
2.696034 -1.5181303 -1.1399064
2.706919 -1.4618554 -1.1336781
2.7181997 -1.4040248 -1.1201202
2.7264512 -1.3616953 -1.1106607
2.7351751 -1.3165948 -1.1056656
2.7439039 -1.2714664 -1.100667
2.7526386 -1.2263099 -1.0956656
2.761378 -1.1811253 -1.0906609
2.7723112 -1.1246037 -1.0844004
2.7832515 -1.0680413 -1.0781356
2.7920105 -1.0227585 -1.0731201
2.800673 -0.97879499 -1.0562832
2.8094404 -0.93346858 -1.0512592
2.8182135 -0.88811398 -1.046232
2.8291874 -0.83137965 -1.0399432
2.8401694 -0.77460408 -1.0336503
2.8481894 -0.73341262 -1.0250908
2.851275 -0.7163648 -1.0391752
2.8576419 -0.68509763 -1.0117458
2.8578753 -0.68224049 -1.0353955
2.8665614 -0.63815904 -1.0185262
2.8753698 -0.59262079 -1.0134788
2.8841834 -0.54705411 -1.008428
2.8952088 -0.4900544 -1.00211
2.9062419 -0.43301317 -0.99578738
2.9128668 -0.39876717 -0.99199152
2.4821746 -2.6270268 -1.2153412
2.4885988 -2.5938148 -1.2116544
2.4971685 -2.5495088 -1.2067362
2.507889 -2.4940872 -1.2005841
2.5186169 -2.4386256 -1.1944275
2.5272052 -2.3942246 -1.1894987
2.5357993 -2.3497961 -1.1845669
2.5443978 -2.3053408 -1.1796321
2.5551543 -2.2497308 -1.1734589
2.5659184 -2.1940818 -1.1672815
2.5745366 -2.1495302 -1.1623361
2.5831587 -2.1049511 -1.1573874
2.5917873 -2.0603447 -1.152436
2.6025805 -2.0045469 -1.146242
2.6133811 -1.9487087 -1.1400436
2.6220279 -1.904006 -1.1350815
2.6306252 -1.8603778 -1.1183722
2.6392801 -1.8156322 -1.1134015
2.6479402 -1.7708588 -1.1084275
2.6587741 -1.7148521 -1.1022061
2.669615 -1.6588049 -1.0959799
2.6782944 -1.613935 -1.0909954
2.6869788 -1.5690371 -1.086008
2.6956694 -1.5241116 -1.0810171
2.7043643 -1.4791582 -1.0760233
2.7146773 -1.4260459 -1.0671462
2.7260451 -1.3678914 -1.0517521
2.7347567 -1.3228531 -1.0467453
2.7434742 -1.2777869 -1.0417352
2.752197 -1.2326928 -1.0367222
2.7609251 -1.1875708 -1.0317061
2.771843 -1.1311274 -1.0254313
2.7827687 -1.0746433 -1.0191519
2.7915154 -1.0294231 -1.0141248
2.8002679 -0.98417503 -1.0090945
2.8090258 -0.93889892 -1.0040611
2.8177891 -0.89359462 -0.99902469
2.8287511 -0.8369233 -0.99272454
2.8397212 -0.78021085 -0.98641992
2.8485036 -0.73480809 -0.98137242
2.8572915 -0.68937701 -0.97632176
2.8660841 -0.64391768 -0.97126818
2.8748827 -0.5984301 -0.9662112
2.8835638 -0.55437773 -0.94934487
2.8838112 -0.55145079 -0.97295773
2.8901684 -0.52023268 -0.94554621
2.8956072 -0.49112728 -0.9566769
2.9057219 -0.43900067 -0.94848758
2.9123385 -0.40479282 -0.94468462
3.3066924 -3.2975698 -1.3060408
3.0899248 -3.1488144 -1.250616
3.1883957 -3.1680765 -1.2519768
2.4821117 -2.6305976 -1.1685406
2.4885287 -2.5974212 -1.1648469
2.4970903 -2.5531635 -1.1599197
2.5077989 -2.497802 -1.153756
2.5189283 -2.4407506 -1.1403273
2.5270669 -2.3990021 -1.1309586
2.5356493 -2.3546338 -1.1260153
2.5442364 -2.3102388 -1.1210691
2.5544503 -2.2572329 -1.1181161
2.5647967 -2.2041814 -1.1058781
2.5743344 -2.1546404 -1.1037329
2.5829458 -2.1101227 -1.0987731
2.5915625 -2.065577 -1.09381
2.6001842 -2.021004 -1.0888439
2.61097 -1.9652478 -1.0826318
2.6217625 -1.9094516 -1.0764154
2.630348 -1.8658826 -1.0597155
2.6389916 -1.8211983 -1.0547335
2.6476405 -1.7764865 -1.0497482
2.6584594 -1.7205564 -1.0435122
2.669286 -1.6645862 -1.0372717
2.677954 -1.6197777 -1.0322759
2.6866267 -1.5749414 -1.0272766
2.6953049 -1.5300777 -1.0222746
2.7039886 -1.4851862 -1.0172693
2.7148509 -1.4290314 -1.0110081
2.7257209 -1.372836 -1.0047426
2.7344234 -1.3278474 -0.99972653
2.7431316 -1.2828308 -0.99470735
2.7518449 -1.2377867 -0.98968518
2.7605629 -1.1927142 -0.98465967
2.7714694 -1.1363333 -0.97837341
2.7823832 -1.0799115 -0.97208267
2.7911205 -1.0347415 -0.96704638
2.7998638 -0.98954362 -0.96200693
2.8086121 -0.94431758 -0.95696437
2.8173659 -0.89906359 -0.95191866
2.8283157 -0.84245503 -0.94560701
2.8392739 -0.78580558 -0.93929076
2.8480468 -0.74045324 -0.93423426
2.8568251 -0.69507271 -0.92917448
2.8656085 -0.64966387 -0.92411155
2.8743975 -0.60422701 -0.91904533
2.8831925 -0.55876184 -0.91397643
2.8941936 -0.50188923 -0.90763521
2.9052029 -0.44497523 -0.9012894
2.9116807 -0.41230705 -0.88569099
2.9119437 -0.40930393 -0.90926802
3.2923527 -3.1884115 -1.2534136
2.9859776 -3.0320332 -1.2016336
3.0783114 -3.0475719 -1.201666
3.1756063 -3.0639453 -1.2017
3.2782726 -3.0812223 -1.2017357
3.3867683 -3.0994806 -1.2017735
2.8062403 -2.9112358 -1.1569334
2.8888402 -2.9229012 -1.1558601
2.9756167 -2.9351556 -1.1547321
2.4820018 -2.6368277 -1.0868745
2.4820487 -2.6341603 -1.1218389
2.4862716 -2.6147542 -1.0844043
2.4888763 -2.5993507 -1.1108975
2.4969916 -2.5577204 -1.1015433
2.5055466 -2.5134954 -1.0966016
2.5157056 -2.4611783 -1.0878119
2.5269287 -2.4037673 -1.0725632
2.5354996 -2.3594596 -1.0676086
2.5440757 -2.3151248 -1.062651
2.5526571 -2.2707627 -1.0576903
2.5633914 -2.2152703 -1.0514849
2.5741336 -2.1597383 -1.0452752
2.5827336 -2.1152806 -1.0403038
2.5913384 -2.0707963 -1.0353295
2.5999489 -2.026284 -1.030352
2.6107194 -1.9706037 -1.0241257
2.6214986 -1.9148837 -1.0178949
2.6301272 -1.8702759 -1.0129067
2.6387615 -1.8256406 -1.0079155
2.6474013 -1.7809774 -1.0029212
2.6582084 -1.7251086 -0.99667388
2.6690233 -1.6691996 -0.99042183
2.6776819 -1.6244403 -0.98541683
2.6863453 -1.5796534 -0.98040861
2.6950145 -1.5348388 -0.97539735
2.7036886 -1.4899966 -0.97038299
2.7145393 -1.4339035 -0.96411049
2.7253978 -1.3777702 -0.95783353
2.7340908 -1.3328309 -0.95280832
2.7427893 -1.287864 -0.94777995
2.7514932 -1.2428694 -0.94274855
2.7602019 -1.1978468 -0.93771398
2.7710967 -1.141528 -0.93141639
2.7819986 -1.0851686 -0.92511404
2.7907267 -1.0400486 -0.92006862
2.7994606 -0.9949007 -0.91502011
2.8081989 -0.94972467 -0.90996838
2.8169434 -0.90452075 -0.90491354
2.8278818 -0.84797502 -0.89859056
2.8388278 -0.79138839 -0.89226282
2.8475912 -0.7460863 -0.88719702
2.8563592 -0.70075613 -0.88212806
2.865134 -0.65539795 -0.87705594
2.8739133 -0.61001146 -0.87198073
2.8826985 -0.56459689 -0.86690241
2.8936877 -0.50778753 -0.86054981
2.9046848 -0.45093691 -0.85419255
2.9112873 -0.41680539 -0.85037595
3.0668945 -2.9480455 -1.1535457
3.1630385 -2.9616256 -1.1522977
3.2644432 -2.9759488 -1.1509817
3.3715532 -2.9910779 -1.1495914
2.7199392 -2.8117657 -1.1150284
2.7978613 -2.8206856 -1.1129881
2.8795965 -2.8300426 -1.1108483
2.9654303 -2.8398683 -1.108601
3.0556798 -2.8501997 -1.1062381
3.1506944 -2.8610764 -1.1037503
2.5684237 -2.7120707 -1.0783998
2.6388173 -2.718266 -1.0756384
2.7124698 -2.7247481 -1.0727491
2.4819705 -2.6386034 -1.0635977
2.7896118 -2.7315373 -1.0697229
2.4890723 -2.6024289 -1.0517244
2.4956777 -2.6260881 -1.0420235
2.562423 -2.6302145 -1.0385437
2.4968936 -2.5622661 -1.0433111
2.5054147 -2.5190208 -1.0267256
2.5054586 -2.5171812 -1.0499903
2.5139613 -2.4748411 -1.0217675
2.5172052 -2.4568629 -1.0373598
2.5268185 -2.4075704 -1.0259622
2.5353801 -2.3633111 -1.0209987
2.5439472 -2.3190238 -1.016032
2.5525193 -2.2747099 -1.0110621
2.5632427 -2.2192781 -1.0048456
2.5739727 -2.1638062 -0.99862444
2.5825639 -2.1193974 -0.99364418
2.5911598 -2.0749609 -0.98866063
2.5997605 -2.0304976 -0.98367429
2.6105204 -1.9748781 -0.9774366
2.6212871 -1.9192189 -0.97119451
2.6299069 -1.8746595 -0.96619725
2.6385322 -1.8300728 -0.96119702
2.6471622 -1.7854588 -0.95619357
2.655798 -1.7408172 -0.95118713
2.6666007 -1.6849751 -0.94492453
2.6774101 -1.6290928 -0.93865746
2.686065 -1.5843551 -0.93364018
2.6947243 -1.5395898 -0.92861998
2.7033889 -1.4947968 -0.9235965
2.7142286 -1.4387653 -0.91731268
2.725075 -1.3826935 -0.91102433
2.7337589 -1.3378038 -0.90599006
2.7424481 -1.2928864 -0.90095264
2.7511423 -1.2479413 -0.89591211
2.7598419 -1.2029684 -0.89086854
2.7707245 -1.1467117 -0.88455951
2.7816148 -1.0904145 -0.87824577
2.790334 -1.0453444 -0.87319148
2.7990575 -1.0002462 -0.86813366
2.8077872 -0.95512021 -0.86307281
2.8165219 -0.90996629 -0.85800898
2.8274484 -0.85348314 -0.85167444
2.838382 -0.7969591 -0.8453353
2.8471363 -0.75170738 -0.84026051
2.855895 -0.7064274 -0.83518249
2.86466 -0.66111958 -0.83010131
2.87343 -0.61578351 -0.82501698
2.8834972 -0.56390387 -0.81681949
2.8940859 -0.50883931 -0.81540269
2.9041679 -0.45688587 -0.8071968
2.910763 -0.42279238 -0.80337328
3.2508616 -2.8725426 -1.1011276
3.3566155 -2.88465 -1.0983598
2.8704989 -2.7386563 -1.06655
2.9554095 -2.7461293 -1.0632192
3.0446515 -2.7539835 -1.0597184
3.1385651 -2.7622485 -1.0560343
3.2375271 -2.7709582 -1.0521523
2.6321654 -2.6345263 -1.0349076
2.7051125 -2.6390357 -1.0311043
2.7814894 -2.6437581 -1.0271223
2.4989681 -2.5539584 -1.007206
2.8615444 -2.6487072 -1.0229484
2.9455502 -2.6539009 -1.0185688
2.5053711 -2.5208585 -1.0034858
2.5565073 -2.5495241 -0.99925524
2.6256106 -2.5520058 -0.99476969
2.6978648 -2.5546002 -0.99007964
2.5138893 -2.4776323 -0.98691308
2.5245712 -2.4224126 -0.98070234
2.5352311 -2.3681135 -0.96287173
2.5352907 -2.366194 -0.9861027
2.543787 -2.3238869 -0.95789373
2.5438507 -2.3219433 -0.98112929
2.552382 -2.2786493 -0.96453279
2.5622439 -2.2275078 -0.96112829
2.5725183 -2.1747174 -0.9504959
2.5823946 -2.1235051 -0.94708341
2.5909808 -2.0791173 -0.94209087
2.5995734 -2.0347021 -0.93709534
2.6094706 -1.9833752 -0.9336738
2.6197758 -1.9304321 -0.92301655
2.6296873 -1.8790338 -0.91958702
2.6383026 -1.8344958 -0.9145776
2.6469238 -1.7899305 -0.90956521
2.6555505 -1.7453376 -0.9045499
2.6663418 -1.6895568 -0.89827603
2.6771398 -1.6337357 -0.89199758
2.6857848 -1.5890471 -0.88697135
2.6944354 -1.5443307 -0.88194197
2.7030907 -1.4995866 -0.87690949
2.7139182 -1.4436167 -0.87061453
2.7247534 -1.3876065 -0.86431485
2.733428 -1.3427662 -0.85927153
2.7421074 -1.2978982 -0.8542251
2.7507923 -1.2530024 -0.84917545
2.7594829 -1.2080791 -0.84412289
2.8011813 -1.1867541 -0.81650633
2.7703536 -1.1518843 -0.83780253
2.8214002 -1.1557335 -0.81692445
2.7812319 -1.0956492 -0.83147758
2.8486528 -1.1139207 -0.81748796
2.9302292 -1.1340206 -0.81837374
2.7907791 -1.0507956 -0.82667929
2.8693163 -1.0822173 -0.81791508
2.9518671 -1.1015592 -0.81881714
2.9664226 -1.0797224 -0.81911516
3.0542905 -1.0996033 -0.82007909
2.7986557 -1.0055803 -0.82134742
2.8073757 -0.96050417 -0.8162775
2.8161013 -0.91540021 -0.81120455
2.8270156 -0.85897946 -0.80485868
2.8379385 -0.80251813 -0.79850841
2.8466823 -0.75731635 -0.79342437
2.8554323 -0.71208668 -0.78833741
2.8641872 -0.66682893 -0.78324705
2.8729477 -0.62154323 -0.77815366
2.8839061 -0.56489509 -0.77178234
2.8948722 -0.50820607 -0.76540619
2.9036515 -0.46282202 -0.76030171
2.9124362 -0.41740987 -0.75519407
3.3419561 -2.780149 -1.0480556
3.4523172 -2.7898617 -1.0437263
3.0338051 -2.6593568 -1.0139674
3.1266418 -2.6650965 -1.0091273
3.2244251 -2.6711419 -1.0040292
2.7734907 -2.5573161 -0.98517066
2.8527303 -2.5601621 -0.98002732
3.3275614 -2.6775181 -0.99865192
2.5506759 -2.4699752 -0.96052259
2.6191504 -2.4706783 -0.9552123
2.9358485 -2.5631468 -0.9746322
3.0231371 -2.5662813 -0.96896613
3.1149187 -2.5695777 -0.9630087
2.5266256 -2.4142065 -0.94464445
2.6907241 -2.4714131 -0.94966167
2.7656128 -2.4721823 -0.94385391
2.8440521 -2.4729874 -0.93777078
2.5358641 -2.3669889 -0.93152237
2.5449259 -2.3915431 -0.92233378
2.612783 -2.3905182 -0.91622257
2.5436912 -2.3267977 -0.9230895
2.5522449 -2.2825799 -0.91810179
2.5600784 -2.2423553 -0.90966105
2.5629818 -2.2262735 -0.92346132
2.5714712 -2.1839979 -0.89526778
2.5715501 -2.1819806 -0.91846877
2.5822253 -2.127604 -0.90062106
2.5908029 -2.0832646 -0.89561957
2.5993862 -2.0388978 -0.89061522
2.6079741 -1.9945033 -0.88560766
2.6187172 -1.9389712 -0.87934393
2.6294677 -1.883399 -0.87307549
2.6380744 -1.8389096 -0.86805719
2.6466863 -1.7943927 -0.86303586
2.6553035 -1.7498487 -0.85801148
2.6660829 -1.6941286 -0.85172647
2.6768696 -1.6383686 -0.84543675
2.6914046 -1.5943623 -0.83495975
2.7009349 -1.554792 -0.83098215
2.7478902 -1.5486927 -0.81385976
2.7027929 -1.5043666 -0.83032179
2.7745786 -1.5095754 -0.81440151
2.8609638 -1.5301607 -0.81534338
2.7167673 -1.4495152 -0.82503438
2.7948139 -1.4799167 -0.81481224
2.8084226 -1.4599707 -0.81508851
2.8893352 -1.489571 -0.81591374
2.9036813 -1.4690468 -0.81620222
2.9898093 -1.4998333 -0.81708455
3.0049608 -1.4786967 -0.81738633
2.7379389 -1.396821 -0.82202691
2.8359404 -1.4196374 -0.81564701
2.9253969 -1.4379804 -0.81663877
3.0279007 -1.4466935 -0.81784296
2.7331798 -1.3464813 -0.82429481
2.7779009 -1.3625479 -0.81525272
2.8707981 -1.368547 -0.81635463
2.9546814 -1.3960841 -0.8172276
3.0510571 -1.4143888 -0.818304
3.0666409 -1.3926483 -0.81861418
3.1452646 -1.4449259 -0.81928658
3.1616497 -1.4226594 -0.81960952
2.7418523 -1.3016503 -0.81924152
2.8115771 -1.312026 -0.81594265
2.899122 -1.327033 -0.81692946
2.9843714 -1.3536081 -0.81782454
3.0902395 -1.3597273 -0.81908411
3.1864686 -1.3889321 -0.82009864
3.314959 -1.3849893 -0.8216902
2.7548549 -1.2579383 -0.8155663
2.8457713 -1.260727 -0.81664324
2.920604 -1.295547 -0.81736559
2.935055 -1.2743665 -0.81765878
3.0144751 -1.3105409 -0.81842965
3.0373156 -1.2778637 -0.81888884
3.1140635 -1.3264912 -0.81955838
3.1300983 -1.3041211 -0.81987756
3.2115319 -1.3548727 -0.82059264
3.2284057 -1.331942 -0.82092518
3.3417079 -1.3496202 -0.82221198
2.7811799 -1.2174418 -0.81609279
2.8735502 -1.2190523 -0.8172124
2.9569285 -1.2423064 -0.81810278
3.0604246 -1.2448032 -0.8193534
3.1543837 -1.2702417 -0.82036108
3.2539687 -1.2972034 -0.82142913
3.3687313 -1.313888 -0.82273912
3.3869328 -1.289821 -0.82309425
3.5009425 -1.319299 -0.82432443
2.9017 -1.1768206 -0.8177892
