# .PCD v0.7 - Point Cloud Data file format
VERSION 0.7
FIELDS x y z
SIZE 4 4 4
TYPE F F F
COUNT 1 1 1
WIDTH 1497
HEIGHT 1
VIEWPOINT 0 0 0 1 0 0 0
POINTS 1497
DATA ascii
3.3100998 0.19323373 -0.27364314
3.3081017 0.17078432 -0.28684723
3.5003793 0.16423686 -0.32358184
3.7159326 0.14420934 -0.37241814
3.9607003 0.12146545 -0.42787349
3.1346064 0.23034936 -0.20614143
3.3130906 0.22683117 -0.25388217
3.5032928 0.1999011 -0.30256063
3.718719 0.1821626 -0.34999421
3.9633012 0.16202065 -0.40384778
3.1423805 0.27865076 -0.18052274
3.3170664 0.27150062 -0.2276089
3.5061967 0.23545821 -0.28160253
3.7214985 0.21999386 -0.32764253
3.9658928 0.20243753 -0.37990385
3.1483204 0.31443089 -0.14595701
3.32004 0.30490783 -0.2079598
3.5100574 0.2827251 -0.25374246
3.7261155 0.28282005 -0.29052317
3.7242713 0.25772813 -0.30534813
3.9701962 0.26954183 -0.34014991
3.968478 0.242744 -0.35602552
3.1544595 0.35000914 -0.11152517
3.1543493 0.36671293 -0.14241892
3.3230059 0.33822024 -0.1883665
3.5139041 0.32982185 -0.22598267
3.7288742 0.32036215 -0.26834229
3.9719119 0.29628488 -0.32430682
3.1611478 0.39635259 -0.092484236
3.1573524 0.3981306 -0.12397519
3.3269477 0.3825115 -0.16231565
3.5177383 0.37674892 -0.19832285
3.7316258 0.35780856 -0.24621795
3.9744771 0.33629057 -0.30060652
3.1670263 0.43750012 -0.073773168
3.3308773 0.42665273 -0.13635324
3.5215607 0.4235073 -0.1707626
3.7343688 0.39513606 -0.22416386
3.9770355 0.37618759 -0.27697062
3.17415 0.4780831 -0.049972828
3.3347931 0.47064468 -0.11047843
3.5253685 0.47009847 -0.14330082
3.7380147 0.44474813 -0.1948518
3.9795861 0.41594934 -0.25341502
3.1812658 0.51862222 -0.026198238
3.3386972 0.51448768 -0.084691294
3.5282166 0.50493765 -0.12276599
3.7416465 0.49417177 -0.16565095
3.9829741 0.46878612 -0.22211336
3.1883743 0.55911756 -0.0024493139
3.2390959 0.58181024 -0.0025732222
3.3416178 0.54727739 -0.065405428
3.5310559 0.53967339 -0.10229208
3.7443619 0.53112227 -0.1438197
3.9855068 0.5082798 -0.19871645
3.3720493 0.57736415 -0.033642024
3.5237374 0.56437665 -0.057409547
3.6831424 0.55866909 -0.094103523
3.6976414 0.54150027 -0.072873026
3.7461677 0.55569375 -0.12930217
3.8664026 0.54336441 -0.12338769
3.987191 0.53453785 -0.18316063
4.0609999 0.53593439 -0.16750032
3.2765226 1.0455333 0.29624709
3.2817791 1.0754809 0.31380469
3.2887802 1.1153754 0.33719414
3.2957742 1.1552273 0.36055854
3.3027604 1.1950366 0.38389796
3.3097396 1.2348034 0.4072125
3.3184521 1.2844502 0.43631947
3.3271546 1.3340349 0.46538991
3.3341076 1.3736535 0.48861757
3.3410535 1.4132299 0.51182044
3.3479912 1.4527643 0.5349986
3.3549223 1.4922566 0.55815214
3.3670332 1.5612681 0.59861243
3.3618455 1.5317067 0.58128101
3.3722169 1.5908034 0.61592829
3.3791218 1.6301491 0.63899589
3.3860202 1.6694528 0.6620388
3.3929102 1.708715 0.68505752
3.3997934 1.7479353 0.70805168
3.4083872 1.7969003 0.73675883
3.607676 -1.094213 -1.052547
3.6541128 -1.0997643 -1.0565517
3.7016804 -1.1054517 -1.0606545
3.0007217 -0.55818063 -0.61654311
3.0062027 -0.52693784 -0.59823734
3.0135036 -0.48531893 -0.57385188
3.0207965 -0.44374502 -0.5494929
3.0280819 -0.40221667 -0.52516067
3.0371766 -0.35037231 -0.49478385
3.0462599 -0.29859385 -0.46444595
3.0535169 -0.25722346 -0.44020611
3.0607665 -0.21589847 -0.41599295
3.0680079 -0.17461823 -0.39180604
3.0752416 -0.13338292 -0.36764535
3.0838568 -0.093870699 -0.33631635
3.091399 -0.057271998 -0.30942607
3.0986078 -0.01616759 -0.28534949
3.1058095 0.024892444 -0.26129904
3.113003 0.065907732 -0.23727469
3.1201887 0.10687875 -0.21327631
3.127367 0.14780527 -0.18930399
3.1363277 0.19889899 -0.15937634
3.1452777 0.24992804 -0.12948643
3.154134 0.28450271 -0.095674008
3.1612759 0.32523388 -0.071823336
3.1684103 0.36592093 -0.047998644
3.1755371 0.40656418 -0.024199488
3.1826563 0.44716358 -0.00042602886
3.1897681 0.48771909 0.023321675
3.1968718 0.52823108 0.047043867
3.2621348 0.55186409 0.035094269
3.4030607 0.53822124 0.015339838
3.3906012 0.55394769 -0.0043394901
3.5438411 0.53977627 -0.026799586
3.7122293 0.52422696 -0.051513892
3.8901842 0.51617157 -0.089994147
4.0870261 0.50726104 -0.13255855
3.2832763 1.0209842 0.3355808
3.2885294 1.0509415 0.35312274
3.2955277 1.090849 0.37649089
3.3025177 1.1307139 0.39983422
3.3095007 1.170536 0.42315263
3.3164763 1.2103158 0.44644597
3.3251846 1.2599787 0.47552663
3.3338819 1.3095797 0.5045712
3.3408315 1.3492111 0.52777779
3.3477733 1.3888006 0.55095971
3.3547075 1.4283477 0.57411695
3.361635 1.4678528 0.59724963
3.3737402 1.5368869 0.6376732
3.3685546 1.5073159 0.62035763
3.378921 1.5664318 0.65497351
3.3858223 1.6057901 0.6780203
3.3927166 1.6451067 0.70104259
3.3996031 1.6843812 0.72404027
3.4064829 1.7236147 0.74701381
3.4150717 1.7725954 0.77569503
3.6141083 -1.1235379 -1.0020933
3.6585975 -1.1279327 -1.0046192
3.7065828 -1.127983 -1.0218838
3.0076203 -0.58324707 -0.57636768
3.0130982 -0.5519942 -0.55807829
3.0203953 -0.51036149 -0.53371477
3.0276845 -0.46877429 -0.5093779
3.0363624 -0.42890832 -0.4778398
3.0457757 -0.38162076 -0.444702
3.0548534 -0.32982144 -0.41439816
3.0621059 -0.2884343 -0.39018586
3.0693502 -0.24709238 -0.36599985
3.0765874 -0.20579547 -0.34184039
3.0838163 -0.16454324 -0.31770691
3.091362 -0.12788658 -0.29081225
3.0999639 -0.088398881 -0.25954208
3.1071687 -0.047277704 -0.23549277
3.1143653 -0.0062011094 -0.2114695
3.1215541 0.034830991 -0.18747218
3.1287351 0.075818472 -0.16350085
3.1359086 0.11676171 -0.1395556
3.1448636 0.16787611 -0.10966165
3.1538081 0.21892595 -0.079805672
3.160954 0.25971442 -0.05595088
3.1680932 0.30045867 -0.032121949
3.1752234 0.34115908 -0.0083185732
3.1823466 0.38181555 0.015458988
3.1894619 0.42242813 0.03921093
3.1965699 0.46299684 0.06293717
3.20367 0.50352198 0.086637944
3.240865 0.54107463 0.069281772
3.2107625 0.54400337 0.11031321
3.2479033 0.57129228 0.087024562
3.3833404 0.54320723 0.046503041
3.5369143 0.53450608 0.015057427
3.705965 0.52492815 -0.019557215
3.8929548 0.51433378 -0.057844941
3.2196171 0.59454167 0.13987006
3.2572908 0.61159503 0.11068877
3.393183 0.58534575 0.071240492
3.5472612 0.5786646 0.040975239
3.7168689 0.5713101 0.0076596346
3.9015985 0.55096197 -0.036357217
3.2284601 0.64501661 0.16938995
3.2666817 0.65191275 0.13436191
3.4030299 0.62750065 0.095987543
3.5576117 0.62284124 0.066903882
3.72505 0.60610914 0.028079571
3.9102449 0.58760387 -0.014861289
3.2355261 0.68534571 0.1929761
3.2760761 0.6922456 0.15804388
3.4128802 0.66967213 0.1207444
3.5679669 0.66703576 0.092842959
3.7332342 0.64092058 0.048506692
3.9217782 0.63647836 0.013810792
3.2425847 0.72563165 0.21653694
3.2854745 0.73259342 0.18173462
3.4227347 0.71185994 0.14551085
3.5783257 0.7112487 0.11879288
3.7441504 0.68735236 0.075752608
3.9333167 0.68537492 0.042495746
3.2496347 0.76587445 0.2400727
3.2948761 0.77295643 0.20543426
3.4325929 0.75406438 0.17028709
3.5886893 0.75547957 0.14475331
3.7550709 0.73380423 0.10301042
3.9419737 0.72206116 0.064017639
3.2566776 0.8060739 0.26358306
3.3042808 0.81333447 0.2291428
3.4424553 0.79628509 0.19507286
3.5990572 0.79972863 0.17072438
3.7659962 0.78027606 0.13027991
3.9506338 0.75876129 0.085547648
3.2637134 0.84623027 0.28706813
3.3136895 0.85372764 0.25286022
3.4523211 0.83852255 0.21986842
3.6094289 0.84399575 0.19670607
3.7769268 0.82676792 0.15756103
3.9621849 0.80771339 0.11426511
3.2707412 0.88634366 0.31052804
3.323102 0.89413583 0.27658635
3.4621911 0.88077652 0.24467349
3.6172106 0.87720746 0.21619904
3.7851264 0.86164939 0.17802934
3.9708502 0.84444153 0.13581155
3.279515 0.93642265 0.33981648
3.3348718 0.94466835 0.30625716
3.4720647 0.92304689 0.26948851
3.6249943 0.91043067 0.23569867
3.793329 0.8965435 0.19850501
3.9795191 0.88118345 0.15736605
3.2882783 0.98643911 0.36906818
3.3442919 0.98510927 0.33000261
3.4819412 0.965334 0.29431325
3.6353757 0.95474339 0.26170707
3.8042691 0.94308567 0.22581573
3.991082 0.9301911 0.18611628
3.29528 1.0264024 0.39244035
3.3022745 1.0663227 0.41578749
3.3092613 1.1062007 0.43910968
3.3162403 1.1460359 0.46240693
3.3232121 1.1858284 0.48567948
3.3319161 1.2355074 0.51473373
3.3406091 1.2851245 0.5437519
3.3475552 1.3247689 0.56693757
3.3544931 1.3643712 0.59009862
3.361424 1.4039313 0.61323506
3.3683476 1.4434491 0.63634664
3.3804464 1.5125057 0.67673385
3.3752642 1.4829251 0.6594339
3.3856246 1.54206 0.6940186
3.3925226 1.5814313 0.71704453
3.3994131 1.6207606 0.74004591
3.4062965 1.6600482 0.7630229
3.4131722 1.6992941 0.78597558
3.4217572 1.7482908 0.81463093
3.6722875 -1.1002558 -0.97124898
3.5068607 -1.045505 -0.90750533
3.6863971 -1.0665716 -0.95144844
3.3683238 -0.96466738 -0.83110166
3.5244687 -1.0025071 -0.88216245
3.3807521 -0.93367445 -0.81279039
3.5377214 -0.97014338 -0.86308736
3.2449589 -0.88046086 -0.75502324
3.3973796 -0.89220923 -0.78829169
3.256705 -0.850591 -0.73733664
3.1311243 -0.80275965 -0.68482238
3.1385403 -0.78355557 -0.6734283
3.272418 -0.81063408 -0.71367735
3.0257571 -0.73083782 -0.61984307
3.1496918 -0.75467664 -0.65629423
3.001519 -0.71481049 -0.57099152
3.0363295 -0.70298934 -0.60328972
3.1608713 -0.72572535 -0.63911706
3.0088346 -0.6730209 -0.54658121
3.0504684 -0.66574472 -0.58115143
3.0154729 -0.62543088 -0.52700537
3.0217175 -0.58331436 -0.50787997
3.0290101 -0.54166472 -0.48354411
3.0362947 -0.50006056 -0.45923465
3.0438955 -0.46307984 -0.43215656
3.0543749 -0.41286919 -0.39462039
3.0634465 -0.36104846 -0.36435086
3.0706947 -0.31964472 -0.34016603
3.0779345 -0.27828604 -0.31600738
3.0851669 -0.23697241 -0.29187509
3.092391 -0.19570348 -0.26776892
3.0996075 -0.15447944 -0.24368903
3.1068158 -0.11330009 -0.21963514
3.1140168 -0.072165661 -0.19560759
3.1212103 -0.031075845 -0.17160621
3.1283951 0.0099697094 -0.14763054
3.1355724 0.050970566 -0.12368093
3.1427424 0.091926984 -0.09975744
3.1516926 0.14305823 -0.06989035
3.1606324 0.1941245 -0.040061366
3.1677749 0.2349263 -0.016228186
3.1749098 0.2756837 0.0075792023
3.1820366 0.31639737 0.031361088
3.1891561 0.35706702 0.05511713
3.1962678 0.39769283 0.078847662
3.2033718 0.43827474 0.10255244
3.2104683 0.47881302 0.12623172
3.217557 0.51930761 0.14988562
3.2264068 0.56986225 0.17941591
3.2352457 0.62035352 0.20890892
3.2423077 0.66069585 0.23247385
3.2493622 0.70099485 0.25601345
3.2564092 0.74125069 0.27952775
3.2634487 0.78146321 0.30301687
3.2704806 0.82163268 0.32648081
3.2775049 0.86175907 0.34991953
3.2862737 0.91185445 0.37918133
3.2950325 0.96188706 0.40840662
3.3020308 1.0018632 0.43175757
3.3090217 1.0417967 0.45508364
3.3160045 1.0816875 0.47838488
3.3229802 1.1215357 0.50166112
3.3299484 1.1613413 0.52491248
3.3386478 1.2110364 0.55394053
3.3473365 1.2606697 0.58293235
3.3542783 1.3003271 0.60609722
3.361213 1.3399421 0.62923735
3.3681405 1.3795149 0.65235281
3.3750608 1.4190456 0.67544359
3.3871529 1.4881247 0.71579432
3.381973 1.4585344 0.69850981
3.392328 1.5176886 0.73306328
3.3992226 1.5570728 0.75606835
3.4061098 1.5964148 0.77904904
3.4129894 1.6357151 0.80200523
3.4198618 1.6749738 0.82493716
3.4284422 1.7239864 0.85356653
3.008426 -0.73990715 -0.53076714
3.0157378 -0.69810385 -0.50637877
3.0230415 -0.65634614 -0.48201713
3.0303373 -0.61463416 -0.4576821
3.0376246 -0.57296759 -0.43337363
3.0449047 -0.5313468 -0.40909186
3.0521762 -0.48977122 -0.38483641
3.0612545 -0.43786746 -0.35455558
3.0703213 -0.38603029 -0.32431346
3.0775657 -0.34461287 -0.30015048
3.0848014 -0.30324078 -0.27601358
3.0920298 -0.26191366 -0.25190312
3.0992508 -0.22063141 -0.22781889
3.1064632 -0.17939408 -0.20376073
3.1136682 -0.13820142 -0.17972887
3.1208653 -0.097053498 -0.1557229
3.1280546 -0.055950068 -0.1317431
3.135236 -0.014891414 -0.10778915
3.1424096 0.026122788 -0.083861224
3.1495757 0.067092597 -0.05995927
3.1585217 0.11824027 -0.030119454
3.1674564 0.16932333 -0.00031734991
3.1745954 0.21013807 0.023494238
3.1817262 0.25090897 0.047280241
3.1888494 0.29163572 0.071040474
3.1959653 0.3323186 0.094775051
3.203073 0.37295774 0.11848405
3.2101736 0.41355279 0.14216736
3.2172663 0.45410424 0.16582525
3.2243516 0.49461186 0.18945767
3.233197 0.545183 0.21896128
3.2420306 0.59569073 0.2484276
3.2490895 0.63604617 0.27197114
3.2561405 0.67635828 0.2954894
3.2631836 0.71662712 0.3189826
3.2702191 0.75685281 0.34245056
3.2772474 0.79703528 0.3658931
3.2842681 0.83717465 0.38931057
3.2930329 0.88728631 0.41854593
3.3017869 0.93733519 0.44774473
3.3087816 0.97732437 0.47107455
3.3157687 1.0172708 0.49437964
3.3227477 1.0571746 0.51765978
3.3297203 1.0970356 0.54091489
3.3366845 1.1368543 0.56414521
3.3453796 1.1865656 0.59314692
3.3540633 1.236215 0.62211275
3.361002 1.2758851 0.64525658
3.367933 1.3155129 0.66837561
3.3748567 1.3550987 0.69147021
3.381773 1.3946422 0.71454006
3.3938594 1.4637438 0.75485426
3.3886824 1.4341438 0.73758543
3.3990321 1.4933175 0.77210778
3.4059229 1.5327142 0.79509199
3.4144802 1.5659827 0.82780242
3.421356 1.6052989 0.85073256
3.4282236 1.6445737 0.87363863
3.4367983 1.6936065 0.90223587
3.0153329 -0.76500356 -0.49054301
3.0226407 -0.72318649 -0.46617675
3.0299411 -0.6814155 -0.44183719
3.0372326 -0.6396898 -0.41752422
3.0445163 -0.59800982 -0.39323774
3.0517919 -0.55637515 -0.36897779
3.0590603 -0.51478636 -0.34474453
3.0681338 -0.46286589 -0.31449112
3.0771964 -0.41101167 -0.28427634
3.0844367 -0.36958089 -0.26013511
3.0916691 -0.32819545 -0.2360204
3.0988934 -0.28685471 -0.21193154
3.1061101 -0.2455592 -0.1878691
3.1133194 -0.20430852 -0.1638329
3.1205201 -0.16310215 -0.13982248
3.1277137 -0.12194107 -0.11583844
3.1348994 -0.080824457 -0.091880366
3.1420767 -0.039752342 -0.067948088
3.1492469 0.0012751513 -0.044041935
3.156409 0.042258359 -0.020161556
3.1653504 0.093422569 0.0096511217
3.1742804 0.14452222 0.039426308
3.1814156 0.18535028 0.06321647
3.1885431 0.22613436 0.086980738
3.1956627 0.26687443 0.11071949
3.2027748 0.30757046 0.13443254
3.2098789 0.3482227 0.15812016
3.2169759 0.38883096 0.18178202
3.2240648 0.42939556 0.20541851
3.2311461 0.46991652 0.22902957
3.2399867 0.52050406 0.25850627
3.2488163 0.57102811 0.28794608
3.2558715 0.61139655 0.31146821
3.2629185 0.65172178 0.33496529
3.269958 0.69200379 0.35843712
3.2769902 0.73224247 0.38188365
3.2840145 0.77243805 0.40530518
3.2910316 0.81259054 0.4287014
3.2997913 0.8627184 0.45791042
3.3085411 0.91278362 0.48708269
3.315532 0.95278579 0.51039135
3.3225155 0.99274516 0.53367525
3.3294911 1.0326619 0.5569343
3.3364594 1.072536 0.58016849
3.3434205 1.1123675 0.60337776
3.3521111 1.1620947 0.63235325
3.3624723 1.2056466 0.67108774
3.3694065 1.2453331 0.69420522
3.376333 1.2849768 0.71729815
3.3832517 1.324579 0.74036658
3.3901637 1.3641386 0.76341045
3.4022424 1.4332681 0.80367899
3.3970685 1.403656 0.78642976
3.4074113 1.4628537 0.82091284
3.4142978 1.5022664 0.84387106
3.4228511 1.535551 0.8765555
3.4297216 1.5748833 0.89945978
3.4365849 1.614174 0.92233998
3.4451542 1.6632261 0.95090437
3.0222397 -0.79009968 -0.45031908
3.0295439 -0.74826914 -0.42597497
3.0368397 -0.70648438 -0.40165737
3.0441282 -0.66474521 -0.37736639
3.0514083 -0.62305182 -0.35310218
3.0586803 -0.58140361 -0.3288641
3.0659444 -0.53980112 -0.30465266
3.0750132 -0.48786396 -0.27442679
3.0840704 -0.43599296 -0.24423937
3.0913072 -0.39454854 -0.22012004
3.098536 -0.35314977 -0.19602717
3.1057565 -0.31179556 -0.17196031
3.1129699 -0.2704865 -0.1479196
3.1201751 -0.22922254 -0.12390514
3.1273725 -0.18800317 -0.099916697
3.134562 -0.14682843 -0.075954288
3.1417439 -0.10569846 -0.052017935
3.1489179 -0.064613134 -0.02810741
3.1560841 -0.023572164 -0.0042228526
3.1632426 0.017424112 0.019635865
3.172179 0.068605058 0.049421612
3.1811044 0.11972126 0.079169743
3.188236 0.16056262 0.10293831
3.1953595 0.20135996 0.12668112
3.2024755 0.2421132 0.15039824
3.209584 0.28282255 0.17408979
3.2166848 0.32348788 0.19775581
3.2237775 0.36410943 0.22139648
3.2308629 0.40468711 0.24501149
3.2379405 0.44522122 0.26860109
3.2467763 0.4958252 0.29805118
3.2556014 0.54636562 0.32746422
3.2626529 0.58674729 0.35096508
3.2696965 0.62708557 0.37444073
3.2767322 0.66738069 0.39789128
3.2837608 0.70763236 0.42131656
3.2907815 0.747841 0.44471681
3.2977951 0.78800642 0.46809188
3.3077745 0.83838236 0.50315708
3.3169839 0.88209432 0.53625458
3.3239701 0.92211264 0.55953693
3.3309488 0.96208829 0.58279455
3.3379204 1.0020212 0.60602707
3.3448842 1.0419114 0.62923485
3.3518405 1.081759 0.65241796
3.3605251 1.1315067 0.6813606
3.3708804 1.1750789 0.72006226
3.3778102 1.214781 0.74315351
3.3847322 1.2544413 0.76622033
3.3916471 1.2940593 0.78926265
3.3985546 1.3336349 0.81228024
3.4106247 1.4027925 0.85250324
3.4054549 1.3731685 0.8352735
3.4157915 1.4323903 0.86971754
3.422673 1.4718188 0.89264971
3.4295475 1.5112057 0.9155575
3.4364147 1.5505508 0.93844116
3.4432747 1.5898541 0.96130049
3.451839 1.6389228 0.98983932
3.0291467 -0.81519562 -0.41009548
3.0364468 -0.77335137 -0.38577336
3.0437388 -0.73155338 -0.36147803
3.0510232 -0.68980044 -0.33720902
3.0582998 -0.64809358 -0.31296673
3.0655682 -0.60643202 -0.28875083
3.0728288 -0.56481588 -0.26456133
3.0818927 -0.51286191 -0.23436299
3.090945 -0.46097413 -0.20420279
3.0981781 -0.41951627 -0.18010534
3.1054034 -0.37810379 -0.15603429
3.1126199 -0.33673638 -0.13198923
3.1198294 -0.29541394 -0.10797047
3.1270306 -0.2541365 -0.083977684
3.1342244 -0.21290347 -0.060010958
3.1414104 -0.17171575 -0.036070425
3.1485879 -0.13057226 -0.012155612
3.1557581 -0.089473642 0.011733194
3.1629212 -0.048419479 0.035595916
3.1700757 -0.0074097598 0.05943311
3.1790075 0.043787755 0.089191772
3.1879284 0.094920501 0.11891288
3.1950564 0.13577513 0.14265975
3.2021763 0.17658564 0.16638106
3.2092886 0.2173522 0.19007678
3.216393 0.25807464 0.21374679
3.22349 0.29875329 0.23739138
3.2305794 0.33938792 0.2610105
3.2376609 0.37997898 0.2846041
3.244735 0.42052615 0.30817229
3.2535667 0.47114649 0.33759555
3.2623868 0.52170336 0.36698201
3.2711298 0.55593586 0.40033564
3.2781689 0.59629053 0.42378473
3.2851999 0.63660192 0.44720864
3.2922239 0.67686999 0.47060737
3.2992404 0.7170949 0.49398094
3.3062491 0.75727671 0.51732951
3.3149838 0.80339968 0.54748219
3.3254266 0.85140514 0.58542609
3.3324084 0.8914398 0.60868204
3.3393824 0.93143177 0.63191324
3.3463495 0.97138071 0.65511954
3.3533087 1.0112872 0.67830092
3.3602607 1.051151 0.70145768
3.3689396 1.1009189 0.7303676
3.3776073 1.1506248 0.75924152
3.3845336 1.1903399 0.78231186
3.3914521 1.2300129 0.80535775
3.3983634 1.2696437 0.82837909
3.405267 1.3092321 0.85137588
3.4173315 1.3784121 0.89156216
3.4121635 1.3487786 0.8743481
3.4224944 1.4080194 0.90876091
3.4293733 1.4474609 0.93167228
3.4362438 1.4868608 0.95455939
3.4431074 1.5262183 0.97742206
3.4499633 1.5655346 1.0002607
3.4585238 1.614619 1.0287737
3.0360534 -0.84029126 -0.36987218
3.0433493 -0.79843378 -0.34557232
3.0506382 -0.75662196 -0.32129899
3.0579185 -0.71485555 -0.29705206
3.0651913 -0.67313498 -0.27283171
3.0724559 -0.63146013 -0.24863775
3.0797126 -0.58983058 -0.22447033
3.0887718 -0.5378595 -0.1942991
3.0978198 -0.48595476 -0.16416653
3.1050489 -0.44448391 -0.14009111
3.1122699 -0.40305778 -0.11604172
3.1194832 -0.36167702 -0.092018604
3.1266885 -0.32034117 -0.068021573
3.1338866 -0.27905026 -0.044050638
3.1410766 -0.23780401 -0.020105712
3.1482587 -0.19660278 0.0038130935
3.1554327 -0.1554461 0.027706154
3.1625993 -0.1143339 0.05157334
3.1697581 -0.073266611 0.075414494
3.176909 -0.032243539 0.099229895
3.1858366 0.01897059 0.12896153
3.1947527 0.070119865 0.1586557
3.2018766 0.11098792 0.18238111
3.208993 0.15181161 0.20608078
3.2161014 0.19259135 0.22975495
3.223202 0.23332708 0.2534036
3.2316706 0.27234268 0.28415164
3.2390816 0.30848643 0.31052753
3.2461588 0.34909385 0.33409449
3.2532279 0.38965753 0.35763597
3.2620535 0.44029847 0.38702589
3.2708683 0.4908759 0.41637886
3.2796068 0.52512473 0.44970575
3.2866411 0.56549573 0.47312823
3.2936676 0.60582352 0.49652568
3.3006868 0.64610791 0.51989782
3.3076985 0.68634921 0.54324502
3.3147027 0.72654724 0.566567
3.3234472 0.77673203 0.59568334
3.3321805 0.82685417 0.62476319
3.3391585 0.86690187 0.64799786
3.3461292 0.90690666 0.67120779
3.3530929 0.94686866 0.69439298
3.3600483 0.98678797 0.71755362
3.3669965 1.0266649 0.74068916
3.3756709 1.0764488 0.76957279
3.3843346 1.1261708 0.79842049
3.3912568 1.1658989 0.82146996
3.3981721 1.2055848 0.84449476
3.4050796 1.2452282 0.86749518
3.4119794 1.2848297 0.89047122
3.4240375 1.354032 0.93062097
3.4188726 1.324389 0.9134227
3.429198 1.3836491 0.94780421
3.4360728 1.4231033 0.97069472
3.4429402 1.462516 0.99356109
3.4498003 1.5018864 1.0164031
3.4566526 1.5412153 1.0392208
3.4652085 1.5903156 1.0677079
3.0429597 -0.8653869 -0.32964915
3.0502527 -0.82351565 -0.30537128
3.0575371 -0.78169024 -0.28112
3.0648139 -0.73991054 -0.2568953
3.0720828 -0.69817644 -0.23269694
3.0793436 -0.65648782 -0.2085249
3.0865967 -0.61484498 -0.18437955
3.0956509 -0.56285697 -0.15423572
3.1046944 -0.51093566 -0.1241307
3.1119194 -0.46945098 -0.10007694
3.119137 -0.42801175 -0.076049566
3.1263466 -0.3866173 -0.052048221
3.1335483 -0.34526804 -0.028072977
3.1407418 -0.30396369 -0.0041237138
3.1479282 -0.26270428 0.019799298
3.1551065 -0.22148973 0.043696467
3.1622772 -0.18031949 0.067567743
3.1694398 -0.13919418 0.091413178
3.176595 -0.098113388 0.11523273
3.183742 -0.057077099 0.13902643
3.1926649 -0.0058463574 0.16873112
3.2032824 0.039119504 0.20833392
3.2104018 0.080004022 0.23203221
3.2175136 0.12084431 0.25570509
3.2246177 0.16164057 0.27935219
3.2317135 0.20239289 0.30297402
3.2391284 0.23859377 0.32935408
3.2475834 0.27758536 0.36004442
3.2546558 0.31820908 0.38358441
3.2617211 0.35878909 0.40709922
3.2705407 0.40945059 0.4364557
3.2793496 0.46004844 0.4657754
3.2863882 0.500476 0.48920158
3.2934186 0.54086018 0.51260287
3.3004417 0.5812009 0.53597891
3.307457 0.62149841 0.55932987
3.3144655 0.6617527 0.58265561
3.321466 0.70196378 0.60595655
3.3302059 0.75216496 0.63504624
3.3389344 0.80230331 0.66409963
3.3459094 0.84236401 0.68731332
3.3528757 0.88238174 0.71050221
3.3598354 0.92235678 0.73366642
3.3667879 0.96228904 0.75680578
3.3737323 1.0021788 0.77992046
3.3824022 1.0519788 0.80877781
3.3910615 1.1017169 0.83759922
3.3979802 1.141458 0.86062771
3.4048913 1.1811568 0.88363165
3.4117956 1.2208133 0.9066112
3.4186919 1.2604275 0.9295662
3.4307435 1.3296523 0.96967953
3.425581 1.2999995 0.95249683
3.4359019 1.3592789 0.98684704
3.4427729 1.3987459 1.0097167
3.4496362 1.4381711 1.0325623
3.4564929 1.4775547 1.0553836
3.4633415 1.5168961 1.0781807
3.4718933 1.5660125 1.1066419
3.0498667 -0.89048225 -0.28942654
3.0571556 -0.84859771 -0.26517081
3.0644362 -0.8067587 -0.24094161
3.0717092 -0.76496536 -0.21673879
3.0789742 -0.72321779 -0.19256246
3.0862312 -0.68151546 -0.16841246
3.0934801 -0.63985902 -0.14428882
3.1025305 -0.5878545 -0.11417287
3.1115685 -0.53591615 -0.084094934
3.1187901 -0.49441808 -0.060063023
3.1260037 -0.45296532 -0.03605764
3.1332095 -0.4115577 -0.012078151
3.1404073 -0.37019479 0.011875374
3.147598 -0.32887724 0.035802618
3.1547804 -0.28760427 0.059704117
3.1619549 -0.24637626 0.083579525
3.1691215 -0.20519298 0.10742904
3.1779907 -0.17026912 0.14121252
3.1851411 -0.12917173 0.16500495
3.1922836 -0.088118725 0.18877177
3.2012007 -0.036867309 0.21844269
3.2118125 0.0081193242 0.25801149
3.2189271 0.049020447 0.28168294
3.2260342 0.089877248 0.30532882
3.2331333 0.13069005 0.32894915
3.2402248 0.17145875 0.3525441
3.247309 0.21218352 0.37611344
3.254385 0.25286442 0.39965755
3.2614541 0.29350141 0.42317611
3.2685149 0.33409467 0.44666952
3.2773304 0.3847726 0.47599921
3.2861347 0.4353869 0.50529212
3.2931693 0.47582752 0.52869725
3.3001964 0.51622474 0.552077
3.3072159 0.55657858 0.5754317
3.3142276 0.59688914 0.59876156
3.3212318 0.63715649 0.62206614
3.328229 0.67738062 0.64534581
3.3369641 0.72759795 0.67440909
3.3456886 0.7777527 0.70343602
3.3526592 0.81782627 0.72662854
3.3596225 0.85785705 0.74979633
3.3665786 0.89784497 0.77293938
3.3735271 0.93779027 0.79605776
3.3804681 0.9776929 0.81915134
3.3891339 1.0275091 0.84798235
3.3977883 1.0772634 0.87677759
3.4047034 1.1170173 0.8997851
3.4116113 1.1567287 0.92276818
3.4185114 1.1963983 0.94572681
3.4254045 1.2360253 0.96866089
3.4374499 1.3052727 1.0087378
3.4322901 1.2756102 0.99157071
3.442605 1.3349088 1.0258898
3.4494727 1.3743886 1.0487385
3.4563324 1.4138266 1.0715632
3.4631855 1.4532228 1.0943637
3.470031 1.4925772 1.1171401
3.4797816 1.5419117 1.1513693
3.0567729 -0.91557765 -0.24920395
3.0640581 -0.87367916 -0.22497033
3.0713351 -0.83182669 -0.20076315
3.0786045 -0.79001969 -0.1765824
3.0858655 -0.74825853 -0.15242806
3.0931189 -0.70654297 -0.12830018
3.100364 -0.66487288 -0.10419866
3.1094093 -0.61285168 -0.074109837
3.1184428 -0.5608964 -0.044059321
3.1256609 -0.5193851 -0.020049574
3.1328707 -0.47791874 0.0039340872
3.1400728 -0.43649772 0.027891578
3.1486554 -0.3967925 0.059010692
3.156167 -0.36001867 0.085710511
3.1633446 -0.31872913 0.10958473
3.1705148 -0.2774843 0.13343288
3.1776767 -0.2362843 0.15725517
3.1865416 -0.20134392 0.19101158
3.193687 -0.16022971 0.21477692
3.200825 -0.11916023 0.2385167
3.2097359 -0.067887805 0.26815373
3.218636 -0.016680593 0.29775339
3.2257469 0.024233814 0.32140324
3.2328503 0.065103896 0.34502754
3.2399461 0.10592984 0.36862633
3.2470336 0.14671187 0.39219981
3.2541142 0.18744968 0.41574785
3.2611866 0.2281438 0.43927035
3.2682519 0.26879391 0.46276757
3.2753096 0.30940032 0.48623937
3.2841198 0.36009476 0.51554239
3.2929199 0.41072538 0.5448088
3.2999506 0.45117915 0.56819242
3.3069739 0.49158946 0.59155095
3.3139899 0.53195632 0.6148845
3.320998 0.57227993 0.63819307
3.3279986 0.61256039 0.66147643
3.3349919 0.65279752 0.68473494
3.3437228 0.70303112 0.71377158
3.3524425 0.75320214 0.7427721
3.3594093 0.79328877 0.76594353
3.3663692 0.83333248 0.78909022
3.3733213 0.87333345 0.81221223
3.3802664 0.91329151 0.83530945
3.3872039 0.95320714 0.85838205
3.395865 1.0030396 0.88718683
3.404515 1.05281 0.91595578
3.4114265 1.0925767 0.93894231
3.4183302 1.1323012 0.96190453
3.4252276 1.1719834 0.98484212
3.4321167 1.2116231 1.0077554
3.4458323 1.2747983 1.0575602
3.4389987 1.2512209 1.0306443
3.4509838 1.3044466 1.0746925
3.4578469 1.3439422 1.0975155
3.4647028 1.3833961 1.1203142
3.4715512 1.4228084 1.1430886
3.4783924 1.4621787 1.1658391
3.4869244 1.5073565 1.1952554
3.0636795 -0.9406724 -0.20898189
3.070961 -0.8987608 -0.18477045
3.078234 -0.85689455 -0.16058534
3.0854995 -0.81507421 -0.1364266
3.092757 -0.77329946 -0.1122944
3.1000061 -0.73157036 -0.088188283
3.1072478 -0.68988681 -0.064108722
3.1162884 -0.6378485 -0.034047451
3.1267092 -0.58754575 0.0031801662
3.1342492 -0.55059355 0.029966688
3.141454 -0.50911033 0.053923238
3.1486516 -0.46767238 0.077853471
3.1561673 -0.43084031 0.10455758
3.1647367 -0.3911601 0.13561757
3.1719098 -0.34985363 0.15946467
3.1790748 -0.30859226 0.18328568
3.1862321 -0.26737547 0.20708106
3.1933818 -0.22620341 0.23085049
3.2005239 -0.18507603 0.25459421
3.2076578 -0.14399305 0.27831218
3.2165644 -0.092704363 0.3079223
3.2254598 -0.041480318 0.33749497
3.2325673 -0.00055276783 0.36112317
3.2396667 0.040330611 0.38472608
3.2467585 0.081169866 0.40830332
3.2538428 0.12196487 0.43185532
3.2609191 0.16271612 0.45538169
3.2679884 0.20342332 0.47888276
3.2750494 0.24408677 0.5023585
3.2821035 0.28470626 0.52580905
3.2909098 0.33541703 0.55508524
3.2997046 0.38606411 0.5843249
3.3067319 0.42653093 0.60768747
3.3137515 0.46695441 0.63102466
3.3207636 0.50733441 0.65433675
3.3277683 0.54767102 0.67762405
3.3347652 0.58796453 0.70088631
3.3417549 0.62821484 0.72412348
3.350481 0.67846471 0.75313377
3.3591962 0.72865176 0.78210801
3.3661597 0.76875132 0.80525821
3.3731158 0.80880803 0.82838386
3.3800645 0.84882194 0.8514846
3.3870056 0.88879317 0.87456089
3.3939397 0.92872167 0.89761227
3.402596 0.97857022 0.92639083
3.4129231 1.0222434 0.96492821
3.4198301 1.0620261 0.9878884
3.4267302 1.1017667 1.0108243
3.4336224 1.1414651 1.0337358
3.4405067 1.1811211 1.0566231
3.4542146 1.2443241 1.1063821
3.4473848 1.2207348 1.0794859
3.4593635 1.2739842 1.123495
3.466222 1.3134962 1.1462919
3.4730728 1.3529662 1.1690646
3.479917 1.3923942 1.191813
3.4867535 1.4317805 1.2145376
3.4952891 1.4809526 1.2429081
3.070586 -0.96576732 -0.16876021
3.0778632 -0.92384201 -0.14457075
3.0851328 -0.8819623 -0.12040757
3.0923948 -0.8401283 -0.096271068
3.0996482 -0.79834002 -0.072160706
3.1086156 -0.76285416 -0.038048942
3.1158524 -0.72115386 -0.013996759
3.124887 -0.66909444 0.016030418
3.1342368 -0.62167722 0.048823342
3.142837 -0.58180147 0.07998278
3.1500375 -0.54030168 0.10391194
3.1572306 -0.49884704 0.12781489
3.1644151 -0.45743731 0.15169212
3.1715915 -0.41607285 0.17554329
3.1787615 -0.37475288 0.1993684
3.1859226 -0.33347827 0.22316779
3.1930764 -0.2922481 0.24694115
3.2002223 -0.25106272 0.27068904
3.2073605 -0.20992212 0.29441115
3.2144911 -0.16882591 0.3181074
3.2233927 -0.11752037 0.34769043
3.2322836 -0.066279843 0.37723607
3.2393875 -0.025339073 0.40084279
3.2464831 0.01555754 0.42442405
3.2535713 0.056410089 0.44797981
3.2606516 0.09721829 0.47151035
3.2677248 0.13798259 0.49501532
3.2747898 0.17870323 0.51849484
3.2818475 0.21937956 0.54194939
3.2888975 0.26001239 0.56537837
3.2976995 0.3107394 0.59462798
3.3064892 0.36140308 0.62384093
3.313513 0.40188286 0.64718205
3.3205292 0.44231945 0.67049801
3.3275378 0.48271251 0.69378883
3.3345385 0.52306223 0.7170549
3.341532 0.5633688 0.74029571
3.3485181 0.60363197 0.7635119
3.3572395 0.65389818 0.79249585
3.3659501 0.70410156 0.82144338
3.3729098 0.74421424 0.8445726
3.3815489 0.77815294 0.87750024
3.3884928 0.81818312 0.90057474
3.3954294 0.85817033 0.92362469
3.402359 0.89811504 0.94664991
3.41101 0.94798368 0.97539574
3.4213316 0.99167711 1.0138999
3.4282341 1.031476 1.0368341
3.4351292 1.0712327 1.059744
3.4420171 1.110947 1.0826291
3.4488971 1.1506191 1.1054903
3.4609208 1.2199448 1.1454393
3.4557703 1.1902488 1.1283269
3.4660664 1.2496148 1.1625366
3.4729209 1.2891394 1.1853126
3.4797692 1.3286222 1.2080644
3.4866092 1.368063 1.2307924
3.4934423 1.4074622 1.2534961
3.5019736 1.45665 1.2818407
3.0774922 -0.99086213 -0.12853874
3.086165 -0.95058864 -0.097134426
3.0937562 -0.91329676 -0.070186123
3.1010129 -0.87144572 -0.046076868
3.1082621 -0.82964063 -0.021994039
3.1172252 -0.79413795 0.012089875
3.1244571 -0.7524206 0.036114808
3.1334856 -0.70034027 0.066107512
3.1425025 -0.64832598 0.096062042
3.1497071 -0.60676754 0.11999547
3.1569045 -0.56525445 0.14390251
3.1640928 -0.52378625 0.1677839
3.1712742 -0.48236331 0.1916389
3.178447 -0.44098532 0.21546835
3.1856127 -0.39965224 0.23927186
3.1927707 -0.35836414 0.26304939
3.1999207 -0.31712073 0.28680113
3.207063 -0.275922 0.31052718
3.2141974 -0.23476796 0.33422759
3.221324 -0.19365838 0.35790235
3.230221 -0.1423364 0.38745838
3.2391071 -0.091079257 0.41697717
3.2462072 -0.050125085 0.44056222
3.2532995 -0.0092154164 0.46412197
3.2603838 0.03165029 0.48765633
3.2674603 0.072471954 0.51116514
3.2745297 0.11324953 0.53464866
3.2815912 0.15398297 0.5581069
3.288645 0.19467279 0.58153969
3.2956915 0.23531857 0.60494757
3.3044887 0.28606224 0.63417035
3.3132744 0.33674207 0.66335672
3.3202944 0.37723508 0.68667644
3.3273067 0.41768473 0.70997107
3.3343117 0.45809078 0.73324072
3.3413086 0.49845368 0.75648546
3.3496628 0.5370993 0.78677613
3.3569717 0.57290387 0.81274706
3.3656874 0.62319046 0.84169769
3.374392 0.67341429 0.87061232
3.3813474 0.71354306 0.89371514
3.389982 0.74749798 0.92661625
3.3969216 0.78754419 0.94966453
3.4038537 0.82754779 0.97268814
3.4107785 0.86750853 0.99568707
3.4194238 0.91739744 1.0243999
3.4280579 0.96722424 1.0530772
3.4349573 1.0070361 1.0759902
3.4418485 1.0468056 1.0988791
3.4487331 1.0865328 1.1217436
3.4556091 1.1262178 1.1445837
3.4659111 1.185666 1.1787983
3.4607625 1.155955 1.1616985
3.4727693 1.2252455 1.2015778
3.4796207 1.2647829 1.2243333
3.4864647 1.3042784 1.2470642
3.4933019 1.3437321 1.2697712
3.5001309 1.3831441 1.2924544
3.5086579 1.4323479 1.3207731
3.0861251 -1.0222301 -0.078262269
3.0937212 -0.98487848 -0.051309418
3.10238 -0.94463074 -0.019964851
3.1096318 -0.90276283 0.0041167224
3.1168761 -0.86094099 0.028171914
3.1241124 -0.81916445 0.052200943
3.1313407 -0.77743399 0.076203696
3.1403644 -0.72533649 0.106169
3.1493769 -0.67330563 0.13609619
3.1565778 -0.63173372 0.16000752
3.1637704 -0.59020704 0.18389291
3.1709561 -0.54872566 0.20775215
3.1781332 -0.50728923 0.23158565
3.185303 -0.4658978 0.25539321
3.1924644 -0.42455122 0.27917489
3.1996186 -0.3832497 0.3029308
3.2067649 -0.341993 0.32666093
3.2139032 -0.30078101 0.35036522
3.221034 -0.2596136 0.37404397
3.228157 -0.21849082 0.39769703
3.2370493 -0.16715224 0.42722604
3.2459307 -0.11587849 0.45671776
3.253027 -0.074911095 0.48028135
3.2601156 -0.033988059 0.50381941
3.2671962 0.0068908087 0.52733237
3.2742693 0.047725551 0.55081969
3.2813346 0.088516258 0.57428181
3.2883925 0.1292631 0.59771854
3.2954428 0.16996606 0.62112987
3.3024857 0.21062501 0.64451635
3.3112776 0.26138502 0.67371255
3.3200593 0.3120814 0.70287204
3.3287706 0.34642565 0.73604399
3.3357785 0.3868916 0.75931191
3.3427787 0.42731419 0.78255498
3.3497715 0.46769318 0.80577326
3.357084 0.50355417 0.83174759
3.3654249 0.54217613 0.86198151
3.3741353 0.59248292 0.89089924
3.3828344 0.64272708 0.91978091
3.3897851 0.68287206 0.94285721
3.3967283 0.72297424 0.965909
3.4036644 0.76303351 0.98893589
3.410593 0.80304986 1.0119383
3.4175141 0.84302372 1.0349163
3.4261549 0.89292872 1.0636032
3.4347849 0.94277155 1.092254
3.4416797 0.9825964 1.1151462
3.4485676 1.0223788 1.1380142
3.4554482 1.0621189 1.1608578
3.4623215 1.1018165 1.183677
3.4726176 1.1612841 1.2178603
3.4674721 1.1315634 1.200776
3.4794729 1.2008765 1.2406188
3.4863205 1.2404265 1.2633535
3.493161 1.2799349 1.2860638
3.499994 1.3194014 1.30875
3.50682 1.3588259 1.3314122
3.5153418 1.4080458 1.3597051
3.0947583 -1.0535979 -0.027986366
3.1020222 -1.0116248 -0.0038739536
3.1092784 -0.96969771 0.020211715
3.1165268 -0.92781657 0.044271175
3.1237671 -0.88598102 0.068304397
3.1309998 -0.84419113 0.092311263
3.1382241 -0.80244672 0.11629227
3.1472435 -0.75033271 0.14623007
3.1562507 -0.69828475 0.17613001
3.1634481 -0.65669954 0.20001943
3.1706374 -0.61515945 0.22388282
3.1778188 -0.57366461 0.24772041
3.1849926 -0.53221488 0.27153209
3.1921577 -0.49080998 0.29531771
3.199316 -0.44945028 0.31907788
3.2064664 -0.40813529 0.34281173
3.2136087 -0.36686528 0.3665202
3.2207432 -0.32563967 0.39020282
3.2278702 -0.28445911 0.41386005
3.2349896 -0.24332301 0.43749151
3.2438774 -0.19196768 0.46699327
3.2527547 -0.14067747 0.4964579
3.2598469 -0.099696822 0.52000022
3.2669315 -0.058760546 0.54351664
3.2740085 -0.017868459 0.56700814
3.2810781 0.022979554 0.59047389
3.2881398 0.063783459 0.61391449
3.2951937 0.1045435 0.63732976
3.303612 0.14358865 0.66782653
3.3109779 0.1797584 0.69397682
3.3197646 0.23053885 0.7231397
3.3285403 0.28125575 0.75226575
3.3372471 0.31561637 0.78541112
3.3442504 0.35609868 0.80865246
3.3512459 0.39653757 0.83186883
3.3582339 0.43693307 0.85506046
3.3652146 0.47728521 0.87822711
3.3721876 0.5175941 0.90136909
3.3808937 0.56791723 0.93026012
3.3895881 0.61817753 0.95911533
3.3965352 0.65833557 0.98217046
3.4034748 0.69845068 1.0052011
3.4104073 0.73852295 1.0282071
3.4173319 0.77855229 1.0511885
3.4242492 0.81853908 1.0741453
3.4328859 0.86846012 1.102806
3.4415109 0.91831928 1.1314305
3.4484026 0.95815676 1.1543019
3.455287 0.99795204 1.1771487
3.4621642 1.0377049 1.1999714
3.4690337 1.0774155 1.2227697
3.4793246 1.1369022 1.2569218
3.4741814 1.107172 1.2398535
3.4861755 1.1765075 1.2796597
3.4930198 1.2160704 1.3023734
3.4998569 1.2555916 1.325063
3.5066867 1.2950706 1.3477284
3.513509 1.3345081 1.3703699
3.5220263 1.3837438 1.3986369
3.1016643 -1.0786918 0.012234029
3.1089251 -1.0367055 0.036324274
3.1161773 -0.99476469 0.060387973
3.1234217 -0.95286977 0.084425457
3.1306579 -0.91102082 0.10843664
3.1378868 -0.86921728 0.13242173
3.1451077 -0.82745957 0.15638052
3.1541221 -0.77532864 0.18629105
3.163125 -0.7232641 0.21616335
3.1703181 -0.6816653 0.24003106
3.1775038 -0.64011186 0.26387265
3.1846812 -0.59860349 0.28768829
3.1918514 -0.55714029 0.3114782
3.1990135 -0.5157221 0.33524212
3.2061675 -0.47434887 0.35898036
3.2133141 -0.43302059 0.38269264
3.2204528 -0.39173707 0.40637931
3.2275841 -0.35049841 0.43004027
3.2347071 -0.30930445 0.45367572
3.2418227 -0.26815495 0.47728539
3.2507055 -0.21678329 0.50676054
3.2595778 -0.16547622 0.53619808
3.2666664 -0.12448238 0.55971855
3.2737477 -0.083532974 0.58321381
3.2821958 -0.04429666 0.61380684
3.2895887 -0.0079528224 0.64004141
3.2966459 0.032867651 0.66345495
3.3036954 0.073644176 0.68684351
3.311065 0.1098709 0.71299767
3.3194704 0.14889197 0.74343699
3.3282514 0.19969302 0.77256626
3.3370209 0.25043032 0.80165923
3.3440282 0.2909691 0.82490438
3.3510275 0.33146468 0.84812444
3.3580198 0.3719165 0.87131959
3.3650043 0.41232502 0.89449
3.3719809 0.4526903 0.91763544
3.3789506 0.49301225 0.94075608
3.3876517 0.54335165 0.96962076
3.3963416 0.59362817 0.9984495
3.4032853 0.6337992 1.0214835
3.4102211 0.67392731 1.044493
3.41715 0.71401244 1.0674779
3.4240713 0.75405484 1.0904382
3.4309847 0.79405451 1.1133742
3.4396169 0.84399176 1.1420083
3.4482372 0.89386708 1.1706069
3.4551256 0.93371755 1.1934572
3.4620061 0.97352564 1.2162832
3.4688795 1.0132914 1.239085
3.4757457 1.0530146 1.2618625
3.4860311 1.1125207 1.2959832
3.4808905 1.082781 1.2789304
3.4928787 1.1521386 1.3187002
3.4997191 1.1917145 1.3413932
3.5065527 1.2312485 1.3640618
3.5150521 1.2646577 1.396451
3.5218699 1.3041108 1.4190664
3.5303817 1.3533665 1.447301
3.1085703 -1.1037856 0.05245439
3.1158271 -1.0617856 0.07652244
3.1230757 -1.0198313 0.10056404
3.1303163 -0.97792298 0.12457948
3.1375489 -0.93606037 0.14856867
3.1447742 -0.89424342 0.17253168
3.1519909 -0.85247213 0.19646843
3.1610007 -0.80032432 0.22635165
3.1699989 -0.74824274 0.25619665
3.1771886 -0.70663065 0.28004238
3.1843703 -0.6650638 0.30386198
3.1915443 -0.62354195 0.32765588
3.1987107 -0.58206558 0.35142389
3.2058685 -0.54063392 0.37516615
3.2130191 -0.49924749 0.39888263
3.2201617 -0.4579058 0.42257315
3.2272966 -0.41660896 0.44623828
3.2344239 -0.37535685 0.46987733
3.2415438 -0.33414963 0.49349123
3.2486553 -0.29298684 0.51707935
3.2575336 -0.24159849 0.54652715
3.2681072 -0.19647443 0.58587271
3.2751913 -0.15546426 0.60936648
3.2822676 -0.11449802 0.63283449
3.289664 -0.078096598 0.65907276
3.2980995 -0.038884819 0.68960804
3.3051522 0.0019520463 0.71299523
3.312197 0.042744938 0.73635685
3.3192344 0.083493881 0.7596935
3.3262641 0.124199 0.78300494
3.3350406 0.17501637 0.8121075
3.3438056 0.22577015 0.84117377
3.3508089 0.2663222 0.86439759
3.3578053 0.30683064 0.88759631
3.3647933 0.34729573 0.91077006
3.3717744 0.38771731 0.93391907
3.3787472 0.42809549 0.95704353
3.3857131 0.46843046 0.98014295
3.3944099 0.51878619 1.008981
3.4030955 0.56907904 1.0377833
3.4100354 0.609263 1.0607963
3.4169676 0.64940417 1.0837846
3.4238927 0.68950218 1.1067486
3.4308102 0.72955739 1.1296879
3.4377203 0.76956999 1.1526027
3.4463475 0.81952351 1.1812105
3.4549639 0.86941475 1.209783
3.4618483 0.90927821 1.2326123
3.4687257 0.94909906 1.2554173
3.475595 0.98887783 1.2781981
3.4838071 1.0269403 1.307955
3.4944141 1.082044 1.3448095
3.4892774 1.0522921 1.3277763
3.5012574 1.1216779 1.3675004
3.5080934 1.1612698 1.3901672
3.5149226 1.2008197 1.4128102
3.5234172 1.2342449 1.4451734
3.5302308 1.2737142 1.4677628
3.5387366 1.3229897 1.4959649
3.5472052 1.3562964 1.5282304
3.1154766 -1.1288792 0.092674233
3.1227293 -1.0868657 0.11672004
3.1299744 -1.044898 0.14073974
3.1372111 -1.0029759 0.16473322
3.1444402 -0.9610998 0.18870036
3.1516612 -0.91926944 0.21264121
3.1588743 -0.87748456 0.23655608
3.1678791 -0.82532007 0.26641199
3.176873 -0.77322161 0.2962296
3.1840587 -0.73159605 0.32005319
3.1912365 -0.69001549 0.34385118
3.1984067 -0.6484803 0.36762315
3.2055693 -0.60699034 0.39136958
3.2127237 -0.56554568 0.41508985
3.2198701 -0.52414578 0.43878451
3.2270093 -0.48279074 0.46245345
3.2341404 -0.4414804 0.4860965
3.2412643 -0.40021518 0.50971425
3.2483797 -0.35899436 0.53330624
3.2554879 -0.31781852 0.55687273
3.2643621 -0.26641348 0.58629364
3.2749307 -0.22127305 0.62561226
3.282011 -0.18024929 0.64908427
3.2890837 -0.13927004 0.67253089
3.2961485 -0.098334894 0.69595218
3.3032057 -0.057443958 0.71934831
3.3102558 -0.016597169 0.74271899
3.3172977 0.024205619 0.7660647
3.3243325 0.064964399 0.7893852
3.3313599 0.10567939 0.8126803
3.3401325 0.15650913 0.84176308
3.3488941 0.20727521 0.87080932
3.3558946 0.2478371 0.89401716
3.3628876 0.28835535 0.91719997
3.3698735 0.32883015 0.9403578
3.3768516 0.3692615 0.96349096
3.383822 0.40964958 0.98659933
3.3907852 0.44999436 1.0096827
3.3994784 0.50036222 1.0385014
3.4081604 0.55066723 1.0672835
3.4150975 0.59086102 1.0902809
3.4220273 0.63101172 1.1132532
3.4289494 0.67111975 1.1362013
3.4358647 0.71118462 1.1591249
3.4427719 0.75120687 1.1820239
3.4513955 0.80117244 1.2106122
3.4600084 0.85107589 1.2391646
3.4668903 0.89094895 1.2619784
3.4737647 0.9307794 1.2847679
3.4806321 0.97056782 1.3075329
3.4857774 1.0003825 1.3245916
2.7068849 0.47624916 -2.3822753
2.7141118 0.51108855 -2.3555784
2.7236798 0.55721605 -2.3202312
2.7331684 0.60295743 -2.2851801
2.7407806 0.65518337 -2.2612293
2.7477939 0.68894655 -2.2353067
2.7547593 0.72247696 -2.2095628
2.7639825 0.76687711 -2.1754737
2.7708526 0.79994881 -2.1500823
2.7141864 0.44834781 -2.3383574
2.7213905 0.48327631 -2.3117988
2.7309287 0.52952141 -2.2766349
2.7403865 0.57537967 -2.2417655
2.746172 0.63458705 -2.2288039
2.7531686 0.66841501 -2.2029819
2.7601173 0.70200956 -2.1773381
2.7693183 0.74649483 -2.1433816
2.7766747 0.79737359 -2.1203463
2.7839668 0.84784979 -2.0975215
2.7929585 0.8911972 -2.0643051
2.8040977 0.94489825 -2.0231545
2.7996569 0.92348766 -2.0395613
2.808521 0.96622217 -2.006814
2.8138099 0.99672294 -1.98862
2.8221283 1.0467871 -1.9605665
2.8308051 1.0885587 -1.928495
2.8394127 1.1299977 -1.8966792
2.8458259 1.160871 -1.8729753
2.7214885 0.42044547 -2.2944379
2.7286696 0.45546269 -2.2680178
2.7381771 0.50182557 -2.233037
2.7462215 0.5462814 -2.2048419
2.7533603 0.60712457 -2.1855683
2.760335 0.64103878 -2.1598806
2.7672613 0.67471892 -2.1343699
2.7764332 0.7193175 -2.1005898
2.7837603 0.77030909 -2.0777302
2.7910235 0.82089704 -2.0550795
2.7999868 0.86435491 -2.0220351
2.8110907 0.91819322 -1.9810977
2.8066635 0.89672786 -1.9974192
2.8155 0.9395715 -1.9648418
2.8203404 0.9781028 -1.9510403
2.8273256 1.0269409 -1.9293082
2.8359821 1.0687925 -1.8973614
2.8445694 1.1103107 -1.8656691
2.8524866 1.1574686 -1.838834
2.8581297 1.2053831 -1.8235468
2.8665287 1.2458727 -1.7925195
2.8748612 1.2860454 -1.7617356
2.8831294 1.3259041 -1.731192
2.8896534 1.3718607 -1.7109823
2.8978 1.4110777 -1.6808723
2.9078915 1.4596584 -1.6435735
2.9178922 1.5078037 -1.6066085
2.7287903 0.39254177 -2.2505162
2.7359483 0.42764828 -2.2242343
2.7454257 0.47412887 -2.1894369
2.7525973 0.53553033 -2.1701469
2.7605486 0.57966107 -2.1423309
2.7675009 0.61366135 -2.1167772
2.7744057 0.64742726 -2.0914001
2.7835479 0.69213921 -2.0577962
2.7904177 0.75143474 -2.0394495
2.7980812 0.79394329 -2.0126357
2.8070149 0.83751202 -1.9797632
2.8180835 0.89148706 -1.9390392
2.8136706 0.86996716 -1.9552759
2.822479 0.91292 -1.9228681
2.8272984 0.95153254 -1.9091935
2.8342559 1.0004784 -1.8876292
2.8428853 1.0424367 -1.8558488
2.8514447 1.0840607 -1.8243209
2.859937 1.1253545 -1.7930436
2.8649511 1.1793424 -1.7825248
2.8733232 1.2199357 -1.7516586
2.8816297 1.2602106 -1.7210343
2.8898709 1.300171 -1.690649
2.8952911 1.3468158 -1.6761349
2.9028177 1.3919288 -1.6507004
2.9128852 1.4406023 -1.6135463
2.9228618 1.4888397 -1.5767248
2.9280684 1.533995 -1.5628754
2.9372931 1.5870258 -1.531096
2.9333766 1.568145 -1.5455641
2.9431376 1.6152037 -1.5095034
2.9508817 1.6525379 -1.4808946
2.959389 1.6963507 -1.4502181
2.9702663 1.7599351 -1.4130278
2.9664779 1.7416968 -1.4270306
2.9759212 1.7871567 -1.392128
2.9834144 1.823227 -1.3644342
2.9926991 1.8679264 -1.3301156
2.7360928 0.36463696 -2.206593
2.743228 0.3998324 -2.1804495
2.7526748 0.44643104 -2.1458352
2.7584329 0.50643027 -2.1332207
2.7677374 0.5521962 -2.099092
2.7746677 0.58628291 -2.0736728
2.7815502 0.62013447 -2.0484288
2.790664 0.66495955 -2.0150013
2.7961593 0.72295052 -2.0031586
2.8051381 0.76698834 -1.97019
2.8140442 0.81066763 -1.93749
2.8250775 0.86477983 -1.8969793
2.8206785 0.84320545 -1.9131308
2.829458 0.88626724 -1.8808929
2.8342569 0.92496133 -1.867345
2.8411863 0.974015 -1.8459485
2.849788 1.0160799 -1.8143342
2.8583207 1.0578096 -1.7829713
2.8667855 1.0992084 -1.7518572
2.8717728 1.1533009 -1.7415016
2.8801181 1.1939975 -1.7107961
2.8883982 1.2343749 -1.6803313
2.8966131 1.274437 -1.6501044
2.9041643 1.3200082 -1.6246715
2.9095078 1.3663962 -1.6104697
2.9195428 1.4151937 -1.5735086
2.9294884 1.463554 -1.5368788
2.9367774 1.5075815 -1.5123384
2.9438627 1.5619586 -1.4915906
2.9399588 1.5430295 -1.5059838
2.9496891 1.5902083 -1.4701099
2.9574082 1.6276376 -1.4416493
2.9668224 1.6793004 -1.4085584
2.975111 1.7414535 -1.3838961
2.9729497 1.7170082 -1.3881159
2.980752 1.7687272 -1.3630773
2.9882274 1.8048666 -1.3354912
2.9974904 1.849651 -1.3013058
3.0053256 1.9150026 -1.27977
3.0032551 1.8912835 -1.2837272
3.0107906 1.9413484 -1.2595818
3.0198326 1.9849374 -1.2261801
3.0287976 2.0281568 -1.1930617
3.0376806 2.0709794 -1.1602471
3.0341377 2.0539 -1.1733348
3.0431669 2.1108701 -1.1435905
3.0519147 2.1529806 -1.1112591
3.0605793 2.19469 -1.0792359
3.0691719 2.2360532 -1.0474786
2.74157 0.34370777 -2.1736493
2.8512633 0.32260311 -2.1895525
2.7505081 0.37201527 -2.136663
2.7585394 0.41716096 -2.1087189
3.0680807 0.32771137 -2.2054012
2.7656522 0.47884858 -2.0897999
3.2700305 0.30556855 -2.263814
2.7749267 0.52473038 -2.0558512
2.7818346 0.55890328 -2.030566
2.7886951 0.59284025 -2.0054557
2.7977798 0.637779 -1.9722048
2.8032455 0.69588298 -1.9605378
2.8121958 0.74003255 -1.9277428
2.8210733 0.78382254 -1.895215
2.8320711 0.83807176 -1.8549179
2.8276863 0.81644249 -1.8709843
2.8364379 0.85961336 -1.8389161
2.8412156 0.89838886 -1.8254949
2.8481171 0.94755042 -1.8042662
2.8566914 0.98972189 -1.7728179
2.8651969 1.0315574 -1.7416199
2.8736346 1.0730612 -1.7106694
2.8792014 1.1213 -1.6958499
2.8869135 1.1680582 -1.669932
2.8951671 1.2085381 -1.6396269
2.9033556 1.2487019 -1.6095585
2.9114811 1.288553 -1.5797241
2.9161983 1.3408626 -1.5702376
2.9262011 1.389784 -1.5334697
2.9361148 1.4382671 -1.4970312
2.943975 1.4767077 -1.4681406
2.9504328 1.5368904 -1.4520838
2.9481869 1.5116339 -1.4565061
2.9562404 1.5652119 -1.4307151
2.9639351 1.6027364 -1.4024029
2.9734693 1.6492302 -1.3673234
2.983186 1.71065 -1.3353416
2.9810395 1.6861463 -1.33947
2.9871941 1.7441539 -1.3243423
2.9946451 1.7803851 -1.2968992
3.0038786 1.8252838 -1.2628917
3.013267 1.8847133 -1.2320173
3.0112114 1.8609376 -1.2358865
3.0177152 1.9117996 -1.2171001
3.0261395 1.9608842 -1.1882561
3.0350764 2.0042136 -1.1553094
3.0439308 2.0471454 -1.1226652
3.0403991 2.0300224 -1.1356848
3.0485687 2.0864856 -1.1100937
3.0565648 2.1352506 -1.0832999
3.0652084 2.1770399 -1.051401
3.0737805 2.218482 -1.019767
3.0799377 2.2647772 -1.0014848
3.0876472 2.311856 -0.97566664
3.0960028 2.3521364 -0.94479996
3.104243 2.387521 -0.91319406
3.1107337 2.4101536 -0.8868922
2.8863015 0.3476429 -2.1528223
2.7649343 0.40645239 -2.0739422
2.9216149 0.37287825 -2.1158051
2.7728715 0.45126584 -2.0463772
2.9572062 0.39831224 -2.0784976
3.1060066 0.35419708 -2.1666462
2.7821169 0.49726322 -2.0126088
3.1442471 0.38090175 -2.1275709
3.3109493 0.33343357 -2.2231541
2.7890024 0.53152239 -1.987458
2.7958405 0.56554538 -1.9624805
2.8035514 0.60912156 -1.9357139
2.8103323 0.66881454 -1.9179153
2.8192542 0.71307564 -1.8852942
2.8281026 0.75697613 -1.8529384
2.8390651 0.81136239 -1.8128543
2.8346944 0.78967857 -1.8288358
2.8434181 0.83295858 -1.7969375
2.8481748 0.87181544 -1.7836434
2.8550482 0.92108476 -1.7625823
2.8635945 0.96336293 -1.7313
2.8720732 1.0053043 -1.700267
2.8804839 1.046913 -1.6694798
2.8871243 1.0946972 -1.6491832
2.8937089 1.142118 -1.6290663
2.9019358 1.1827004 -1.5989209
2.9100986 1.2229657 -1.5690109
2.9181974 1.262918 -1.5393337
