# .PCD v0.7 - Point Cloud Data file format
VERSION 0.7
FIELDS x y z
SIZE 4 4 4
TYPE F F F
COUNT 1 1 1
WIDTH 1469
HEIGHT 1
VIEWPOINT 0 0 0 1 0 0 0
POINTS 1469
DATA ascii
2.3305976 0.045428481 0.46082309
2.3330667 0.07766366 0.46756637
2.3355415 0.10997342 0.4743253
3.1758747 -1.0192002 0.27211621
3.4551034 -1.0274012 0.27258128
3.3217204 -0.95344377 0.27241561
2.2563128 -0.92481929 0.32268563
2.2598372 -0.87880236 0.33027047
2.2633016 -0.83350855 0.33119327
2.264832 -0.81353235 0.33541742
2.2671325 -0.78350085 0.34176791
2.3186038 -0.56530094 0.41581711
2.4406111 -0.55557162 0.41561368
2.2870317 -0.52390563 0.41862831
2.3919523 -0.51924098 0.41483942
2.5205252 -0.50722378 0.41458756
2.6608994 -0.49410364 0.41431257
2.2901745 -0.48288095 0.42734039
2.3448012 -0.48403665 0.41408917
2.4692602 -0.47069412 0.413809
2.6049492 -0.45614764 0.41350353
2.7534595 -0.44022676 0.41316912
2.8147762 -0.4797214 0.41401109
2.9842031 -0.4638859 0.41367921
2.295305 -0.42975253 0.42777175
2.3715479 -0.40106782 0.41232499
2.4196267 -0.43532696 0.41305518
2.5508587 -0.41945329 0.41272128
2.6942754 -0.40210584 0.4123565
2.8516562 -0.38306907 0.41195613
2.9166989 -0.42272699 0.41280168
2.2972841 -0.39007017 0.44705024
2.3051376 -0.37221178 0.42975518
2.4478979 -0.34960562 0.4112325
2.4985366 -0.38395861 0.41196477
2.6371148 -0.36528793 0.41157168
2.7889438 -0.34483188 0.41114086
2.3015444 -0.33428365 0.43675497
2.5818753 -0.32970762 0.41081309
2.7284377 -0.30794016 0.41035429
2.8894479 -0.28402719 0.40985039
2.9560206 -0.32232162 0.41066694
2.3055375 -0.2821613 0.44777665
2.3094432 -0.23113687 0.45411745
2.312911 -0.18581246 0.45701459
2.3169527 -0.13305092 0.46814752
2.3210106 -0.080077425 0.47932518
2.3242705 -0.037528139 0.4883033
2.3280029 0.011184013 0.50082982
2.3301499 0.03931804 0.49327812
3.3685658 0.043377306 0.50415874
2.3324676 0.069489926 0.51088464
2.3354409 0.10827727 0.52282852
2.3123205 -0.76069266 0.4199734
2.3582306 -0.79963452 0.42080322
2.4334028 -0.75931507 0.41994768
2.5652268 -0.757815 0.41991961
2.7092891 -0.75617611 0.41988894
2.2716994 -0.72439361 0.4196077
2.3851149 -0.71998662 0.4191097
2.5126772 -0.71679491 0.41904545
2.65188 -0.71331245 0.4189755
2.8043919 -0.7094968 0.41889879
2.9722164 -0.70529795 0.41881436
2.2747903 -0.68404251 0.4282499
2.3383164 -0.68187076 0.41829744
2.4618185 -0.67709446 0.41819945
2.5964005 -0.67188931 0.41809267
2.743623 -0.66619533 0.41797587
2.9053557 -0.6599403 0.41784748
2.2824988 -0.63282067 0.42897263
2.4125688 -0.63865024 0.41738024
2.5427542 -0.63183522 0.41723901
2.6849558 -0.62439108 0.41708487
2.8409185 -0.61622679 0.41691566
3.0127413 -0.60723233 0.41672945
2.2819202 -0.59088778 0.4372524
2.3648546 -0.60140413 0.41658652
2.4908521 -0.5930835 0.41641322
2.5735037 -0.54497427 0.41539219
2.628283 -0.58400798 0.41622412
2.7787759 -0.57406992 0.4160172
2.9442861 -0.56313992 0.41578948
2.2858281 -0.53986984 0.4481563
2.718807 -0.53338742 0.41514996
2.8783431 -0.52066535 0.41488394
2.2897518 -0.48865008 0.45910311
2.2936935 -0.43719891 0.47009954
2.2968576 -0.3958981 0.47892654
2.2984438 -0.37518916 0.4833526
2.3008289 -0.34405524 0.49000663
2.3048179 -0.29198831 0.50113457
2.3090694 -0.23643102 0.50633883
2.3121839 -0.195742 0.5105744
2.316221 -0.14303689 0.52181482
2.3202751 -0.090120316 0.53310043
2.3235309 -0.047616821 0.54216522
2.3276172 0.0057266844 0.55354184
2.3318691 0.061324999 0.55415618
2.335165 0.10435481 0.56331366
3.0004959 -0.8492341 0.42187709
2.6195526 -0.80022144 0.42082334
2.7687297 -0.8005566 0.42083478
2.9326999 -0.80092484 0.42084742
2.2673075 -0.78206921 0.45068449
2.4832523 -0.79991561 0.42081282
2.8673759 -0.75437748 0.41985539
3.0416403 -0.75239432 0.41981822
2.2703819 -0.74193168 0.4593538
2.2742407 -0.69156313 0.47023275
2.2781146 -0.64099735 0.4811545
2.2812254 -0.60038555 0.48992619
2.2849858 -0.55124605 0.49427408
2.2891898 -0.49633548 0.50141633
2.293128 -0.44492766 0.51249653
2.2967699 -0.39741284 0.52641708
2.2980165 -0.38102615 0.51523173
2.3002572 -0.35186294 0.53255546
2.3042424 -0.29984024 0.54376823
2.3082435 -0.24761014 0.55502576
2.3114574 -0.20565912 0.56406766
2.3154905 -0.15301049 0.57541537
2.31954 -0.10015068 0.58680874
2.3227928 -0.057692926 0.5959599
2.3268745 -0.0044069323 0.60744494
2.3301516 0.038369186 0.61666471
2.3316073 0.057512872 0.60393435
2.3344147 0.09411478 0.61742276
2.3365901 0.12233826 0.64603078
2.2673941 -0.78135878 0.50510812
2.2696991 -0.75127023 0.511675
2.2735538 -0.7009542 0.52265674
2.2774236 -0.65044105 0.53368139
2.2805316 -0.60987163 0.54253578
2.2847316 -0.55497861 0.54629648
2.2884874 -0.50593054 0.55424279
2.2924216 -0.45457679 0.56542766
2.2963707 -0.4030197 0.57665682
2.2984641 -0.37587228 0.60464191
2.2997591 -0.35875812 0.5818826
2.3033788 -0.31149682 0.59026533
2.3076661 -0.25549817 0.59769911
2.3108771 -0.21358301 0.6068092
2.3149068 -0.16097943 0.61824256
2.3189526 -0.10816497 0.62972164
2.3222027 -0.065743729 0.63894182
2.3262813 -0.012503657 0.65051347
2.3300529 0.036700226 0.66495121
2.331346 0.053703658 0.65367329
3.1201305 0.064214267 0.62198573
2.3336649 0.083887666 0.67146385
2.3361385 0.11618319 0.67848307
2.7564597 -1.4733588 0.43668276
2.6105738 -1.4435759 0.43606502
2.6988502 -1.4184508 0.43556705
2.8533263 -1.4479283 0.43617967
2.9561865 -1.4209248 0.43564543
3.0948219 -1.4061396 0.43776932
2.4770601 -1.4163185 0.43549964
2.5578332 -1.3915417 0.43500787
2.6005983 -1.3697158 0.44873703
2.6581609 -1.3733426 0.43604937
2.7110434 -1.3778554 0.44628611
2.8109601 -1.3892182 0.43934757
2.9571574 -1.3959937 0.44082439
2.3549032 -1.3516078 0.45417911
2.4147439 -1.3609384 0.44383207
2.4483922 -1.3584976 0.45210376
2.4974494 -1.3621137 0.45102608
2.548161 -1.3658504 0.449889
2.2597346 -0.99675375 0.53553641
2.3444412 -0.99084592 0.53563261
2.4344733 -0.98456681 0.53573483
2.5303493 -0.97787976 0.53584373
2.25351 -0.96318424 0.54077679
2.3150914 -0.9565267 0.53547615
2.4033098 -0.94924235 0.53557265
2.4971957 -0.9414897 0.53567505
2.5973134 -0.93322283 0.53578448
2.2577415 -0.90790129 0.54762024
2.2863052 -0.92286682 0.53532284
2.3727636 -0.91461736 0.53541344
2.4647195 -0.90584326 0.53550988
2.2612298 -0.86232471 0.55230099
2.3134503 -0.84738404 0.53510457
2.3428164 -0.88067114 0.53525752
2.4328997 -0.87091744 0.535348
2.2642825 -0.82247847 0.56110579
2.2727828 -0.79744262 0.54289502
2.2691536 -0.75873202 0.55348116
2.272233 -0.71853518 0.56232709
2.2760971 -0.66809213 0.57342768
2.2799771 -0.61745131 0.5845719
2.283874 -0.56658286 0.59576625
2.2877862 -0.5155139 0.60700464
2.2917163 -0.46421418 0.61829376
2.2956619 -0.4127115 0.62962765
2.2980371 -0.38170493 0.63645107
2.2996242 -0.3609871 0.64101034
2.3031147 -0.31536385 0.64275247
2.3069453 -0.26534611 0.65097475
2.3101525 -0.22347561 0.66017002
2.3141782 -0.17092824 0.67170995
2.3182199 -0.11817036 0.68329608
2.3216136 -0.073785909 0.68187785
2.3256879 -0.020591771 0.6935358
2.3297801 0.032816797 0.70524079
2.333066 0.075716242 0.71464241
2.9012358 0.082573585 0.7258023
2.3355379 0.10798371 0.72171402
2.9418273 -1.6500314 0.44027263
3.0500057 -1.6287729 0.4398551
3.1652648 -1.6061232 0.43941012
2.8778367 -1.5890424 0.43903345
2.9820375 -1.566277 0.43858489
3.2883248 -1.5819401 0.43893513
3.4200037 -1.5560632 0.43842688
2.7214348 -1.5529507 0.43828699
2.8160863 -1.5301886 0.43783751
2.9165211 -1.5060356 0.43736058
3.0929301 -1.5420498 0.43810773
3.2111802 -1.5162151 0.43759876
3.3375452 -1.4886073 0.43705481
2.6650779 -1.4973491 0.43715742
3.0232866 -1.4803607 0.43685359
3.1369989 -1.4530149 0.43631372
3.4759707 -1.4365507 0.47233388
3.0205266 -1.4013494 0.45212686
3.081969 -1.4072834 0.47682139
3.1588862 -1.4122845 0.4627395
3.2345076 -1.417888 0.46162063
3.2583599 -1.4238296 0.43573737
3.3133135 -1.4237255 0.460419
3.3954837 -1.4298139 0.45920324
2.6163595 -1.3730088 0.48790467
2.6482863 -1.3744564 0.47041157
2.70083 -1.3789729 0.48118129
2.7586608 -1.383267 0.48049766
2.8185914 -1.38772 0.47983426
2.8845596 -1.391961 0.46686158
2.9413414 -1.3975085 0.4908652
2.9492304 -1.3967531 0.46590474
3.0123014 -1.4021093 0.47763386
2.3656423 -1.3549153 0.50058651
2.4230905 -1.3585361 0.48794809
2.4856231 -1.3635697 0.49444002
2.5211234 -1.3658246 0.48694861
2.5879269 -1.3711888 0.49363747
2.2340777 -1.2680861 0.53804016
2.2912533 -1.2458572 0.53642273
2.3775749 -1.2475543 0.53654689
2.469367 -1.2493593 0.53667897
2.2333043 -1.2274405 0.54609138
2.2630587 -1.2098812 0.53626239
2.3476796 -1.2104677 0.53638041
2.437609 -1.2110909 0.53650588
2.5333622 -1.2117546 0.53663939
2.6355236 -1.2124627 0.53678203
2.7447596 -1.21322 0.53693444
2.8214595 -1.1711743 0.53689724
2.9442711 -1.1704603 0.53706336
3.0764551 -1.1696922 0.537242
2.2380056 -1.1658998 0.53855807
2.3183627 -1.1740984 0.53621709
2.3759747 -1.1368222 0.53616995
2.4064844 -1.1735861 0.53633618
2.4678214 -1.1351167 0.53629023
2.5002542 -1.1730412 0.53646296
2.5656855 -1.1332995 0.53641826
2.6002331 -1.17246 0.53659815
2.6701787 -1.1313587 0.53655499
2.7070589 -1.1718391 0.53674257
2.7819984 -1.1292824 0.53670132
2.901942 -1.1270547 0.53685838
3.03093 -1.1246597 0.53702718
2.2466443 -1.1138605 0.54602391
2.2896075 -1.1384262 0.53605688
2.3460622 -1.1007776 0.53600693
2.4360428 -1.0979574 0.53612077
2.5318575 -1.0949544 0.53624207
2.6340923 -1.0917498 0.53637147
2.7434158 -1.0883237 0.53650975
2.8605905 -1.0846511 0.53665805
2.2455924 -1.0667869 0.54997182
2.3167286 -1.0654311 0.53584707
2.4048991 -1.0615405 0.53595483
2.4987271 -1.0573999 0.53606951
2.5987751 -1.052985 0.53619176
2.705683 -1.048267 0.53632247
2.8201826 -1.0432146 0.53646243
2.2493441 -1.017812 0.56088227
2.2879584 -1.0307628 0.53569031
2.3743711 -1.0258435 0.53579211
2.4662719 -1.0206116 0.53590041
2.5642016 -1.0150365 0.53601593
2.6687727 -1.0090834 0.53613919
2.2531104 -0.96864778 0.57183486
2.632658 -0.97074431 0.5359599
2.2568936 -0.91926581 0.58283603
2.2606912 -0.86969215 0.59387982
2.2647827 -0.81625092 0.60114181
2.2684722 -0.76804769 0.60567564
2.2715487 -0.72789264 0.61460322
2.2754092 -0.67750257 0.62580615
2.2792845 -0.62691426 0.63705319
2.2830174 -0.57816893 0.64515513
2.2872257 -0.52317095 0.64916253
2.2908661 -0.47563866 0.6575104
2.2945929 -0.42702308 0.67269319
2.2982609 -0.37912488 0.6811223
2.3022349 -0.32725656 0.69263047
2.3062246 -0.27518183 0.70418447
2.3094285 -0.23335597 0.7134645
2.3134499 -0.18086471 0.72511089
2.3174875 -0.12816332 0.73680383
2.3208773 -0.08382614 0.7354809
2.3249481 -0.030689189 0.74724656
2.3290355 0.022661772 0.75905937
2.3314958 0.054783024 0.76617163
2.3331399 0.07624656 0.77092409
2.3357623 0.11056444 0.76727843
3.270076 -1.8311256 0.4439677
3.4000735 -1.8141125 0.44363818
3.1938674 -1.7610528 0.44254345
3.0081813 -1.7132733 0.44155762
3.3186581 -1.7419962 0.44217217
3.4522452 -1.7215955 0.44177473
3.1205652 -1.6936518 0.4411737
3.2404504 -1.6727208 0.44076401
3.368614 -1.6503445 0.44032601
3.1367292 -1.4141839 0.52868658
3.1455555 -1.4134269 0.50241458
3.2206223 -1.4190311 0.50207764
3.2892165 -1.4256287 0.52913064
3.2988145 -1.4248704 0.50176197
3.3803568 -1.4309582 0.50139588
3.4602053 -1.4376909 0.515333
2.6906769 -1.3800838 0.51587015
2.7646232 -1.3831083 0.53255153
2.8076632 -1.3888415 0.51579148
2.8694148 -1.3934635 0.51573569
2.9189153 -1.3933194 0.52672648
3.0110524 -1.4007664 0.52308047
3.0692031 -1.4084209 0.51561552
3.1718507 -1.4038304 0.53816539
3.2702944 -1.3614336 0.53815681
3.4287374 -1.3685758 0.53839839
2.3362207 -1.3541017 0.52635521
2.3788643 -1.3578633 0.53687775
2.4284401 -1.3610231 0.52662373
2.475328 -1.3638167 0.52653939
2.5268095 -1.3684063 0.52691025
2.5751374 -1.370453 0.52658176
2.6344578 -1.3545913 0.53220397
2.6729805 -1.3750129 0.53738356
2.7460997 -1.3378036 0.53735787
2.8630669 -1.3430762 0.53753608
2.9887245 -1.3487408 0.53772771
3.1240778 -1.3548423 0.53793395
3.2199843 -1.3116679 0.5379194
3.3742514 -1.3166624 0.53814793
2.2647154 -1.3161038 0.53662407
2.3492935 -1.3199165 0.53675312
2.4391716 -1.3239679 0.53689003
2.5183208 -1.3083482 0.5369457
2.6016879 -1.2916492 0.53700358
2.7084312 -1.2951052 0.53716171
2.8227339 -1.298806 0.53733104
2.9454288 -1.3027785 0.53751278
3.0774751 -1.3070536 0.53770834
3.1709387 -1.263153 0.53768796
3.3211908 -1.266107 0.53790402
3.4841976 -1.269312 0.53813839
2.2292347 -1.2808055 0.56595486
2.319993 -1.2825289 0.53658628
2.4080665 -1.2853804 0.53671676
2.5671659 -1.251282 0.53681952
2.6715813 -1.253335 0.53696978
2.783308 -1.2555315 0.53713036
2.9031422 -1.2578877 0.53730285
3.0098052 -1.2376622 0.53738064
3.1231105 -1.2158425 0.53746223
3.2695014 -1.2168573 0.5376665
2.2329166 -1.2327409 0.5767929
2.2352631 -1.2020348 0.57307142
2.8618302 -1.2140315 0.53709769
2.2374864 -1.1730163 0.57960159
2.2412033 -1.1244929 0.59052116
2.244935 -1.0757829 0.60148281
2.2486835 -1.0268581 0.6124925
2.2523482 -0.97898513 0.6189664
2.2563586 -0.9265849 0.6242913
2.2601533 -0.87705219 0.63541567
2.2639647 -0.827299 0.64658952
2.2670243 -0.78736377 0.65555829
2.2685585 -0.7673406 0.66005522
2.270865 -0.737239 0.6668157
2.2747214 -0.68690103 0.67812103
2.2785933 -0.63636577 0.68947041
2.2827644 -0.58188021 0.69701999
2.2865264 -0.53273076 0.7017951
2.2896626 -0.49179175 0.71097094
2.2935984 -0.44041589 0.72248602
2.29755 -0.3888365 0.73404658
2.2999291 -0.3577843 0.74101025
2.3020093 -0.33052853 0.73387152
2.3056488 -0.28304067 0.74669957
2.30885 -0.24125038 0.75604731
2.3128681 -0.188804 0.76777858
2.3169024 -0.13614766 0.77955681
2.3201427 -0.093853861 0.7890172
2.3242097 -0.040774025 0.80089015
2.3282924 0.012519369 0.81281084
2.3315716 0.055326052 0.82238591
2.335012 0.10032737 0.82121289
2.7069097 0.098872289 0.81796712
3.3493667 -1.9040331 0.44544944
3.484899 -1.8892493 0.44516569
3.3219187 -1.4124993 0.53840059
3.4847062 -1.4219029 0.53865564
2.2287219 -1.2878276 0.60677767
2.2331395 -1.230165 0.61988401
2.2368374 -1.1819028 0.63085377
2.2405505 -1.1334286 0.64187175
2.2442787 -1.0847681 0.65293205
2.2480233 -1.0358932 0.6640411
2.2520127 -0.98377186 0.669442
2.2556908 -0.93572265 0.67604822
2.2594817 -0.8862406 0.68727297
2.2631326 -0.83856702 0.69538432
2.266511 -0.79454279 0.715289
2.2681499 -0.77292371 0.69131356
2.2703187 -0.74470693 0.70853502
2.2741721 -0.69441092 0.71992183
2.2780409 -0.64391786 0.73135304
2.2819264 -0.59319812 0.74283582
2.2858279 -0.54227871 0.75436348
2.2889607 -0.50138283 0.76362205
2.2928927 -0.45006108 0.77524096
2.2968402 -0.39853603 0.78690577
2.2996848 -0.36136234 0.78981239
2.301959 -0.33159924 0.78661227
2.3049307 -0.29285213 0.79977787
2.3081284 -0.25110626 0.80920988
2.3119779 -0.20084491 0.81779021
2.316318 -0.14412357 0.82226413
2.3195553 -0.10186593 0.83179271
2.3236184 -0.048831854 0.84375143
2.327698 0.0044156746 0.85575813
2.3309746 0.047185395 0.86540216
2.3332889 0.077314064 0.88341731
2.3345864 0.094366118 0.87230045
2.3367355 0.12238432 0.88235861
2.2280822 -1.296595 0.6577453
2.2321107 -1.2439864 0.66678607
2.2345805 -1.2118591 0.68782663
2.2366238 -1.185059 0.67803174
2.2398992 -1.1423521 0.69315237
2.2437544 -1.0919479 0.69404233
2.2474957 -1.043113 0.70523053
2.2512517 -0.99408978 0.71646178
2.2550237 -0.94484937 0.72774291
2.2588105 -0.89541841 0.73906761
2.2618523 -0.85571998 0.74816251
2.2656689 -0.80590427 0.75957549
2.2696364 -0.75403041 0.76062113
2.2734864 -0.70378667 0.77210951
2.2773511 -0.65334618 0.78364289
2.2812328 -0.60267949 0.79522783
2.2852695 -0.54990792 0.79636669
2.2883999 -0.50904638 0.8056913
2.2923288 -0.45776764 0.817393
2.2962725 -0.40628621 0.82914108
2.2994406 -0.36493784 0.83857679
2.3018231 -0.33383873 0.84567356
2.3042128 -0.30265135 0.85279059
2.3074079 -0.26094997 0.86230677
2.3117087 -0.20476775 0.87037134
2.3155885 -0.15408106 0.8755821
2.3188221 -0.11186871 0.88519585
2.3228815 -0.058891535 0.89726132
2.3271048 -0.0036794005 0.89865953
2.3303783 0.039053347 0.9083724
2.3328409 0.071195275 0.91567814
2.334486 0.092672639 0.92055982
2.5332341 0.1134389 0.9003374
2.3361342 0.11418721 0.92544991
2.2274425 -1.3053517 0.70865297
2.2311149 -1.2574228 0.7197634
2.2344818 -1.2134986 0.732072
2.2364109 -1.1882133 0.72517443
2.2385054 -1.1609616 0.74212414
2.2425077 -1.108652 0.74624336
2.2468376 -1.0521265 0.75665563
2.2505891 -1.0031534 0.76798612
2.2539642 -0.95907605 0.77511239
2.2574282 -0.91385788 0.78505439
2.2613139 -0.8630861 0.78961259
2.2651272 -0.81331152 0.80110586
2.2681882 -0.77335882 0.81033123
2.2697227 -0.75332677 0.81495684
2.2728012 -0.7131511 0.82423371
2.2766619 -0.66276324 0.8358689
2.2805398 -0.61214936 0.84755599
2.2845721 -0.55943263 0.84880662
2.2876997 -0.51861393 0.85821354
2.2916238 -0.46738923 0.87001866
2.2955644 -0.41596201 0.88187033
2.299319 -0.36689022 0.88437784
2.3013945 -0.33969221 0.87740988
2.3036392 -0.3104811 0.89514828
2.3068314 -0.26881513 0.90473169
2.3108375 -0.21652509 0.91675866
2.3148596 -0.16402619 0.92883378
2.3180902 -0.12185901 0.93853235
2.322145 -0.06893868 0.95070446
2.3263638 -0.013785604 0.95221919
2.3296344 0.028901098 0.96201795
2.3326914 0.06877353 0.97565609
2.3340368 0.08654435 0.95282328
2.3428335 0.11421009 0.98367256
2.2268047 -1.3140966 0.75949174
2.230473 -1.266216 0.77069879
2.2340207 -1.2198678 0.77548015
2.2379856 -1.1680753 0.78303522
2.2417011 -1.1195798 0.79436439
2.2454309 -1.0708978 0.80573726
2.2491777 -1.0220016 0.81716019
2.252938 -0.97291654 0.82862717
2.257005 -0.91977233 0.83297521
2.2606416 -0.87228262 0.84136242
2.2644513 -0.82255912 0.85295606
2.2680676 -0.77538776 0.86828393
2.2693143 -0.75891471 0.84615034
2.2719755 -0.72430331 0.8696695
2.2761114 -0.67028755 0.87759876
2.2799861 -0.61971599 0.88936758
2.2838762 -0.56894583 0.90118235
2.2870002 -0.52816993 0.91067165
2.2909205 -0.47699898 0.92257965
2.294857 -0.42562595 0.93453485
2.2987905 -0.37417734 0.93275416
2.3010476 -0.34491253 0.96433014
2.3031399 -0.31739807 0.94428688
2.3061123 -0.27863446 0.95769745
2.3099678 -0.22826092 0.96307158
2.3142776 -0.17197235 0.9713822
2.3175056 -0.12984127 0.98114848
2.3215566 -0.076966375 0.99340564
2.3256238 -0.023879083 1.0057118
2.3288913 0.018761534 1.0155963
2.3321688 0.061549544 1.0255148
2.3344846 0.091690354 1.0437133
2.3357825 0.10875066 1.0327194
2.2261672 -1.3228313 0.81027031
2.2298319 -1.2749989 0.82157403
2.2337933 -1.223226 0.82584947
2.2365966 -1.1866254 0.83183277
2.2380779 -1.1672894 0.83639371
2.2410486 -1.128511 0.84554034
2.2447748 -1.0798786 0.8570112
2.2483788 -1.0327957 0.86200374
2.2524071 -0.98018229 0.86981106
2.2561815 -0.93092054 0.88140821
2.2599702 -0.88146788 0.89305019
2.2637756 -0.83179575 0.90474385
2.2675965 -0.78193033 0.9164831
2.2697599 -0.75377393 0.93393266
2.2720096 -0.72424036 0.91922849
2.2754238 -0.6796816 0.92969775
2.279295 -0.62916291 0.94156837
2.2830811 -0.57971847 0.94882447
2.2864416 -0.53580523 0.95258659
2.2903588 -0.48467731 0.96457696
2.2942917 -0.43334749 0.97661459
2.2974503 -0.39212134 0.986283
2.3006194 -0.3507551 0.99598408
2.3030033 -0.31964254 1.0032805
2.3053939 -0.28844175 1.0105976
2.3097007 -0.23216891 1.0154961
2.3135505 -0.18189286 1.0245018
2.3167758 -0.13980684 1.0343528
2.3203793 -0.092708021 1.0379575
2.3245151 -0.038717791 1.0490972
2.3282969 0.010660062 1.0584054
2.3315723 0.053411085 1.0683926
2.3340354 0.085566707 1.0759047
2.3365061 0.11781506 1.0834383
2.2255299 -1.3315542 0.86098039
2.2293191 -1.2820169 0.86222583
2.2329972 -1.2340145 0.87365633
2.2363994 -1.1896397 0.88776404
2.2375588 -1.1743953 0.87723005
2.2403972 -1.1374315 0.89665514
2.2441199 -1.0888486 0.90822369
2.2481444 -1.0362542 0.91272825
2.251744 -0.98925382 0.9212293
2.2555146 -0.94004238 0.93292528
2.2592995 -0.89064074 0.94466674
2.2632363 -0.83917612 0.94612408
2.2670538 -0.789352 0.95794356
2.2693517 -0.75935775 0.96505874
2.2716563 -0.72927994 0.97219378
2.2747374 -0.68906426 0.98173386
2.2786045 -0.63859808 0.99370551
2.2827256 -0.58476323 0.99993706
2.2857435 -0.54533786 1.0049164
2.2896571 -0.49426359 1.0170095
2.2935858 -0.44298768 1.02915
2.2968826 -0.39986962 1.0283847
2.3008437 -0.34817627 1.0406008
2.3048198 -0.29627779 1.0528656
2.3088145 -0.24414335 1.065186
2.312825 -0.19180098 1.0775555
2.316046 -0.14975987 1.0874906
2.3195276 -0.10426099 1.0915723
2.3234818 -0.052621335 1.0993094
2.3275554 0.00054582924 1.11185
2.3307233 0.041924972 1.1171372
2.3342597 0.08814317 1.1213148
2.3367298 0.12038213 1.1289043
2.2248943 -1.3402667 0.91163039
2.2286797 -1.2907791 0.91298062
2.2323542 -1.2428252 0.9245075
2.2360423 -1.1946878 0.93607855
2.2380033 -1.1692637 0.96343279
2.2398207 -1.1453238 0.94187003
2.2435961 -1.0960158 0.94914484
2.2473321 -1.0472591 0.96084291
2.2510819 -0.99831432 0.97258586
2.2548492 -0.94915336 0.98438072
2.25863 -0.89980233 0.99622113
2.262563 -0.84839064 0.99778694
2.2663763 -0.79861784 1.0097061
2.2694387 -0.75864452 1.0192786
2.2717423 -0.72858125 1.0264781
2.2741888 -0.69656134 1.0233122
2.2777705 -0.64980233 1.0323147
2.2814379 -0.60197437 1.0480946
2.2850473 -0.5548588 1.0571826
2.2889564 -0.50383806 1.0693777
2.292881 -0.4526161 1.0816209
2.2961745 -0.40954313 1.0809473
2.3001308 -0.35790437 1.0932668
2.303164 -0.3184064 1.1137003
2.3045728 -0.29988807 1.1016029
2.3082376 -0.25201541 1.1074928
2.3122447 -0.19971763 1.1199459
2.3154633 -0.1577125 1.1299484
2.3186927 -0.11556333 1.1399851
2.3227456 -0.062665723 1.1525811
2.3268149 -0.0095557664 1.1652277
2.3303368 0.036458425 1.1694787
2.3340917 0.085487157 1.1794662
2.3362796 0.11424156 1.1610894
2.3374782 0.12962082 1.1983688
2.2243862 -1.3472288 0.9521026
2.2280405 -1.2995307 0.9636755
2.2317114 -1.2516252 0.97529864
2.2353959 -1.2035364 0.98696613
2.2376142 -1.1745888 0.99398959
2.2400644 -1.1425548 0.99538159
2.2429426 -1.1049646 1.0002354
2.2466745 -1.0562569 1.0120311
2.250421 -1.0073624 1.0238721
2.2540445 -0.96002251 1.0292139
2.2580945 -0.90712273 1.0374153
2.2618897 -0.85759372 1.0493876
2.2656994 -0.80787218 1.0614064
2.2691915 -0.76230693 1.0745831
2.2711964 -0.73604411 1.0679575
2.2735043 -0.70592141 1.0752218
2.2765903 -0.66564626 1.084939
2.2804632 -0.61510539 1.0971333
2.284251 -0.56563956 1.1047106
2.2883961 -0.5114882 1.1112208
2.2923169 -0.46030936 1.1235462
2.2954667 -0.41920471 1.1334454
2.2994196 -0.36762053 1.1458681
2.302592 -0.32621297 1.15584
2.304183 -0.30545065 1.1608402
2.3067186 -0.27227405 1.1578034
2.3107193 -0.2200616 1.1703539
2.3147357 -0.16764089 1.1829545
2.3181074 -0.12354353 1.1824648
2.3221574 -0.07069131 1.1951454
2.3262231 -0.01762699 1.2078768
2.3294888 0.024995131 1.2181031
3.1987789 0.068887539 1.1889235
2.3335872 0.078487538 1.230937
2.3368771 0.12142947 1.2412395
2.2240052 -1.3524457 0.98243135
2.2276578 -1.3047765 0.99406147
2.2313263 -1.2568997 1.0057422
2.2350085 -1.2088403 1.0174675
2.2379658 -1.1702458 1.0268837
2.24019 -1.1412205 1.033965
2.24242 -1.1121159 1.0410661
2.2461488 -1.0634484 1.0529397
2.2498922 -1.0145934 1.0648592
2.2540596 -0.96013552 1.069577
2.25756 -0.9144358 1.0785667
2.2613518 -0.86494744 1.0906184
2.2651584 -0.81526691 1.1027166
2.2689822 -0.76536584 1.114869
2.2728202 -0.71526992 1.1270685
2.2759032 -0.67503679 1.1368665
2.279772 -0.62454861 1.1491615
2.283895 -0.5706901 1.1557442
2.2876968 -0.52103937 1.1634614
2.2916143 -0.46991414 1.1758887
2.2946596 -0.4301371 1.1811771
2.298851 -0.37538382 1.1878972
2.3028157 -0.32363889 1.2004519
2.3060005 -0.2820788 1.2105356
2.3099966 -0.22992188 1.2231903
2.314009 -0.17755702 1.235895
2.3173776 -0.13350639 1.2354987
2.3214228 -0.080710784 1.2482845
2.3253806 -0.029022062 1.2563486
2.3288949 0.016895881 1.2607741
2.3329899 0.070342079 1.2736933
2.9711792 0.087294884 1.2602969
2.336277 0.11324684 1.2840644
2.3377755 0.13271175 1.2999741
2.2952659 -0.42243087 1.2093325
2.2984247 -0.38120118 1.2193916
2.302387 -0.32948917 1.232008
2.3055699 -0.28795546 1.2421412
2.3095636 -0.23583174 1.2548583
2.3135734 -0.18350039 1.2676258
2.3167939 -0.1414682 1.2778807
2.3208356 -0.088717774 1.2907506
2.3252637 -0.030873902 1.2974433
2.3283021 0.0088052526 1.3033998
2.3323936 0.062205322 1.3164041
2.7695577 0.10360116 1.3235239
2.3361766 0.11155582 1.332154
2.3374746 0.12861557 1.3213806
2.5897086 0.11814664 1.3799236
3.3978832 -2.838315 -1.2661859
3.1968782 -2.7117548 -1.2140191
3.3176162 -2.7450855 -1.2247086
3.3644192 -2.6879404 -1.1949673
3.2410424 -2.656146 -1.1851398
2.1632695 -1.8527421 -1.1052279
2.1687717 -1.7920551 -1.0932438
2.1660223 -1.8223774 -1.0992317
2.1715167 -1.7617854 -1.0872666
2.1760817 -1.7114398 -1.0773246
2.1806359 -1.6612152 -1.0674065
2.1851771 -1.6111288 -1.0575159
2.189708 -1.5611627 -1.047649
2.1933239 -1.5212859 -1.0397744
2.1978323 -1.4715592 -1.0299547
2.2023306 -1.4219514 -1.0201586
2.2068164 -1.3724796 -1.0103892
2.2112916 -1.3231255 -1.000643
2.2157543 -1.2739062 -0.99092358
2.2202067 -1.224804 -0.9812271
2.2228727 -1.1954029 -0.97542137
3.1253934 -2.6263435 -1.1759279
2.9527295 -2.5196831 -1.1321106
3.057025 -2.5446558 -1.1394972
3.1679125 -2.5712068 -1.147351
3.2860382 -2.5994904 -1.1557169
3.4121335 -2.6296825 -1.1646472
3.2112143 -2.5150557 -1.1182479
3.3318882 -2.5417578 -1.1257344
3.4607856 -2.5702808 -1.1337316
3.0979996 -2.4900036 -1.1112241
2.1626503 -1.8596923 -1.0664392
2.1663218 -1.8192016 -1.0584849
2.1709013 -1.7686925 -1.0485625
2.1754689 -1.718323 -1.0386679
2.1800249 -1.6680748 -1.0287968
2.1845684 -1.6179647 -1.018953
2.1891012 -1.5679752 -1.0091329
2.192719 -1.5280799 -1.0012954
2.1970584 -1.4802028 -0.99757093
2.20188 -1.4270117 -0.99137193
2.2063677 -1.3775221 -0.98163736
2.2108443 -1.3281507 -0.97192597
2.2153089 -1.2789141 -0.96224099
2.2197628 -1.2297949 -0.95257902
2.2245364 -1.1771196 -0.94961387
2.2287824 -1.1302874 -0.94285715
2.2332008 -1.0815561 -0.93325925
2.2378438 -1.0303415 -0.92710418
2.2364368 -1.0459349 -0.90658265
2.2420056 -0.98445618 -0.91413462
2.2463915 -0.93608654 -0.90460765
2.2507656 -0.88784742 -0.89510655
2.2559998 -0.83011651 -0.88373595
2.2604942 -0.78052461 -0.88373184
2.264832 -0.73267919 -0.87429595
2.2691607 -0.68494642 -0.86488223
2.2734768 -0.63734132 -0.85549361
2.2777834 -0.5898478 -0.84612745
2.2820783 -0.54248136 -0.83678585
2.2872186 -0.48579329 -0.82560617
2.2914908 -0.43867919 -0.81631452
2.2957516 -0.39169055 -0.80704784
2.3000021 -0.34481126 -0.79780233
2.3059351 -0.27937943 -0.78489816
2.3033948 -0.30739504 -0.79042327
2.3093157 -0.2420996 -0.77754605
2.3135328 -0.1955924 -0.76837403
2.3173866 -0.1530724 -0.76478702
2.3229089 -0.09216015 -0.75756103
2.3270915 -0.046025712 -0.74845088
2.3312638 -1.2858332e-05 -0.73936462
2.3354266 0.045894016 -0.73029923
2.8913443 -2.4442751 -1.0984029
2.9915738 -2.4664538 -1.1046211
2.7414019 -2.3534312 -1.0612144
2.8324554 -2.3719311 -1.0660653
2.9288571 -2.3915188 -1.0712019
3.0310957 -2.4122953 -1.0766521
3.1397109 -2.4343679 -1.0824418
3.2553196 -2.4578614 -1.0886043
3.3786194 -2.4829183 -1.0951772
2.868717 -2.3196573 -1.0391549
2.9670131 -2.337863 -1.0435376
3.0713129 -2.3571839 -1.0481905
3.1821799 -2.3777218 -1.0531371
3.3002522 -2.3995955 -1.0584054
3.426255 -2.4229376 -1.0640272
3.3460348 -2.3402269 -1.0276347
3.474823 -2.3617845 -1.0322684
2.1617215 -1.8701251 -1.0082157
2.1652045 -1.831702 -1.0032347
2.1704886 -1.7733907 -1.0027269
2.1690629 -1.789155 -0.99243623
2.1747024 -1.7269323 -0.9903183
2.1792607 -1.6766545 -0.98050612
2.1838076 -1.6265149 -0.97072089
2.1883433 -1.5764959 -0.9609592
2.1924741 -1.5309385 -0.95007765
2.1971421 -1.4794211 -0.95195913
2.2011287 -1.4354495 -0.94336605
2.2056189 -1.385931 -0.9336893
2.2100985 -1.336531 -0.92403579
2.2145655 -1.2872658 -0.91440839
2.2190223 -1.2381178 -0.90480423
2.2234662 -1.1891034 -0.895226
2.2278998 -1.1402057 -0.88567054
2.2321527 -1.0932831 -0.88212621
2.2377598 -1.0314329 -0.87424594
2.2359977 -1.050864 -0.878048
2.2412775 -0.99263632 -0.86665446
2.245666 -0.94423878 -0.85718441
2.2500427 -0.89597178 -0.84773988
2.2552798 -0.8382076 -0.83643687
2.2597771 -0.78858739 -0.83649343
2.2641175 -0.74071473 -0.82711357
2.2960069 -0.73576486 -0.79896635
2.3398352 -0.75020444 -0.79867941
2.3912156 -0.7563917 -0.79854935
2.4446559 -0.76285994 -0.79841334
2.5003254 -0.76956367 -0.79827261
2.5517004 -0.78584385 -0.79794848
2.6119404 -0.79335177 -0.79779112
2.6677122 -0.81079334 -0.79744411
2.6819961 -0.79151505 -0.79781127
2.7331679 -0.81914675 -0.79726917
2.8015983 -0.82792187 -0.79708582
2.8652451 -0.84729564 -0.79669994
2.8813024 -0.82684201 -0.79708922
2.9483633 -0.84669781 -0.79669315
3.01844 -0.86744678 -0.79627925
3.0359368 -0.84606802 -0.79668623
3.1008501 -0.87826091 -0.79605353
3.1874821 -0.88968223 -0.79581529
3.2687612 -0.91307408 -0.79534823
3.288753 -0.89024496 -0.79578239
3.3540757 -0.93762749 -0.79485804
3.374964 -0.91434336 -0.79530066
3.4655845 -0.93967438 -0.79479426
3.5609639 -0.96633559 -0.79426134
3.5840771 -0.94184977 -0.79472679
3.6736093 -0.98193061 -0.79393727
2.2695327 -0.69320935 -0.81823134
2.3185439 -0.70155209 -0.79961878
2.3630698 -0.71547526 -0.79934156
2.4152391 -0.72105068 -0.79922318
2.4695697 -0.72680181 -0.79910094
2.5261238 -0.7328459 -0.79897249
2.5783715 -0.74853194 -0.79865974
2.6257365 -0.7743898 -0.79815257
2.6466355 -0.74566519 -0.79869986
2.7036383 -0.76230556 -0.79836768
2.7629979 -0.779634 -0.79802191
2.8248627 -0.79769385 -0.79766148
2.8483734 -0.76714647 -0.79824334
2.9056494 -0.79583019 -0.79767984
2.9736655 -0.81512272 -0.79729438
3.0624807 -0.81363648 -0.79730362
3.1376028 -0.83432388 -0.79688984
3.2163024 -0.85599655 -0.79645616
3.3191085 -0.85558271 -0.79644179
3.4066892 -0.87897968 -0.79597324
3.4987831 -0.9035821 -0.79548055
3.6074188 -0.91712123 -0.79519665
3.6309936 -0.89214671 -0.79567158
3.7102282 -0.94416565 -0.79465485
2.2777109 -0.64844179 -0.81347406
2.3250859 -0.6518873 -0.80057168
2.3697066 -0.66491657 -0.80031157
2.4220088 -0.66944224 -0.80021316
2.4580672 -0.65804464 -0.80042446
2.5011494 -0.68109608 -0.79997224
2.5522912 -0.69560224 -0.79968238
2.6122794 -0.7010954 -0.79956377
2.6748488 -0.70688838 -0.79943901
2.7328615 -0.72286439 -0.79911917
2.7856596 -0.74961597 -0.79859394
2.8086164 -0.71920669 -0.79917312
2.8721972 -0.73619223 -0.79883295
2.9302599 -0.7644822 -0.79827666
2.946846 -0.74335587 -0.79867917
3.0078709 -0.77243698 -0.79810703
3.0983775 -0.76977682 -0.79813868
3.1749997 -0.7896167 -0.79774076
3.2553048 -0.81040984 -0.79732364
3.3602052 -0.80865455 -0.79733455
3.4496577 -0.83108306 -0.79688424
3.5437648 -0.85467863 -0.79641038
3.6548045 -0.86692226 -0.79615128
2.2800591 -0.59676558 -0.80976135
2.325752 -0.61075157 -0.80136192
2.3702798 -0.62301397 -0.80111665
2.4224474 -0.62672269 -0.80103409
2.4767561 -0.63055062 -0.8009488
2.5268302 -0.64392793 -0.80068076
2.5788364 -0.65782136 -0.80040252
2.6398048 -0.66258776 -0.80029762
2.6962731 -0.6774419 -0.79999995
2.7550592 -0.69290572 -0.79969013
2.8318141 -0.68847901 -0.79975849
2.8962755 -0.7049067 -0.79942882
2.9635687 -0.72205609 -0.79908472
3.0338829 -0.73997545 -0.79872495
3.1256859 -0.73640996 -0.79877365
3.20346 -0.75559384 -0.7983883
3.2849963 -0.7757054 -0.79798394
3.3050301 -0.75228918 -0.79842961
3.3915048 -0.77291298 -0.7980144
3.4823964 -0.79459012 -0.79757833
3.5045009 -0.76995051 -0.79804695
3.5780511 -0.81740326 -0.79711926
3.601208 -0.79222697 -0.79759789
3.6788542 -0.84144419 -0.79663539
3.7031467 -0.81570846 -0.79712462
2.2813733 -0.5504083 -0.78982681
3.7276869 -0.78971148 -0.79761875
2.2865167 -0.49368799 -0.77871388
2.290791 -0.44654712 -0.76947749
2.2948904 -0.40131992 -0.76613897
2.2994463 -0.3510626 -0.76042438
2.3053818 -0.2856012 -0.74758166
2.3028407 -0.31362948 -0.75308043
2.3087637 -0.24830455 -0.74026448
2.3129826 -0.20177637 -0.7311362
2.3175035 -0.15189849 -0.72855043
2.3223627 -0.098297715 -0.72042263
2.3265479 -0.052142672 -0.71135575
2.3307223 -0.0061093494 -0.70231247
2.3352044 0.043313693 -0.6898762
2.7759156 -2.3024697 -1.0350171
2.6881607 -2.2862167 -1.0311042
2.5566978 -2.2081244 -0.99925214
2.6369405 -2.2215526 -1.0021367
2.7215803 -2.2357166 -1.0051794
2.8109908 -2.2506793 -1.0083938
2.9055851 -2.2665093 -1.0117942
3.0058291 -2.2832847 -1.0153978
3.1122444 -2.3010933 -1.0192236
3.2254276 -2.320039 -1.0232959
2.5101001 -2.1477013 -0.97212756
2.5876281 -2.1592975 -0.97424835
2.6693237 -2.1715174 -0.97648323
2.755533 -2.1844122 -0.97884136
2.8466406 -2.1980398 -0.98133373
2.9430757 -2.2124643 -0.98397201
3.0453196 -2.2277577 -0.98676878
3.153914 -2.2440012 -0.98973942
3.2694745 -2.2612886 -0.9929024
3.3926921 -2.2797239 -0.9962765
2.9812036 -2.1575 -0.95567614
3.0855026 -2.1712575 -0.95763779
3.1963384 -2.1858773 -0.95972276
3.3143442 -2.2014427 -0.9619422
3.4402497 -2.2180545 -0.96431327
2.1609468 -1.8788259 -0.95965749
2.1649513 -1.8346463 -0.95540416
2.1704326 -1.7741489 -0.95944035
2.168828 -1.7918919 -0.94784129
2.1739352 -1.7355485 -0.94193083
2.1784966 -1.6852409 -0.93217731
2.1830459 -1.6350716 -0.92245078
2.1875837 -1.5850233 -0.91274774
2.1921089 -1.5351121 -0.90307122
2.196624 -1.4853208 -0.89341807
2.2002273 -1.4455831 -0.88571405
2.2045493 -1.3978971 -0.88214064
2.209352 -1.3449171 -0.87611306
2.2138216 -1.2956228 -0.86654335
2.2182806 -1.2464463 -0.85699666
2.2227271 -1.1974036 -0.84747607
2.2271638 -1.1484772 -0.83797795
2.2319188 -1.0960109 -0.83517748
2.2361476 -1.0493629 -0.82857329
2.9701445 -1.1437118 -0.79098147
3.136471 -1.1801883 -0.79024458
3.2361352 -1.189129 -0.79005116
3.4318027 -1.231316 -0.78920102
3.5496514 -1.2426634 -0.78895915
2.2405493 -1.0008227 -0.81913757
2.2796812 -1.0016305 -0.79386157
2.3294561 -1.0127563 -0.79363692
2.3752353 -1.032714 -0.79324347
2.4111185 -1.0261595 -0.7933616
2.4476783 -1.019119 -0.79348898
2.4978061 -1.0401065 -0.79307491
2.5566401 -1.0529768 -0.79281491
2.6250417 -1.0573232 -0.79271644
2.6821232 -1.0805469 -0.79225779
2.6967392 -1.0619292 -0.79261237
2.7568195 -1.0857298 -0.79214203
2.8273189 -1.100965 -0.79183382
2.909517 -1.1069931 -0.79170018
2.9961255 -1.1133448 -0.79155946
3.069293 -1.140847 -0.79101527
3.1649132 -1.1484842 -0.79084766
3.2660878 -1.156565 -0.79067028
3.3522208 -1.1874795 -0.79005855
3.4648676 -1.197215 -0.78984869
3.5729034 -1.2193431 -0.78940183
3.5963874 -1.1957902 -0.78984886
2.2455821 -0.94529194 -0.81619388
2.2591822 -0.95063061 -0.794846
2.3080034 -0.96063972 -0.79464287
2.3587954 -0.97099936 -0.79443282
2.4177635 -0.9732182 -0.79437739
2.4729857 -0.98433572 -0.79415184
2.5305815 -0.99587071 -0.7939176
2.5837615 -1.0170511 -0.79349911
2.5974896 -0.99886703 -0.79384565
2.6604891 -1.0112665 -0.79359359
2.7263494 -1.0242139 -0.79333061
2.7874503 -1.0475053 -0.79286981
2.8029673 -1.0281405 -0.79323846
2.8673844 -1.0520118 -0.7927658
2.9345648 -1.0770494 -0.79227024
2.9514487 -1.0568658 -0.7926544
3.0312586 -1.0722799 -0.79234076
3.1151645 -1.088466 -0.7920115
3.2034035 -1.1055803 -0.79166371
3.3066394 -1.1124781 -0.7915085
3.3946116 -1.1425682 -0.79091173
3.5096707 -1.1510072 -0.79072618
3.6201072 -1.1720004 -0.79030055
3.6440663 -1.1479709 -0.79075682
2.2498424 -0.89829069 -0.81096679
2.2926652 -0.90137237 -0.79578501
2.3368328 -0.91891515 -0.79543835
2.3946452 -0.9199748 -0.79540569
2.4487472 -0.92987245 -0.79520357
2.4986539 -0.94905663 -0.79482418
2.5181346 -0.92228144 -0.79533434
2.563915 -0.95088267 -0.79477495
2.6252873 -0.96204633 -0.79454696
2.6893506 -0.97376603 -0.79430783
2.7639394 -0.97633344 -0.79424232
2.8264914 -0.99878466 -0.79379737
2.9082136 -1.002125 -0.7937156
2.9770563 -1.0262524 -0.79323691
3.0029509 -0.99529564 -0.79382598
3.0669959 -1.0305099 -0.79313564
3.1619809 -1.0350063 -0.79302847
3.2327039 -1.0729188 -0.79228473
3.2524745 -1.0508814 -0.79270375
3.3375237 -1.0789016 -0.79214698
3.3583689 -1.0562385 -0.7925778
3.4269099 -1.1083506 -0.79156166
3.4487174 -1.085248 -0.79200077
3.5553565 -1.1038891 -0.79162091
3.6682684 -1.1236975 -0.79121768
2.2563808 -0.8493166 -0.80513865
2.2775826 -0.84325373 -0.7969051
2.3341105 -0.86809337 -0.79641551
2.3779747 -0.85936832 -0.79657364
2.4250705 -0.87667125 -0.79623079
2.4803147 -0.88571066 -0.79604524
2.5378497 -0.89518481 -0.79585063
2.5979028 -0.90501112 -0.79564899
2.6534321 -0.92476523 -0.79525727
2.6676812 -0.90589082 -0.79561681
2.7260754 -0.92604882 -0.79521686
2.7945631 -0.93732631 -0.79498518
2.8502667 -0.9691152 -0.79436225
2.874362 -0.9390462 -0.79493493
2.9415057 -0.96144778 -0.79448974
3.0292118 -0.9639017 -0.79442358
3.0941844 -0.99873137 -0.79374021
3.1125193 -0.97730035 -0.79414791
3.1905694 -1.0023608 -0.79364961
3.2098563 -0.98033834 -0.7940684
3.2824905 -1.0174222 -0.79334015
3.3900297 -1.0218176 -0.79323256
3.4818494 -1.0501479 -0.79266822
3.5901866 -1.0679669 -0.79230314
3.6137152 -1.0437002 -0.79276377
3.6927176 -1.0991766 -0.7916832
2.2605584 -0.7954157 -0.79927742
2.3056192 -0.80134648 -0.79770404
2.3499668 -0.81707525 -0.79739231
2.4079955 -0.81591952 -0.79740185
2.4560623 -0.83256191 -0.79707175
2.5124059 -0.84081572 -0.79690087
2.5577548 -0.86782628 -0.79637206
2.5779018 -0.84013575 -0.79689968
2.6324792 -0.85834503 -0.79653794
2.6965406 -0.86766338 -0.79634494
2.7559106 -0.88728422 -0.79595512
2.7710214 -0.86765069 -0.79632908
2.8335536 -0.88766241 -0.79593104
2.9069247 -0.89841044 -0.79570854
2.9753513 -0.92009395 -0.79527712
3.0557709 -0.93215132 -0.79502785
3.073679 -0.91074288 -0.79543537
3.1403439 -0.9447788 -0.79476672
3.2391317 -0.9469077 -0.79470462
3.3231275 -0.97212505 -0.79420173
3.4329114 -0.9751966 -0.79411882
3.5267434 -1.002588 -0.79357237
3.6374803 -1.0191905 -0.7932294
2.2737863 -0.76949614 -0.79832304
2.3066032 -0.76003122 -0.79849786
2.3734012 -0.78259933 -0.79804963
2.4323423 -0.78068179 -0.79807389
2.4812036 -0.79677939 -0.79775381
2.5319362 -0.81349379 -0.79742157
2.5982451 -0.81217498 -0.79743242
2.6535351 -0.82992762 -0.79707932
2.7862501 -0.84786391 -0.79670596
2.9316792 -0.86751831 -0.79629666
3.0010893 -0.88864666 -0.79587579
3.1684942 -0.91187584 -0.79539287
2.280668 -0.55834049 -0.74283648
2.285814 -0.50158793 -0.73178995
2.290091 -0.45442042 -0.72260898
2.2946742 -0.40385234 -0.72001678
2.2987511 -0.35888189 -0.71367073
2.302995 -0.31207955 -0.7045489
2.3080735 -0.25606582 -0.69363165
2.312295 -0.20951149 -0.68455809
2.3165052 -0.16308038 -0.67550862
2.3215442 -0.10751034 -0.66467798
2.3257318 -0.061324228 -0.65567619
2.3299081 -0.015259868 -0.64669806
2.3347335 0.037957694 -0.63871396
2.3938718 -2.0800283 -0.94462913
2.4651632 -2.089432 -0.94597
2.5401187 -2.0993187 -0.94737977
2.6190286 -2.1097279 -0.94886416
2.7022135 -2.1206999 -0.95042866
2.7900312 -2.1322834 -0.95208037
2.8828797 -2.1445305 -0.95382673
2.3527687 -2.0253115 -0.920017
2.4218001 -2.0332036 -0.92072856
2.4943156 -2.0414944 -0.92147619
2.5705857 -2.0502138 -0.92226237
2.6509106 -2.059397 -0.92309028
2.7356215 -2.069082 -0.92396355
2.8250883 -2.0793104 -0.92488581
2.9197233 -2.0901294 -0.92586148
2.3799298 -1.9789112 -0.89635617
2.4501281 -1.9857092 -0.89648622
2.5238957 -1.992853 -0.8966229
2.6015117 -2.0003698 -0.89676678
2.6832852 -2.0082889 -0.89691824
3.0199864 -2.1015921 -0.92689478
3.1263964 -2.1137576 -0.92799163
3.2395368 -2.1266928 -0.92915809
3.3600647 -2.1404724 -0.93040055
3.4887333 -2.1551838 -0.93172783
2.160171 -1.8875334 -0.91106075
2.7695599 -2.0166438 -0.89707816
2.8607175 -2.0254719 -0.89724696
2.957185 -2.0348139 -0.89742583
3.0594404 -2.0447168 -0.89761537
3.16802 -2.0552318 -0.89781654
3.2835295 -2.0664179 -0.89803052
3.4066551 -2.078342 -0.89825881
2.1638496 -1.8469657 -0.90325832
2.1684382 -1.7963611 -0.89352554
2.1731675 -1.7441705 -0.89350957
2.1777318 -1.6938334 -0.88381517
2.1822834 -1.6436343 -0.87414753
2.1868241 -1.5935563 -0.8645032
2.1913519 -1.5436159 -0.85488522
2.1958699 -1.4937953 -0.84529024
2.1994748 -1.4540344 -0.83763283
2.2043076 -1.4007128 -0.83480996
2.2086051 -1.3533095 -0.82815278
2.2130771 -1.3039867 -0.81864101
2.2517109 -1.2884634 -0.7883563
2.3071115 -1.2974772 -0.78817117
2.3649518 -1.3068879 -0.78797781
2.4253976 -1.3167225 -0.78777564
2.4886286 -1.3270102 -0.78756422
2.554842 -1.3377833 -0.78734297
2.624254 -1.3490765 -0.78711081
2.6971018 -1.3609289 -0.78686726
2.7736475 -1.3733828 -0.78661132
2.8541789 -1.3864856 -0.78634214
2.9390206 -1.4002901 -0.78605968
3.0195744 -1.4245836 -0.785577
3.1136725 -1.4402092 -0.78525782
3.2132297 -1.4567409 -0.78492016
3.3187332 -1.4742604 -0.78456235
3.4196863 -1.5036215 -0.78397816
3.4417822 -1.4820957 -0.78438681
3.5498509 -1.5126384 -0.78377861
2.2198379 -1.2519585 -0.80647409
2.2743373 -1.2573653 -0.78894901
2.3306081 -1.265765 -0.78877544
2.3832262 -1.2826813 -0.78843886
2.4380417 -1.3002932 -0.78808844
2.4507768 -1.2837473 -0.78840381
2.5084271 -1.3017917 -0.78804445
2.5754817 -1.3120267 -0.78783339
2.6385772 -1.3315761 -0.78744394
2.6530099 -1.3139417 -0.78777963
2.7196064 -1.3340254 -0.78737932
2.7892995 -1.3550881 -0.78695935
2.8050778 -1.3366461 -0.78731042
2.8788359 -1.3583294 -0.78687775
2.96488 -1.3714633 -0.78660756
3.0556834 -1.3853241 -0.78632289
3.1516511 -1.3999733 -0.78602207
3.253237 -1.4154799 -0.78570384
3.3609488 -1.4319214 -0.78536618
3.4753582 -1.4493853 -0.78500766
3.59711 -1.4679698 -0.78462601
2.2286084 -1.2057053 -0.80440044
2.2902732 -1.2077079 -0.78989965
2.3374031 -1.21385 -0.78977138
2.384032 -1.2378585 -0.78930002
2.4203327 -1.2335298 -0.78937519
2.4765522 -1.2502574 -0.78904158
2.5419114 -1.2591416 -0.78885674
2.5963275 -1.2860125 -0.78832859
2.6174359 -1.2596709 -0.7888301
2.6822476 -1.2782177 -0.7884596
2.7423477 -1.3068391 -0.78789675
2.7653897 -1.2792933 -0.78842098
2.8370624 -1.2992617 -0.78802168
2.9121683 -1.3202673 -0.78760171
2.9910328 -1.3423089 -0.78716165
3.0086672 -1.3226509 -0.78753519
3.0831602 -1.3554498 -0.78689063
3.1016927 -1.3353001 -0.78727347
3.1805623 -1.3693434 -0.78660399
3.200069 -1.3486769 -0.78699654
3.2837062 -1.3840557 -0.78630054
3.3042707 -1.3628459 -0.78670329
3.3931136 -1.3996613 -0.78597862
3.4148319 -1.3778794 -0.78639203
3.5208642 -1.4050522 -0.78584892
3.6331544 -1.4339006 -0.78527236
2.2313373 -1.1513678 -0.79863685
2.2875037 -1.1554484 -0.79090434
2.3380618 -1.16978 -0.79061806
2.3907108 -1.1846474 -0.79032087
2.4518783 -1.1917444 -0.79017138
2.5026376 -1.2163633 -0.78968722
2.5224879 -1.1905723 -0.79017842
2.5828898 -1.2069453 -0.78985077
2.6459379 -1.2241027 -0.78950739
2.7193651 -1.2328668 -0.78932303
2.7965217 -1.2420758 -0.78912932
2.8776991 -1.2517647 -0.78892547
2.9460602 -1.2815667 -0.78833818
2.9718356 -1.2521334 -0.78889805
3.0354238 -1.2928247 -0.78810221
3.06249 -1.2626544 -0.78867614
3.1298206 -1.304718 -0.78785443
3.2296851 -1.3173001 -0.78759247
3.3355048 -1.3306326 -0.78731501
3.4367592 -1.3558873 -0.78680956
3.4589002 -1.3336818 -0.78723115
3.5672786 -1.359834 -0.7867071
2.2489073 -1.1033773 -0.79592073
2.3162444 -1.1152408 -0.79167068
2.361836 -1.1371033 -0.79124069
2.3975918 -1.1318796 -0.79133332
2.4340227 -1.1261916 -0.79143471
2.4904587 -1.1406411 -0.79114479
2.549278 -1.1557639 -0.79084146
2.6106858 -1.1715397 -0.79052502
2.624758 -1.1536152 -0.7908662
2.6822038 -1.1788453 -0.79036909
2.7572618 -1.1865629 -0.79020452
2.8361707 -1.1946763 -0.79003137
2.9024827 -1.2227966 -0.78947675
2.919188 -1.2032712 -0.78984833
2.9979768 -1.2222828 -0.78946584
3.0899506 -1.2320447 -0.78925836
3.1582828 -1.2737727 -0.78844249
3.1871712 -1.2423638 -0.78903925
3.2596638 -1.2855399 -0.78819597
3.2798944 -1.2641059 -0.78860307
3.3778086 -1.2870029 -0.78814363
3.4925444 -1.2999392 -0.78787184
3.6026723 -1.3253525 -0.78736156
3.6265864 -1.3020551 -0.78780371
2.2462869 -1.049963 -0.79294014
2.2949138 -1.0619191 -0.79269993
2.3455062 -1.0743042 -0.79245096
2.4042537 -1.0788035 -0.79235178
2.4656501 -1.0835056 -0.79224795
2.5232291 -1.0972326 -0.79197174
2.5696175 -1.1293366 -0.79134488
2.5902085 -1.1025825 -0.79185432
2.653259 -1.1173118 -0.79155773
2.719126 -1.132769 -0.79124629
2.795862 -1.1394002 -0.79110223
2.8684058 -1.1561406 -0.79076487
2.8847425 -1.1366102 -0.79113656
2.9445245 -1.1736571 -0.79041183
3.0333288 -1.1819137 -0.79023373
3.1177323 -1.2010765 -0.78984714
3.216408 -1.2105767 -0.78964335
3.3106167 -1.2315567 -0.78922123
3.4100404 -1.2537608 -0.78877479
3.5266287 -1.2657539 -0.78852087
3.6507425 -1.2785209 -0.78825021
2.3120887 -1.0374748 -0.79316568
2.2808213 -0.55679876 -0.69397712
2.285111 -0.50949395 -0.68483013
2.2893901 -0.46229962 -0.67570478
2.2936583 -0.41523108 -0.66660362
2.2979162 -0.3682721 -0.65752375
2.3021624 -0.32143807 -0.64846796
2.3080912 -0.25605696 -0.63582581
2.3055532 -0.28404555 -0.64123756
2.3113558 -0.2200425 -0.63271177
2.315819 -0.17079452 -0.62895417
2.3208609 -0.11519326 -0.6181888
2.3250511 -0.06898132 -0.60924155
2.3292301 -0.022891184 -0.60031772
2.3345275 0.035544362 -0.59309834
2.2492523 -1.9662558 -0.89611393
2.3130476 -1.972434 -0.89623219
2.1604714 -1.8843501 -0.87021792
2.2127464 -1.9163868 -0.87363946
2.2746394 -1.9213042 -0.8732335
2.3394763 -1.9264559 -0.87280846
2.4074728 -1.9318582 -0.87236261
2.4788644 -1.9375304 -0.87189442
2.5539131 -1.9434932 -0.87140238
2.6329064 -1.9497695 -0.87088442
2.1676154 -1.8481934 -0.85446954
2.2374804 -1.8718374 -0.85098284
2.3003695 -1.8757459 -0.85004431
2.3662708 -1.8798422 -0.84906095
2.4354057 -1.8841392 -0.84802932
2.5080178 -1.8886524 -0.84694588
2.7161644 -1.9563845 -0.8703385
2.8040419 -1.9633666 -0.86976248
2.8969338 -1.9707471 -0.86915326
2.9952826 -1.978561 -0.8685084
3.0995831 -1.9868481 -0.86782455
3.2103927 -1.9956518 -0.86709785
2.1744359 -1.8088071 -0.84189057
2.2625422 -1.8266963 -0.82802546
2.3264492 -1.8295687 -0.82654017
2.3934374 -1.8325797 -0.82498312
2.4637363 -1.8357399 -0.82334924
2.5375974 -1.8390597 -0.8216325
2.5843771 -1.8933984 -0.84580642
2.6647811 -1.8983959 -0.84460652
2.7495596 -1.9036653 -0.84334153
2.8390803 -1.9092293 -0.84200573
2.9337511 -1.9151136 -0.8405931
3.0340309 -1.9213465 -0.83909672
3.3283408 -2.0050232 -0.86632454
3.4541395 -2.015018 -0.86549962
2.1729655 -1.7465413 -0.84671873
2.1704161 -1.7747028 -0.83921009
2.6152983 -1.8425524 -0.81982648
2.6971467 -1.8462313 -0.81792408
2.7834835 -1.850112 -0.81591737
2.8746884 -1.8542116 -0.81379747
2.971185 -1.8585489 -0.81155467
3.1404335 -1.9279597 -0.83750886
3.253536 -1.9349897 -0.83582121
3.3739929 -1.9424767 -0.83402383
3.5025449 -1.9504668 -0.8321054
2.1769662 -1.7024324 -0.83541483
3.0734479 -1.8631458 -0.80917794
3.1820092 -1.8680252 -0.80665457
3.2974701 -1.8732152 -0.80397099
2.1815202 -1.652204 -0.82580614
3.4205091 -1.8787457 -0.80111122
3.5518987 -1.8846512 -0.79805732
2.1860638 -1.6020963 -0.8162204
3.4073691 -1.7804551 -0.7786687
2.1906106 -1.5521364 -0.8066684
2.2402871 -1.5572383 -0.78319466
2.2961152 -1.5722247 -0.78289455
2.3667028 -1.5725675 -0.78287274
2.4281816 -1.5886447 -0.78255039
2.4925435 -1.6054766 -0.78221399
2.5739751 -1.6067735 -0.78217238
2.6380324 -1.6333185 -0.78164983
2.6526902 -1.6165798 -0.78196806
2.7203593 -1.6440442 -0.78142715
2.8153644 -1.6466113 -0.78135842
2.8907588 -1.6763759 -0.78077179
2.9077246 -1.6584014 -0.78111327
2.9788239 -1.6984953 -0.78032929
2.9966393 -1.6801215 -0.78067821
3.0812252 -1.7124678 -0.78004009
3.1094956 -1.6841141 -0.78057843
3.1999843 -1.7176615 -0.77991623
3.3059421 -1.7431786 -0.77940476
3.4295893 -1.7601057 -0.77905476
3.4520271 -1.7395556 -0.77944434
3.561882 -1.7781564 -0.7786811
2.1968582 -1.5046855 -0.80218875
2.2323449 -1.5110897 -0.78408295
2.2745965 -1.5126594 -0.78404367
2.3257864 -1.5344304 -0.78361434
2.3977778 -1.5337881 -0.783611
2.4474988 -1.565042 -0.78299969
2.4670515 -1.5411522 -0.78345442
2.5262589 -1.5651679 -0.78298056
2.5951335 -1.5820413 -0.78264254
2.6093831 -1.5653847 -0.78295922
2.6823897 -1.5826631 -0.7826128
2.7434733 -1.6182778 -0.78191674
2.7668982 -1.592165 -0.78241318
2.8397675 -1.6200794 -0.78186268
2.8562157 -1.6021957 -0.78220236
2.9334621 -1.6311339 -0.78163123
3.0327911 -1.6428368 -0.78138626
3.1381922 -1.6553335 -0.78112483
3.230042 -1.6883786 -0.78047192
3.2503288 -1.6686145 -0.78084701
3.3376689 -1.713191 -0.77997375
3.369904 -1.6827224 -0.78055167
3.4861307 -1.7083226 -0.78003663
2.2001626 -1.4556113 -0.79642397
2.2479115 -1.4619203 -0.78502429
2.3037429 -1.4747894 -0.78476495
2.3559413 -1.4960206 -0.78434587
2.3742886 -1.4726511 -0.78479075
2.4293723 -1.4943602 -0.78436166
2.500118 -1.5007498 -0.78422356
2.5536358 -1.5324382 -0.78360313
2.5744791 -1.5075207 -0.78407723
2.6382496 -1.5316432 -0.78360087
2.720103 -1.5395962 -0.78343147
2.7985542 -1.5568761 -0.7830838
2.8895719 -1.5659292 -0.78289145
