# .PCD v0.7 - Point Cloud Data file format
VERSION 0.7
FIELDS x y z
SIZE 4 4 4
TYPE F F F
COUNT 1 1 1
WIDTH 1473
HEIGHT 1
VIEWPOINT 0 0 0 1 0 0 0
POINTS 1473
DATA ascii
2.9050882 -0.18580048 -1.1980208
2.8970711 -0.14085187 -1.1980637
2.8870432 -0.084627159 -1.1981176
2.8770077 -0.028363669 -1.1981711
2.8689742 0.01667841 -1.1982144
2.8609357 0.061747108 -1.1982573
2.8528924 0.10684264 -1.1983002
2.8428314 0.16325106 -1.1983542
2.8347776 0.20840472 -1.1983973
2.830749 0.23099267 -1.198419
2.8247035 0.26488808 -1.1984513
2.8166387 0.31010434 -1.1984944
2.8085692 0.35534742 -1.1985377
2.8004949 0.4006176 -1.198581
2.790395 0.45724452 -1.1986349
2.780288 0.51391077 -1.198689
2.7721968 0.55927515 -1.1987324
2.7641006 0.60466671 -1.1987758
2.7560003 0.65008539 -1.1988193
2.747894 0.69553083 -1.1988626
2.7377553 0.75237739 -1.1989169
2.7276087 0.80926359 -1.1989712
2.7194862 0.85480428 -1.1990147
2.7113588 0.90037197 -1.1990581
2.7032266 0.94596696 -1.1991018
2.6950893 0.99158919 -1.1991453
2.684911 1.0486567 -1.1991998
2.6747251 1.1057642 -1.1992543
2.6665709 1.1514817 -1.1992979
2.6584117 1.1972266 -1.1993417
2.6502483 1.2429993 -1.1993855
2.6420789 1.2887992 -1.1994292
2.6339056 1.3346266 -1.1994729
2.6236811 1.3919506 -1.1995276
2.6134496 1.4493147 -1.1995825
2.6052589 1.4952383 -1.1996263
2.5970631 1.5411891 -1.1996702
2.5888624 1.5871676 -1.1997142
2.5806568 1.6331736 -1.1997581
2.5724461 1.6792076 -1.199802
2.5662851 1.71375 -1.1998351
2.9316559 -0.32726276 -1.1544369
2.9225256 -0.27567562 -1.1521845
2.9145195 -0.23078568 -1.1522137
2.9065084 -0.18586914 -1.152243
2.8984931 -0.14092594 -1.1522725
2.8884668 -0.08470805 -1.1523093
2.878433 -0.028451372 -1.152346
2.8704007 0.016585207 -1.1523752
2.8623636 0.061648499 -1.1524047
2.8543217 0.10673853 -1.1524341
2.8442624 0.16314013 -1.1524709
2.8341963 0.21958095 -1.1525079
2.8261378 0.26476473 -1.1525375
2.8180747 0.30997562 -1.152567
2.8100066 0.35521322 -1.1525966
2.8019333 0.4004778 -1.152626
2.7918351 0.45709777 -1.1526631
2.7817302 0.51375705 -1.1527001
2.7736402 0.55911607 -1.1527297
2.7655456 0.60450202 -1.1527593
2.7574461 0.64991504 -1.152789
2.7493417 0.69535512 -1.1528187
2.7392044 0.75219482 -1.1528556
2.7290602 0.80907398 -1.1528928
2.7209389 0.85460895 -1.1529225
2.7128127 0.9001711 -1.1529523
2.7046819 0.94576055 -1.1529822
2.6965463 0.99137706 -1.1530119
2.6863694 1.0484376 -1.1530493
2.6761854 1.105538 -1.1530864
2.6680329 1.1512501 -1.1531163
2.6598754 1.1969898 -1.1531463
2.6517129 1.2427565 -1.153176
2.6435454 1.2885507 -1.1532061
2.6353729 1.3343723 -1.153236
2.6255176 1.3916242 -1.1417122
2.6152887 1.4489795 -1.1417454
2.6070993 1.4948957 -1.1417719
2.5989056 1.5408396 -1.1417985
2.5907066 1.5868111 -1.141825
2.5825028 1.6328099 -1.1418515
2.5742941 1.6788362 -1.1418782
2.5681345 1.7133735 -1.1418982
2.9319429 -0.32059139 -1.106429
2.9239428 -0.27573347 -1.1064448
2.9159381 -0.23084892 -1.1064606
2.9079282 -0.18593785 -1.1064764
2.8999145 -0.14100005 -1.1064923
2.8898895 -0.084789008 -1.106512
2.879858 -0.028539071 -1.1065317
2.8718271 0.016492072 -1.1065475
2.8637915 0.061549895 -1.1065632
2.855751 0.10663449 -1.1065791
2.8456933 0.16302922 -1.1065989
2.8356285 0.21946305 -1.1066186
2.8295865 0.25334358 -1.1066307
2.825557 0.27593949 -1.1066387
2.8195097 0.30984682 -1.1066506
2.8114431 0.35507891 -1.1066664
2.8033714 0.40033796 -1.1066822
2.7932751 0.45695111 -1.1067021
2.7831714 0.51360351 -1.1067221
2.7750828 0.55895692 -1.1067381
2.7669897 0.60433745 -1.1067539
2.7588918 0.64974493 -1.1067699
2.7507892 0.69517934 -1.1067859
2.7406533 0.7520119 -1.1068058
2.7305107 0.80888426 -1.1068257
2.7222025 0.85666126 -1.0999312
2.7146299 0.89992028 -1.0953364
2.7065005 0.94550234 -1.0953491
2.6983666 0.99111211 -1.0953616
2.6881919 1.0481639 -1.0953772
2.6780107 1.1052555 -1.0953932
2.6698596 1.1509606 -1.0954057
2.6617038 1.1966931 -1.0954182
2.653543 1.2424529 -1.0954309
2.6453774 1.2882398 -1.0954434
2.637207 1.3340544 -1.0954561
2.6273537 1.3912975 -1.0839133
2.6171272 1.4486438 -1.0839247
2.6089394 1.4945531 -1.0839339
2.6007476 1.5404902 -1.083943
2.5925503 1.5864543 -1.0839523
2.5843487 1.6324463 -1.0839615
2.5761414 1.6784656 -1.0839708
2.5699832 1.7129977 -1.0839777
2.9333582 -0.32064381 -1.0607139
3.0159879 -0.32222232 -1.0341773
3.0890031 -0.3133643 -1.0381871
3.1656001 -0.30407175 -1.0423936
2.9253597 -0.27579129 -1.0607162
2.917356 -0.23091221 -1.0607183
2.909348 -0.18600649 -1.0607207
2.9013355 -0.14107412 -1.0607229
2.8913124 -0.084869899 -1.0607257
2.8812823 -0.028626775 -1.0607283
2.8732529 0.016398933 -1.0607305
2.8652186 0.06145132 -1.0607328
2.8571794 0.10653041 -1.060735
2.8471243 0.16291845 -1.0607378
2.8370612 0.21934536 -1.0607407
2.8297963 0.26074234 -1.0569185
2.8266327 0.27584603 -1.0722158
2.8213036 0.30968592 -1.049271
2.8132389 0.35491121 -1.0492702
2.8051689 0.40016338 -1.0492687
2.7950745 0.45676786 -1.0492674
2.7849731 0.51341158 -1.0492657
2.7768867 0.55875808 -1.0492647
2.7687955 0.6041317 -1.0492635
2.760699 0.6495322 -1.0492623
2.7525978 0.69495982 -1.0492612
2.7424643 0.75178361 -1.0492597
2.7323241 0.80864722 -1.0492582
2.724757 0.8518731 -1.0446506
2.7164466 0.89966935 -1.0377369
2.7083189 0.94524461 -1.0377322
2.700187 0.99084729 -1.0377277
2.6900146 1.0478902 -1.0377216
2.6798351 1.1049731 -1.0377159
2.6716857 1.1506712 -1.0377113
2.6635318 1.1963966 -1.0377069
2.6553729 1.2421491 -1.0377021
2.6472087 1.2879293 -1.0376974
2.6390405 1.3337369 -1.0376929
2.6288223 1.3910364 -1.0376869
2.6185973 1.4483757 -1.0376812
2.6104116 1.4942795 -1.0376767
2.6022205 1.5402106 -1.037672
2.5940251 1.5861691 -1.0376673
2.5858247 1.6321553 -1.0376626
2.5776188 1.6781691 -1.0376581
2.5714617 1.7126964 -1.0376546
4.2210202 -2.2273421 -1.0332092
3.6651719 -0.21497028 -1.0572218
2.9393654 -0.32007489 -1.0283915
2.980423 -0.30331689 -1.0219507
3.0518246 -0.29410464 -1.0256284
3.1266913 -0.28444535 -1.0294847
3.2052805 -0.27430573 -1.0335329
3.2878778 -0.26364896 -1.0377874
3.3309054 -0.2321071 -1.0285046
3.3747973 -0.25243455 -1.0422646
3.4202466 -0.21989022 -1.0328012
3.4663875 -0.24061751 -1.0469825
3.5144606 -0.20700693 -1.0373322
3.5630352 -0.22814795 -1.0519607
3.6139584 -0.1934012 -1.0421174
3.7191973 -0.17901036 -1.0471784
3.7749774 -0.14188209 -1.0368085
3.8306875 -0.16376469 -1.0525401
3.8900194 -0.12525977 -1.0419472
2.9259915 -0.27210602 -1.0188067
2.9626813 -0.27078873 -1.0056326
3.0154238 -0.27524742 -1.0133326
3.0699801 -0.25583908 -1.0106699
3.1263974 -0.23559499 -1.0078394
3.1654062 -0.25473821 -1.0205452
3.2051916 -0.2242101 -1.011359
3.2460694 -0.24370797 -1.0244246
3.2880154 -0.21224293 -1.0150583
3.3531759 -0.18976063 -1.0121872
3.4207718 -0.16623056 -1.009117
3.4670539 -0.18637379 -1.0230551
3.5152798 -0.15184122 -1.0130136
3.5640101 -0.17236462 -1.0273858
3.6151037 -0.13664246 -1.0171292
3.6664896 -0.15755743 -1.0319631
3.7207053 -0.12056405 -1.0214831
3.8326006 -0.10352738 -1.0260965
2.918587 -0.22874065 -1.0081279
2.9448588 -0.2386909 -0.98949623
3.0148578 -0.2280332 -0.99238193
3.0882254 -0.21686254 -0.99540633
3.1652117 -0.20514098 -0.99858028
3.2460914 -0.1928266 -1.0019151
2.9111226 -0.18609221 -1.0035422
2.9031112 -0.14116667 -1.0035273
2.8930902 -0.084970959 -1.003509
2.8830624 -0.028736284 -1.0034904
2.8750348 0.016282517 -1.0034757
2.867002 0.061328057 -1.003461
2.8589652 0.10640047 -1.0034462
2.8489113 0.16277973 -1.0034276
2.8388507 0.21919829 -1.0034093
2.830797 0.26436427 -1.0033944
2.8251116 0.29822382 -0.99191231
2.8210814 0.3208262 -0.99190336
2.8150334 0.35474345 -0.99188977
2.8069656 0.39998874 -0.99187154
2.7968731 0.4565846 -0.99184877
2.7867744 0.51321989 -0.99182576
2.7786896 0.55855948 -0.99180776
2.7705998 0.60392594 -0.99178934
2.7625055 0.64931977 -0.99177092
2.7544057 0.69474018 -0.99175268
2.7442749 0.7515555 -0.9917298
2.7341368 0.80841023 -0.99170667
2.7260203 0.85392594 -0.99168861
2.7178991 0.89946848 -0.99167007
2.7097733 0.94503844 -0.99165177
2.7016423 0.99063522 -0.99163347
2.6914718 1.0476713 -0.99161029
2.6812942 1.1047472 -0.99158728
2.6731465 1.1504397 -0.99156874
2.664994 1.1961595 -0.99155045
2.656836 1.2419066 -0.99153197
2.6486738 1.2876811 -0.99151367
2.6405067 1.333483 -0.99149519
2.6302907 1.3907752 -0.9914723
2.6200671 1.4481078 -0.99144912
2.6118827 1.4940054 -0.99143046
2.6036932 1.5399308 -0.9914121
2.5954995 1.585884 -0.99139363
2.5873001 1.6318643 -0.99137497
2.5779388 1.6847622 -0.98903853
2.5725706 1.7124709 -1.0029193
4.2188392 -2.2261362 -1.0027416
4.2691641 -2.2169762 -1.0025351
4.3219938 -2.2081823 -1.0179515
2.9791262 -0.21000884 -0.9805274
3.0508645 -0.19852766 -0.98323745
3.126102 -0.18648645 -0.98607993
3.2051022 -0.17384303 -0.98906475
3.2881536 -0.16055122 -0.99220282
3.3314281 -0.12734552 -0.9822104
3.375576 -0.14655994 -0.99550587
3.4445121 -0.12203632 -0.99214178
3.5405469 -0.10629649 -0.99560648
3.6420355 -0.089662939 -0.99926817
3.7222233 -0.061749969 -0.99562621
3.7766881 -0.08236482 -1.0106615
3.8345265 -0.042899661 -0.99948138
3.8921592 -0.063884497 -1.0150244
2.9105396 -0.17493407 -0.95780319
2.9441283 -0.19235432 -0.96891618
2.9963808 -0.17178951 -0.96549153
3.0503814 -0.15036814 -0.96187776
3.0878341 -0.16823311 -0.9738487
3.1454115 -0.14619765 -0.97035158
3.2050121 -0.12320238 -0.96664953
3.2461126 -0.14166583 -0.97928172
3.2882924 -0.10857157 -0.9692198
3.3759689 -0.093168415 -0.97192609
3.4218316 -0.057976864 -0.96133631
3.4683979 -0.076930322 -0.97477889
3.5169318 -0.040522795 -0.96394104
3.5659769 -0.059787489 -0.97779053
3.617415 -0.022080798 -0.96669346
3.6691494 -0.041661937 -0.98097497
3.7237506 -0.0025646649 -0.96960622
3.7784095 -0.022466989 -0.98434716
3.8364649 0.018122135 -0.97269338
3.8943138 -0.0021047522 -0.98792464
2.9060311 -0.13713427 -0.95086801
2.9433942 -0.14578602 -0.94823307
2.9957664 -0.12431739 -0.94442159
3.049895 -0.10195892 -0.94040716
3.0874417 -0.11934853 -0.952178
3.1255088 -0.087485962 -0.94221443
3.1848726 -0.088716082 -0.94920492
3.246135 -0.090223007 -0.9565239
3.2884333 -0.056301136 -0.94610888
3.3316913 -0.074520595 -0.95886725
3.3763638 -0.039470702 -0.9482109
2.8948677 -0.085071966 -0.94630814
2.8848424 -0.028845767 -0.94626856
2.8768165 0.016166255 -0.94623703
2.8687854 0.061204918 -0.94620514
2.8607497 0.10627036 -0.94617331
2.8506985 0.16264127 -0.94613355
2.8406401 0.21905114 -0.94609398
2.832588 0.2642104 -0.94606209
2.8253222 0.30561903 -0.94221002
2.8221576 0.32072878 -0.95749116
2.816469 0.35460937 -0.94599843
2.8084025 0.39984906 -0.94596654
2.7983117 0.45643795 -0.94592673
2.7882147 0.51306629 -0.94588685
2.7801316 0.55840045 -0.94585478
2.772043 0.60376143 -0.94582295
2.7639496 0.64914954 -0.94579083
2.755852 0.69456464 -0.94575888
2.7457228 0.75137311 -0.94571882
2.7355862 0.8082208 -0.94567883
2.7274716 0.85373092 -0.9456467
2.7193515 0.89926797 -0.94561464
2.7112274 0.94483215 -0.94558251
2.7030973 0.9904235 -0.94555044
2.692929 1.0474527 -0.94551027
2.6827533 1.1045213 -0.94546998
2.6746068 1.1502084 -0.94543785
2.6664553 1.1959223 -0.94540566
2.6582994 1.2416637 -0.94537336
2.6501386 1.2874326 -0.94534111
2.6408203 1.3400887 -0.94299436
2.6308677 1.3951112 -0.94757473
2.6215365 1.4478396 -0.9452281
2.6133537 1.4937317 -0.94519579
2.605166 1.5396515 -0.94516349
2.5969727 1.5855987 -0.94513112
2.5887752 1.6315737 -0.94509876
2.5785213 1.6890823 -0.94505823
4.2155747 -2.2243307 -0.95713609
4.2657952 -2.215157 -0.95631695
4.3173571 -2.2057388 -0.95548856
3.4690759 -0.021725021 -0.95042747
3.5669696 -0.0029874991 -0.95276773
3.6704919 0.016827352 -0.95524275
3.7801421 0.037815113 -0.95786405
2.8919258 -0.062650748 -0.91197532
2.9309282 -0.077828936 -0.91681308
2.9771559 -0.068269484 -0.91760331
3.0250373 -0.058326885 -0.91840386
3.0870464 -0.070207067 -0.93039322
3.12521 -0.037590012 -0.92010653
3.1646247 -0.054745611 -0.93197656
3.2254961 -0.029793151 -0.92754674
3.2885749 -0.0037378063 -0.92286843
3.3319571 -0.021395996 -0.93539178
3.3767612 0.014535956 -0.92435938
3.4223659 -0.003377418 -0.9372372
3.4697578 0.033806559 -0.92593205
3.5177655 0.015635855 -0.93918473
3.5679684 0.054157544 -0.92759293
3.6185811 0.035728589 -0.94124281
3.6718428 0.07568223 -0.92934966
3.7252877 0.056995325 -0.9434213
3.7818859 0.098485157 -0.93121058
3.8384154 0.079541855 -0.94573057
2.885479 -0.025176678 -0.90431333
2.9073944 -0.035958827 -0.89573294
2.9588313 -0.012607374 -0.8909868
3.0119829 0.011692024 -0.88600755
3.0739388 0.0012219712 -0.89736748
3.1249089 0.012572451 -0.8978802
3.1644275 -0.0040719705 -0.90953559
3.2047434 0.030384891 -0.89866853
3.2461815 0.013517947 -0.91063052
3.3104715 0.040575914 -0.90564042
3.3771627 0.0688546 -0.90037078
3.4229038 0.051540896 -0.91299766
3.4704447 0.08966741 -0.90129173
3.5186043 0.072131515 -0.91427982
3.6197548 0.093894742 -0.91563517
3.7268343 0.11693361 -0.91706997
3.840379 0.14136353 -0.91859144
2.8782413 0.016073197 -0.90045881
2.8702118 0.061106492 -0.90041333
2.8621776 0.1061665 -0.90036809
2.852128 0.16253048 -0.90031141
2.8420711 0.21893352 -0.90025455
2.8340204 0.26408726 -0.90020913
2.8259647 0.30926779 -0.90016365
2.8202784 0.34313682 -0.8886618
2.8171129 0.3582547 -0.90393698
2.8098392 0.39970955 -0.90007281
2.7997501 0.4562915 -0.90001589
2.7896547 0.51291293 -0.89995879
2.7815728 0.55824143 -0.89991313
2.7734861 0.60359716 -0.89986765
2.7653942 0.64897949 -0.89982194
2.7572978 0.6943891 -0.89977628
2.74717 0.75119048 -0.89971912
2.7370355 0.8080315 -0.89966196
2.7289219 0.85353571 -0.89961618
2.7208037 0.89906752 -0.89957029
2.7126806 0.94462597 -0.89952445
2.7045524 0.99021167 -0.89947855
2.6943858 1.0472338 -0.89942127
2.6842113 1.1042955 -0.89936382
2.6760666 1.1499768 -0.8993178
2.667917 1.1956855 -0.89927191
2.6597624 1.2414215 -0.89922583
2.6516023 1.2871844 -0.89917976
2.641396 1.3444283 -0.89912218
2.6311827 1.4017122 -0.89906454
2.6230059 1.4475715 -0.89901847
2.6148245 1.4934579 -0.89897233
2.606638 1.5393721 -0.89892608
2.5984466 1.5853138 -0.89887989
2.59025 1.631283 -0.89883363
2.5799975 1.6887844 -0.89877582
4.2112341 -2.22193 -0.89648861
4.2624359 -2.2133431 -0.91022193
4.3138905 -2.2039123 -0.90876764
3.5689726 0.11165068 -0.90226448
3.6732023 0.13490613 -0.90329415
3.7836411 0.15954697 -0.90438491
2.8773034 0.027257446 -0.86611819
2.9065704 0.010870165 -0.87492472
2.958123 0.035134647 -0.86978728
3.011399 0.060381074 -0.86440265
3.0484221 0.044787597 -0.87532187
3.1052279 0.070891835 -0.86994076
3.1642292 0.046876092 -0.88697302
3.2046528 0.082143053 -0.87575912
3.2462051 0.065820716 -0.88749272
3.2888615 0.10227779 -0.87599492
3.3324943 0.085762165 -0.88803983
3.4005058 0.11513425 -0.88242984
3.4711363 0.14586048 -0.87650496
3.5194485 0.12896723 -0.8892253
3.5954599 0.16095825 -0.8833254
3.6745696 0.19450243 -0.87707484
3.7283912 0.17725387 -0.89055097
3.8423553 0.20359097 -0.89127403
2.8714445 0.064928278 -0.85864496
2.9057429 0.057933446 -0.85401273
2.9574118 0.083119914 -0.84847987
3.0108123 0.10932264 -0.84268564
3.0479262 0.094215915 -0.85339928
3.0854452 0.12896994 -0.8420971
3.1441665 0.10590339 -0.85867888
3.2045617 0.13418637 -0.8527236
3.2462289 0.11841498 -0.86422586
3.289006 0.15573493 -0.85235924
3.3327656 0.13980088 -0.86416084
3.3779721 0.17843743 -0.85197562
3.423991 0.16234568 -0.86409211
3.4718323 0.20238875 -0.85157073
3.5202985 0.18614624 -0.86401969
3.6221242 0.21131054 -0.86394298
3.7299576 0.23795964 -0.8638624
3.7854073 0.22100425 -0.87738556
2.8636045 0.10606249 -0.85457373
2.9049106 0.10523248 -0.83299559
2.9744821 0.12411054 -0.8321979
3.1638286 0.14960462 -0.841479
2.8535566 0.16241966 -0.85450011
2.8435016 0.21881586 -0.85442626
2.8354523 0.26396415 -0.85436732
2.8273981 0.30913913 -0.85430819
2.8213544 0.34303737 -0.8542639
2.8173237 0.36564502 -0.8542344
2.811275 0.39956987 -0.85419005
2.8011885 0.45614517 -0.85411614
2.7910943 0.51275951 -0.85404193
2.7830138 0.55808258 -0.85398275
2.7749286 0.60343254 -0.8539235
2.7668383 0.64880955 -0.85386413
2.7587433 0.69421363 -0.85380477
2.7486174 0.75100803 -0.8537305
2.7384841 0.80784208 -0.85365623
2.7303724 0.85334069 -0.85359669
2.7222557 0.89886683 -0.8535372
2.7141337 0.94441992 -0.8534776
2.7060077 0.99000025 -0.85341811
2.695842 1.0470151 -0.85334343
2.6856699 1.1040698 -0.8532688
2.6775262 1.1497455 -0.85320908
2.6693778 1.1954485 -0.85314935
2.6612244 1.2411786 -0.85308951
2.6530666 1.2869363 -0.85302967
2.6428616 1.3441732 -0.85295486
2.6326499 1.4014498 -0.85287994
2.6242859 1.4495564 -0.84588814
2.6166623 1.4931161 -0.84120929
2.6084774 1.539023 -0.84114569
2.6002879 1.5849577 -0.84108227
2.5920937 1.6309196 -0.8410188
2.5818436 1.6884122 -0.84093928
4.2079873 -2.220134 -0.8511222
4.2590842 -2.2115333 -0.86422509
4.310432 -2.2020903 -0.86217242
3.8443451 0.26622844 -0.8637768
2.8708632 0.11957281 -0.82295394
2.9389105 0.13858961 -0.82192934
3.0102222 0.15851869 -0.82085556
3.0474272 0.143904 -0.83136141
3.0850394 0.17942737 -0.81972897
3.1239977 0.16468121 -0.8304835
3.2044706 0.18651733 -0.82956094
3.2462525 0.17130293 -0.84082913
3.2891519 0.20949526 -0.82858992
3.3330376 0.19414936 -0.84014475
3.3783801 0.23370714 -0.8275668
3.4245396 0.21823755 -0.8394233
3.5211544 0.24367164 -0.83866155
3.5710027 0.22769517 -0.85114288
3.6233213 0.27056736 -0.83785594
3.6759467 0.25447488 -0.85069019
3.7315342 0.29905474 -0.83700269
3.7871857 0.28286099 -0.85021073
2.8538017 0.16795988 -0.81441468
2.8870125 0.15971412 -0.80694765
2.9381499 0.18683003 -0.80050355
2.9738052 0.1728242 -0.81057197
3.0282776 0.20091262 -0.80405962
3.0846317 0.23015437 -0.79724151
3.1236906 0.21593185 -0.80777532
3.1636264 0.20138964 -0.81854558
3.2253273 0.23181257 -0.8117854
3.2892973 0.26356092 -0.80468529
3.333312 0.2488106 -0.81599069
3.3787909 0.28929952 -0.80301553
3.4250917 0.27445978 -0.81460875
3.4725323 0.25925511 -0.82648724
3.5220151 0.30154634 -0.81314933
3.5720272 0.28625277 -0.82534635
3.624526 0.3301945 -0.81160581
3.6773338 0.31482738 -0.824139
3.7889757 0.34512106 -0.82285887
2.8449323 0.21869832 -0.80860907
2.8861339 0.20726281 -0.7858153
2.9731243 0.22178891 -0.78883433
3.0464218 0.24406785 -0.78693658
3.163424 0.25345841 -0.79548681
3.2463002 0.27797043 -0.79364115
3.4732368 0.31646264 -0.80125326
2.8368843 0.26384103 -0.80853647
2.8288312 0.30901062 -0.80846387
2.8207738 0.35420716 -0.80839115
2.812711 0.39943036 -0.80831832
2.8026261 0.45599875 -0.80822724
2.7925344 0.51260632 -0.80813628
2.7844553 0.55792379 -0.80806345
2.7763705 0.60326815 -0.80799031
2.7682819 0.64863962 -0.80791736
2.7601883 0.69403815 -0.80784428
2.7504258 0.75078011 -0.79626095
2.7402949 0.80760539 -0.79616523
2.7321849 0.85309726 -0.79608864
2.7240696 0.89861614 -0.79601187
2.7159498 0.94416213 -0.79593533
2.7078252 0.98973554 -0.7958585
2.6976621 1.0467418 -0.79576248
2.6874917 1.1037878 -0.79566634
2.6793501 1.1494565 -0.79558945
2.6712036 1.1951523 -0.7955125
2.6630521 1.2408757 -0.79543549
2.654896 1.2866259 -0.79535848
2.6446936 1.343854 -0.79526198
2.6344836 1.4011222 -0.7951656
2.6268659 1.4446486 -0.79047388
2.6184998 1.492774 -0.78346276
2.6103165 1.5386739 -0.78338194
2.6021287 1.5846015 -0.78330112
2.5939357 1.6305561 -0.78322023
2.5836878 1.6880401 -0.7831192
4.1892643 -2.1862009 -0.8182475
4.0301375 -2.1550992 -0.78101397
4.2104611 -2.1394477 -0.79541665
3.7331228 0.36054337 -0.80997056
2.8439937 0.22989154 -0.77423251
2.9373853 0.23531657 -0.77896857
3.0090337 0.25768223 -0.77685332
3.0842218 0.28115302 -0.77463347
3.1233819 0.26745993 -0.784944
3.2042859 0.29205081 -0.78284931
3.3115163 0.31086105 -0.7861709
3.4256473 0.33101511 -0.78964716
3.5228808 0.35977361 -0.78748173
3.5730588 0.34517178 -0.79939073
3.6787298 0.375563 -0.79741907
3.7907789 0.40778872 -0.79532838
2.8375254 0.26749074 -0.76652706
2.8681123 0.26153749 -0.75984544
2.9135156 0.27647951 -0.75816476
2.9724405 0.27100703 -0.7669844
3.0084341 0.30765364 -0.75467914
3.0459154 0.2945478 -0.76454771
3.1034403 0.32584667 -0.75694644
3.1632199 0.30581304 -0.77230126
3.2041926 0.34525836 -0.75929838
3.2463245 0.33175495 -0.76984769
3.2895925 0.37261972 -0.75646615
3.3565342 0.35214943 -0.77279186
3.4262056 0.38790658 -0.76453722
3.4739449 0.37401405 -0.77586746
3.5237525 0.41835684 -0.7616573
3.5740964 0.40445527 -0.77327448
3.6257389 0.39019543 -0.78519118
3.6801338 0.43668562 -0.77052891
3.7347219 0.42242905 -0.78276408
3.792594 0.47086793 -0.76761734
2.8302643 0.30888224 -0.76263046
2.8503597 0.31546041 -0.73406041
2.9537985 0.32675815 -0.74029416
3.0454059 0.34529573 -0.7420398
3.1227593 0.37135795 -0.73890853
3.1630149 0.35845593 -0.74898803
3.2463491 0.38584337 -0.74591988
3.3796189 0.40146339 -0.75348043
3.6269586 0.45057362 -0.75861037
2.822566 0.35403952 -0.75108463
2.8165214 0.38794851 -0.75101739
2.8124897 0.41056341 -0.75097245
2.8044226 0.45581567 -0.75088257
2.7943332 0.51241475 -0.75077033
2.7862554 0.55772525 -0.75068021
2.778173 0.60306287 -0.75059021
2.7700858 0.64842737 -0.7505002
2.7619939 0.69381887 -0.75041008
2.7522335 0.75055218 -0.73880762
2.742105 0.8073687 -0.7386905
2.7339966 0.8528536 -0.73859674
2.7258832 0.89836562 -0.73850298
2.7177653 0.94390506 -0.73840922
2.7096422 0.98947102 -0.73831522
2.6994817 1.0464687 -0.73819762
2.6893134 1.1035058 -0.7380802
2.6811738 1.1491674 -0.73798609
2.6730287 1.1948563 -0.73789197
2.6648793 1.2405726 -0.7377978
2.6567245 1.2863162 -0.73770338
2.6465244 1.3435353 -0.73758554
2.6363168 1.4007944 -0.73746747
2.628145 1.4466338 -0.73737305
2.6199687 1.4925005 -0.73727852
2.6117871 1.5383948 -0.73718393
2.603601 1.5843167 -0.73708928
2.5954096 1.630266 -0.73699462
2.5851638 1.6877427 -0.73687619
4.2319803 -2.0919843 -0.77223903
4.0493426 -2.1099739 -0.75881809
4.25383 -2.0437944 -0.74870664
3.9005048 -2.0827458 -0.72500926
4.0688276 -2.0641894 -0.73629856
2.900687 0.34532973 -0.72631025
3.0078318 0.35788774 -0.73238862
3.083395 0.38397416 -0.72905231
3.2040987 0.39876318 -0.73561597
3.3341441 0.41469681 -0.74268758
3.4267671 0.44513711 -0.73927754
3.474658 0.4319132 -0.75032848
3.5751405 0.46410692 -0.7469961
3.6815481 0.4981989 -0.74346709
3.736331 0.48471525 -0.75538129
2.8493917 0.36326605 -0.71280468
2.8998294 0.39408243 -0.70464742
2.9530652 0.37624162 -0.71832132
3.0072265 0.4083865 -0.70998067
3.0448937 0.396314 -0.71941215
3.142627 0.41756096 -0.72062421
3.2040052 0.45256785 -0.71180087
3.2463734 0.44023824 -0.72185653
3.2897413 0.42761827 -0.7321493
3.3344243 0.47063571 -0.71796882
3.3800366 0.45804089 -0.72849411
3.4273326 0.50270993 -0.71386677
3.4753752 0.49016258 -0.72463489
3.5246291 0.47729897 -0.7356745
3.5761909 0.52412987 -0.72055393
3.6281865 0.51133269 -0.73186189
3.7379513 0.54740649 -0.72782081
3.7944205 0.5343622 -0.73972356
2.8159409 0.39911655 -0.70514727
2.8484192 0.41131127 -0.69144225
2.8989673 0.44308364 -0.68287396
2.9342883 0.43176326 -0.69171786
2.988492 0.43967605 -0.69410276
3.044379 0.44760481 -0.69666344
3.0829785 0.43580106 -0.70607722
3.1221297 0.47639355 -0.69236898
3.1626015 0.46461651 -0.70197439
3.2463982 0.49494237 -0.69765639
3.2898905 0.48293269 -0.7076925
3.3804567 0.51495236 -0.70336026
3.525511 0.53660363 -0.70953214
3.6829705 0.56010646 -0.71623152
2.8062189 0.45563284 -0.69355404
2.7961311 0.51222301 -0.69342035
2.7880552 0.55752677 -0.69331336
2.7799747 0.60285735 -0.69320631
2.7718899 0.64821512 -0.6930992
2.7637994 0.69359976 -0.69299203
2.7536795 0.75036985 -0.69285786
2.7435527 0.80717945 -0.69272369
2.735446 0.85265881 -0.69261622
2.7273343 0.8981654 -0.69250888
2.7192168 0.94369882 -0.69240123
2.7110953 0.9892596 -0.69229364
2.7009366 1.0462501 -0.69215888
2.6907709 1.1032804 -0.69202423
2.6826322 1.1489365 -0.69191641
2.6744885 1.1946198 -0.69180858
2.6663404 1.2403301 -0.69170064
2.6581874 1.2860683 -0.69159251
2.6479886 1.3432803 -0.69145733
2.6377828 1.4005325 -0.69132215
2.6296129 1.4463663 -0.69121385
2.6214378 1.4922273 -0.6911056
2.6132579 1.5381159 -0.69099724
2.605073 1.5840318 -0.69088864
2.5968831 1.6299754 -0.69078022
2.5866389 1.687445 -0.69064444
4.0885992 -2.0177326 -0.71344805
4.2760158 -1.9948609 -0.72481102
3.7625957 -2.0575173 -0.69368279
3.9181986 -2.0385282 -0.70311683
4.108664 -1.9705881 -0.69025946
4.2985444 -1.945166 -0.70054364
3.7787044 -2.0147638 -0.67238808
3.936142 -1.9936857 -0.6809153
3.2039099 0.50667441 -0.68785203
3.3347063 0.52690101 -0.693106
3.4760962 0.5487656 -0.69878536
3.6294217 0.57247621 -0.70494407
3.7395813 0.61050606 -0.70008034
3.7962601 0.59827638 -0.71164578
2.8168833 0.47158849 -0.66241908
2.8812404 0.47325245 -0.66760153
2.9335041 0.48150963 -0.66962332
2.9696677 0.47045082 -0.67844296
3.0249336 0.50467819 -0.66930085
3.0825598 0.48790866 -0.68297768
3.1218126 0.52934408 -0.6689077
3.1623926 0.51813865 -0.67827171
3.2464228 0.54995811 -0.67331827
3.2900412 0.53856623 -0.6830948
3.33499 0.58349544 -0.66809744
3.3808799 0.57220107 -0.67807758
3.4279008 0.56062794 -0.68830377
3.4768224 0.6077258 -0.67277837
3.5263982 0.5962739 -0.68322819
3.5772486 0.58452809 -0.69394678
3.6306648 0.63400781 -0.67785555
3.6844027 0.62241238 -0.68882102
2.8050315 0.51525593 -0.64960897
2.863435 0.5029363 -0.6525349
2.9149728 0.536677 -0.6432032
2.9689658 0.52096498 -0.65601772
3.0243659 0.55625188 -0.64642131
3.0821385 0.540299 -0.65975267
3.1214933 0.58258581 -0.64531702
3.1621826 0.57195884 -0.65443701
3.203815 0.56108582 -0.66376835
3.246448 0.60528827 -0.6488412
3.2901926 0.59452152 -0.65835482
3.381305 0.62978977 -0.65264457
3.4284725 0.61889416 -0.66258687
3.5272913 0.65631354 -0.65676183
3.5783122 0.64530438 -0.66717279
3.6858439 0.68512022 -0.66123348
3.7412229 0.67401856 -0.67215872
2.789495 0.5573681 -0.6474328
2.8624854 0.55195117 -0.63074607
2.96826 0.57174432 -0.63347459
3.0817151 0.59297472 -0.63640136
2.7814157 0.60269314 -0.6473121
2.7733319 0.6480453 -0.64719123
2.7652433 0.69342446 -0.64707047
2.755125 0.7501877 -0.64691925
2.7450004 0.80699033 -0.64676797
2.7368944 0.85246414 -0.64664692
2.7287841 0.89796501 -0.64652574
2.7206688 0.94349295 -0.6464045
2.712549 0.98904818 -0.64628321
2.7023916 1.0460317 -0.64613134
2.6922271 1.1030551 -0.64597952
2.6840901 1.1487054 -0.64585799
2.6759481 1.1943829 -0.64573634
2.6678009 1.2400881 -0.6456145
2.6596494 1.2858202 -0.64549279
2.6494529 1.3430253 -0.64534038
2.6392488 1.4002705 -0.64518803
2.6310802 1.4460986 -0.64506596
2.6229064 1.4919541 -0.64494389
2.614728 1.5378368 -0.64482158
2.6065443 1.5837474 -0.64469939
2.5983562 1.629685 -0.64457715
2.5881138 1.6871477 -0.64442396
2.6204612 1.7156841 -0.61875409
2.6213596 1.7436546 -0.62014091
2.7289202 1.7724897 -0.62370151
2.8445692 1.8034606 -0.62752837
2.7306731 1.8162766 -0.62587959
2.8460402 1.8337996 -0.62904263
2.970166 1.8526531 -0.63244575
3.9543409 -1.9482054 -0.65839779
4.129025 -1.9227401 -0.66672462
3.6491535 -1.9926934 -0.64384973
3.664046 -1.9507681 -0.62285268
3.7950313 -1.9714284 -0.65080369
3.8115823 -1.9274995 -0.62892371
3.9727979 -1.9020725 -0.63555717
4.1496873 -1.8741717 -0.64283514
3.5285208 -1.9721422 -0.61727583
3.6319163 0.69593138 -0.65059447
2.8117926 0.5667029 -0.61871487
2.9141386 0.58668858 -0.62098587
3.0047719 0.61306995 -0.61915547
3.0428176 0.6031335 -0.62768292
3.1211727 0.63612139 -0.62159628
3.1619723 0.62607974 -0.63046938
3.2037191 0.61580467 -0.63954854
3.2464726 0.6609354 -0.62422377
3.2903442 0.65080106 -0.63347131
3.3352761 0.64042246 -0.64294231
3.3817329 0.68772191 -0.62706012
3.4533002 0.67227906 -0.64166367
3.5281899 0.71672559 -0.63013113
3.5793822 0.70646286 -0.64023048
3.6872945 0.74823403 -0.63346738
3.7428739 0.73794734 -0.6440537
2.7966113 0.60890692 -0.60501063
2.8615308 0.60121536 -0.60884625
2.8954749 0.64161509 -0.59465808
2.9493384 0.62754744 -0.60673082
3.0041499 0.66492361 -0.59614617
3.0422916 0.65553617 -0.60444129
3.0812895 0.6459378 -0.61292243
3.1413052 0.68522853 -0.60205585
3.2036228 0.67083353 -0.61519158
3.2464976 0.71690232 -0.59946483
3.2904975 0.70740825 -0.6084432
3.3355627 0.69768411 -0.61763883
3.3821633 0.74599999 -0.60132265
3.4296272 0.73648465 -0.61068636
3.4782877 0.72672975 -0.62028629
3.5804598 0.7680071 -0.61311835
3.6331751 0.75825036 -0.62315917
3.7445366 0.80229717 -0.61576378
2.7747738 0.64787561 -0.60129458
2.843482 0.65519398 -0.58300453
2.9485817 0.67860067 -0.58406109
3.0808613 0.69919074 -0.58931518
3.203526 0.72617483 -0.59069628
3.529094 0.7775138 -0.60333461
2.7666862 0.69324899 -0.60115999
2.7658744 0.75156462 -0.59455913
2.9097269 0.80289543 -0.57986128
2.7464473 0.80680132 -0.60082352
2.7962949 0.80798191 -0.57784355
2.9120586 0.84339631 -0.58189005
3.0344894 0.83943486 -0.58414412
3.036382 0.8675831 -0.58555889
3.1721921 0.90853894 -0.59027892
2.7383428 0.85226947 -0.6006887
2.798825 0.86015266 -0.58044738
2.9144039 0.88413066 -0.58393049
3.0392394 0.91005945 -0.58769423
3.1744936 0.93812197 -0.5917722
3.3201416 0.95315582 -0.5954209
3.3229074 0.98417306 -0.59699363
2.7302337 0.89776456 -0.60055375
2.8013761 0.91276002 -0.58307302
2.9167662 0.92516005 -0.58598572
3.043082 0.96712321 -0.59056371
3.1779666 0.98277485 -0.59402615
3.3256874 1.0153428 -0.59857404
3.4869063 1.050926 -0.60353941
3.6635544 1.0898714 -0.60897803
2.7221203 0.94328725 -0.60041893
2.8039489 0.9658094 -0.58572084
2.919939 0.98026311 -0.58874601
3.0459859 1.0102447 -0.59273219
3.1826353 1.0427817 -0.59705538
3.3298841 1.0624045 -0.6009602
3.4919147 1.1002419 -0.60605216
3.6695232 1.1417606 -0.61163586
2.7140009 0.98883665 -0.60028386
2.8065429 1.0193062 -0.58839083
2.9231393 1.0358486 -0.59153038
3.0479336 1.0391663 -0.59418654
3.04989 1.06822 -0.59564751
3.186168 1.0881441 -0.59934598
3.3341084 1.1097763 -0.60336208
3.3369434 1.141566 -0.60497397
3.4969656 1.1499825 -0.60858643
3.6755354 1.1940242 -0.61431277
2.703948 1.0458798 -0.6001423
2.8091593 1.0732565 -0.59108347
2.9263678 1.0919234 -0.59433931
3.0528429 1.112066 -0.59785259
3.1897295 1.1338669 -0.60165489
3.3397934 1.1735141 -0.60659403
3.5020523 1.2000676 -0.61113834
2.6978261 1.1056011 -0.60105878
2.8117979 1.1276658 -0.59379911
2.9288068 1.1342882 -0.59646142
2.9304428 1.1626983 -0.5978846
3.0568099 1.170975 -0.60081488
3.194515 1.1953163 -0.60475791
3.344101 1.2217577 -0.60904127
3.5071821 1.2505879 -0.61371243
2.6948159 1.1548437 -0.60230702
2.8144588 1.1825397 -0.59653783
2.9329102 1.2055649 -0.60003179
3.059808 1.2154957 -0.60305363
3.0618191 1.2453589 -0.60455537
3.1993465 1.2573562 -0.60789078
3.3484368 1.2703232 -0.61150479
3.5123489 1.3014604 -0.61630452
2.6867101 1.1964893 -0.60588533
2.8164687 1.2239891 -0.59860665
2.9353933 1.2486863 -0.60219187
3.0638399 1.2753607 -0.60606414
3.2030001 1.3042599 -0.61025941
3.351347 1.3029168 -0.61315805
3.3542719 1.3356746 -0.61481977
3.5175643 1.3527807 -0.61892003
2.6688969 1.2399063 -0.61105704
2.7076538 1.2412357 -0.59727627
2.8184934 1.265736 -0.60069019
2.9378941 1.2921286 -0.60436803
3.0668888 1.3206419 -0.60834122
3.2066822 1.3515422 -0.612647
3.3586886 1.3851421 -0.61732894
3.5245826 1.4218119 -0.62243873
2.6607459 1.2856345 -0.61092502
2.7098134 1.2951784 -0.59995949
2.8212118 1.3217989 -0.60348833
2.9412541 1.3504847 -0.60729116
3.0709863 1.3814869 -0.61140084
3.2103889 1.3991307 -0.61505014
3.3631353 1.4349443 -0.61985528
3.5298927 1.4740428 -0.62510115
2.6505504 1.3428344 -0.61075979
2.7119908 1.3495719 -0.60266507
2.8239541 1.3783481 -0.60631084
2.9446445 1.4093672 -0.6102407
3.0740836 1.4274762 -0.61371362
3.2141249 1.4471059 -0.61747277
3.3661199 1.4683707 -0.62155086
3.3691194 1.5019672 -0.62325495
3.5334573 1.5091099 -0.62688863
2.6403482 1.4000741 -0.61059433
2.7141862 1.404422 -0.60539335
2.8267202 1.4353901 -0.6091578
2.947206 1.4538617 -0.61246955
3.0772052 1.4738262 -0.61604434
3.2191474 1.5115954 -0.62072933
3.3721349 1.5357357 -0.62496799
3.5388436 1.562086 -0.62958902
2.6321805 1.4458977 -0.61046207
2.7164001 1.4597349 -0.60814464
2.8288097 1.478483 -0.61130857
2.9497869 1.4986926 -0.61471516
3.0813999 1.5361128 -0.61917651
3.2229455 1.5603585 -0.62319177
3.3766878 1.5867345 -0.62755489
3.5442672 1.6154398 -0.63230848
2.6240079 1.4917492 -0.61032963
2.7186332 1.515516 -0.61091936
2.830915 1.5218911 -0.61347508
2.9532547 1.5589215 -0.61773217
3.0845704 1.5831965 -0.62154436
3.2267742 1.6095232 -0.62567449
3.3812726 1.6380838 -0.63015968
3.5497403 1.6692724 -0.63505256
2.6165113 1.5382127 -0.6103912
2.7208853 1.5717717 -0.61371762
2.8337421 1.5801933 -0.61638492
2.9558749 1.6044369 -0.62001204
3.0866978 1.6147845 -0.62313277
3.088835 1.6465224 -0.62472874
3.2306285 1.6590121 -0.62817353
3.3858969 1.6898758 -0.63278681
3.5552526 1.7234932 -0.63781637
2.6164637 1.5912554 -0.61258447
2.7225862 1.6142628 -0.61583108
2.8365946 1.6390115 -0.61932057
2.9585161 1.650301 -0.62230957
3.0920618 1.6944338 -0.62713814
3.234515 1.7089117 -0.63069332
3.390553 1.7420254 -0.63543206
3.5589538 1.7599012 -0.63967222
2.6182315 1.6462777 -0.61531258
2.7237267 1.6427519 -0.61724812
2.7248721 1.6713632 -0.61867136
2.8387499 1.6834513 -0.62153858
2.9620636 1.7119228 -0.62539625
3.0953085 1.7426507 -0.6295628
3.2384269 1.759143 -0.63322985
3.3952501 1.7946284 -0.63810045
2.6195664 1.6878294 -0.61737299
2.7265999 1.7145256 -0.62081826
2.8409207 1.7282209 -0.6237731
2.9647448 1.7584952 -0.62772918
3.0985818 1.7912552 -0.632007
3.2423718 1.8097939 -0.63578767
3.3999791 1.8475978 -0.6407873
2.8431046 1.7732571 -0.62602085
2.967447 1.8054286 -0.63008022
3.101876 1.8401722 -0.63446689
3.2463429 1.8607846 -0.63836253
3.4047503 1.9010313 -0.64349777
2.7155178 1.8154073 -0.59768349
2.7736263 1.8258839 -0.59934229
2.8127475 1.8325657 -0.60860831
2.8556833 1.8410591 -0.59332287
2.9104517 1.8502345 -0.61021584
2.9705195 1.8617164 -0.59762907
3.0300415 1.872123 -0.60644031
3.0757914 1.8799691 -0.61655819
3.1142495 1.8809649 -0.62483102
3.1744072 1.8981557 -0.61043644
3.2241211 1.9066993 -0.62104124
3.2630036 1.905724 -0.62902677
3.3314359 1.9264717 -0.61478311
3.3856509 1.9358085 -0.62592304
3.4433692 1.9464331 -0.62277997
3.5028687 1.9573857 -0.61952853
3.5421336 -1.9315389 -0.59683776
3.6791348 -1.9082893 -0.60157835
3.8283584 -1.8829644 -0.60674149
3.9915178 -1.8552729 -0.61238641
4.1706634 -1.8248684 -0.61858433
3.4283836 -1.9135972 -0.5725646
3.5559204 -1.8904185 -0.57613939
3.6944206 -1.8652452 -0.58002073
3.8453643 -1.8378097 -0.58425075
4.010509 -1.8077931 -0.58887869
4.1919584 -1.7748132 -0.5939635
3.3220022 -1.8968177 -0.54986387
3.4410055 -1.8737509 -0.552414
3.5698798 -1.8487697 -0.55517483
2.7929158 0.66840041 -0.57167083
2.9035933 0.69620168 -0.57451886
3.0343828 0.7181561 -0.57981056
3.1615465 0.73523295 -0.58213025
3.3038244 0.77018559 -0.58614361
3.3358517 0.75528419 -0.59218627
3.4707236 0.79829484 -0.59252632
3.6344426 0.82096893 -0.59554809
3.6887546 0.8117578 -0.60552108
2.7912979 0.70492822 -0.57270008
2.9051163 0.72270405 -0.57584584
2.9066463 0.74931997 -0.57717842
3.0288618 0.75574058 -0.57993722
3.1619713 0.77712584 -0.58364582
3.3078609 0.81544942 -0.58843869
3.4656315 0.8414284 -0.59286529
3.6382492 0.86989361 -0.59771055
2.9081826 0.77604991 -0.5785169
3.031667 0.79746336 -0.58203441
3.1664884 0.83520001 -0.58657718
3.3119237 0.86100554 -0.59074861
3.4704804 0.88917726 -0.59529823
3.6459434 0.93677723 -0.60113639
3.1699023 0.87909412 -0.58879274
3.3160193 0.90693116 -0.59307712
3.4753621 0.93724942 -0.59774745
3.4786394 0.96951574 -0.59939158
3.6517649 0.98738551 -0.60372859
3.4819326 1.0019466 -0.60104394
3.655674 1.0213649 -0.60546911
3.6596034 1.0555264 -0.60721886
2.7175579 1.8181925 -0.5445984
2.7790556 1.8290724 -0.55093217
2.8182952 1.8358036 -0.55961049
2.8613591 1.8443497 -0.54365784
2.9026697 1.851451 -0.55247015
2.945044 1.858735 -0.56150931
3.0208588 1.8727819 -0.55537957
3.0821643 1.8835421 -0.56356323
3.1293097 1.8916622 -0.57325065
3.181102 1.9018562 -0.55593371
3.230983 1.910465 -0.56579226
3.2822769 1.9193171 -0.57593006
3.3368516 1.9294003 -0.57213706
3.3930635 1.9397864 -0.5682196
3.4490786 1.9494731 -0.57885182
3.5087345 1.9604849 -0.57492989
3.7099087 -1.8216251 -0.55817461
3.862608 -1.792024 -0.56144577
4.029779 -1.7596182 -0.56502694
4.2135811 -1.7239887 -0.56896442
3.2290351 -1.8524538 -0.5083288
3.2904935 -1.8321822 -0.4987745
3.3394353 -1.8386143 -0.52030206
3.4449375 -1.8192433 -0.51848739
3.474885 -1.7951638 -0.51288056
3.5798984 -1.7935177 -0.52081138
3.6181788 -1.7697638 -0.51599646
3.7256055 -1.7774175 -0.53603429
3.7750752 -1.7419528 -0.51940817
3.8800952 -1.7455941 -0.53831983
3.947607 -1.7113702 -0.52315992
4.0493336 -1.7107332 -0.54082352
4.1382332 -1.6775801 -0.52730495
4.235539 -1.6723769 -0.54357827
2.7206566 1.8210851 -0.4933736
2.7721398 1.8303254 -0.49576694
2.8238544 1.8390476 -0.51048607
2.8670485 1.8476479 -0.49386293
2.9084859 1.8548002 -0.50205266
2.9509919 1.8621373 -0.51045376
2.9946091 1.8696665 -0.5190745
3.057317 1.8815113 -0.50902689
3.1206138 1.8928722 -0.51196957
3.1861298 1.904634 -0.51495785
3.2361364 1.9132923 -0.52425408
3.2395775 1.9151791 -0.496508
3.2893271 1.9231569 -0.51974773
3.342279 1.9323342 -0.52938408
3.3986356 1.942776 -0.52483207
3.4567084 1.9535357 -0.52012992
3.5146151 1.9635917 -0.53021485
3.2440207 -1.855184 -0.47021231
3.2988269 -1.8452253 -0.46512541
3.3432362 -1.8322275 -0.47803366
3.3980117 -1.825258 -0.47284079
3.4451861 -1.8186544 -0.46977022
3.4940252 -1.808239 -0.47492936
3.5444829 -1.7938296 -0.48875973
3.596009 -1.7938721 -0.46850193
3.6498179 -1.7787554 -0.48266903
3.6941557 -1.7678089 -0.49082586
3.7397127 -1.7565614 -0.49920693
3.7857463 -1.7568988 -0.48041147
3.8338287 -1.7451925 -0.4888736
3.8832884 -1.733151 -0.49757814
3.9207628 -1.7301488 -0.48991129
3.985455 -1.720731 -0.48654306
4.0393343 -1.7078001 -0.49559024
4.0813994 -1.6913185 -0.51753241
4.1082978 -1.6976355 -0.49229151
4.1659126 -1.6839066 -0.50173676
4.2397699 -1.6729548 -0.49835649
2.7138364 1.822306 -0.43929419
2.7706926 1.8321403 -0.45008612
2.8294287 1.8422999 -0.46123499
2.8727524 1.8509545 -0.44393793
2.9143174 1.8581585 -0.45150208
2.9569559 1.865549 -0.45926151
3.0007102 1.8731326 -0.46722421
3.0487525 1.8826823 -0.44908085
3.0949478 1.8907056 -0.4571262
3.1424026 1.8989476 -0.46539086
3.1911683 1.9074169 -0.47388393
3.2430232 1.9170687 -0.46872154
3.2963922 1.9270029 -0.46339837
3.3495257 1.9362501 -0.47223657
3.4042144 1.9457678 -0.48133329
3.4624391 1.9565854 -0.47597417
3.5224669 1.9677384 -0.47043744
3.272414 -1.8769083 -0.40164259
3.3070364 -1.8684199 -0.40787369
3.3970208 -1.8567513 -0.39985466
3.4539769 -1.8429834 -0.40964818
3.5128727 -1.8287468 -0.41977522
3.553493 -1.8189279 -0.42675978
3.6158597 -1.814978 -0.4115622
3.6591711 -1.8046572 -0.41866267
3.7036581 -1.7940564 -0.42595571
3.7493689 -1.7831643 -0.43344945
3.8079212 -1.7751143 -0.42929798
3.8684161 -1.7667692 -0.42507383
3.918756 -1.7549458 -0.432924
3.9705703 -1.7427766 -0.44100404
4.0369663 -1.7334713 -0.43671364
4.0923018 -1.7205704 -0.44512048
4.1493373 -1.7072734 -0.45378557
4.2223582 -1.6968079 -0.44960415
3.2472196 -1.8682473 -0.43167904
3.3073514 -1.8582395 -0.43146908
3.3516603 -1.8523358 -0.42788914
3.3974462 -1.846254 -0.42414513
3.4542322 -1.8323317 -0.43436515
3.4933739 -1.8227353 -0.44140962
3.5335252 -1.8128915 -0.44863585
3.59518 -1.8088508 -0.43392783
3.6379771 -1.7985055 -0.44128668
3.6819291 -1.7878813 -0.44884416
3.7270832 -1.7769663 -0.45660836
3.8446684 -1.7604553 -0.44907266
3.8943689 -1.748612 -0.45722049
3.9455156 -1.7364243 -0.46560541
4.1939487 -1.6903147 -0.47583818
2.7190802 1.8254248 -0.39166543
2.7761047 1.8353288 -0.40159678
2.835017 1.8455606 -0.41185683
2.8784711 1.8542694 -0.39388248
2.9201643 1.8615258 -0.40081757
2.9629357 1.8689693 -0.4079321
3.0068276 1.8766081 -0.41523299
3.0534527 1.8853343 -0.40954205
3.1013663 1.8943017 -0.40368474
3.1489751 1.9026046 -0.41123179
3.1979017 1.9111366 -0.41898757
3.2482011 1.9199085 -0.42696097
3.3017039 1.9298948 -0.42103246
3.3567934 1.9401767 -0.41491762
3.4116716 1.9497664 -0.42318803
3.4681833 1.9596422 -0.43170458
3.5283694 1.9708544 -0.42548692
3.3069315 -1.8785282 -0.38436395
3.3601809 -1.8724883 -0.37760481
3.4154005 -1.8627455 -0.37869939
3.4534795 -1.8536712 -0.38494197
3.5022576 -1.8474247 -0.38041756
3.5529211 -1.833606 -0.39278889
3.5940878 -1.8312001 -0.38229442
3.651763 -1.8137686 -0.37836862
3.6806073 -1.8108793 -0.39578649
3.7484756 -1.798787 -0.39741075
3.7947271 -1.795779 -0.38633102
3.8429019 -1.7846295 -0.39345908
3.8924556 -1.7731607 -0.40079108
3.9559443 -1.7646044 -0.39589298
3.9959431 -1.7492095 -0.41610336
4.0216289 -1.7557218 -0.39089602
4.0764174 -1.7432286 -0.39856628
4.1328802 -1.7303541 -0.40647087
4.1894531 -1.7165384 -0.39938349
4.2511439 -1.7033875 -0.42302731
3.2695715 -1.8752447 -0.35531583
3.4001443 -1.8354049 -0.35296085
3.8364387 -1.7572997 -0.36574349
2.821547 1.8465238 -0.3719109
3.0114262 1.879221 -0.37615126
3.0565913 1.8871052 -0.38313445
3.2263873 1.9330218 -0.38146308
3.2533896 1.9227539 -0.38511941
3.3052523 1.931826 -0.39273289
3.4828663 1.9695374 -0.38868493
3.5323124 1.9729363 -0.39545739
2.8020046 1.886554 -0.3697581
3.0009434 1.9157369 -0.37537488
3.2255883 1.9644761 -0.38199413
3.4821804 2.0201719 -0.38955528
2.9988241 1.9748436 -0.3763569
3.2247868 1.9960223 -0.38252676
3.2239828 2.0276604 -0.3830609
3.4814913 2.0710173 -0.39042911
2.9972281 2.0193748 -0.37709683
3.2231765 2.0593903 -0.38359657
3.4807994 2.122128 -0.39130771
2.9956303 2.064116 -0.37784114
3.2219625 2.1071711 -0.38440335
3.480104 2.1734512 -0.39218983
3.2203388 2.1711924 -0.38548476
3.4794047 2.2250438 -0.3930766
3.219121 2.2194495 -0.38630071
3.2178981 2.2679443 -0.38712075
3.2289777 -1.8498137 -0.31551701
3.2945995 -1.8209908 -0.33736515
3.543134 -1.7917767 -0.35038197
3.7003987 -1.7437927 -0.34754559
4.0246754 -1.702873 -0.36347738
4.2346807 -1.6421521 -0.36094916
3.2219279 -1.8095956 -0.31156203
3.3202105 -1.7654732 -0.31899646
3.4278944 -1.778179 -0.33415732
3.5740242 -1.7312453 -0.33064061
3.8741891 -1.6907659 -0.34441108
4.067256 -1.6318583 -0.34092903
3.2175012 -1.7632892 -0.30433205
3.3464251 -1.7086474 -0.30019489
3.4563205 -1.7195587 -0.31489545
3.6057041 -1.6691666 -0.3103945
3.7349365 -1.6795629 -0.32676801
3.9129944 -1.6223743 -0.32248285
3.230341 -1.8496839 -0.27045205
3.2225268 -1.8058245 -0.27022311
3.2147079 -1.7619394 -0.26999405
4.111093 -1.5587491 -0.31771544
3.2142243 -1.71411 -0.27309951
3.4854484 -1.6594915 -0.29515836
3.6382046 -1.60548 -0.28962421
3.7704027 -1.6136074 -0.30543214
3.9528985 -1.5520452 -0.29993349
3.1974401 -1.6630754 -0.25819924
3.2683678 -1.642027 -0.26765466
3.3732648 -1.6504662 -0.28094491
3.5153036 -1.597924 -0.27492812
3.8068349 -1.5458556 -0.28351504
3.9939492 -1.4796954 -0.27673626
4.1562419 -1.4834504 -0.29380685
3.2937281 -1.5843009 -0.2484327
3.4007523 -1.590881 -0.26123035
3.5459144 -1.5347987 -0.25418606
3.6715574 -1.5401229 -0.26830909
3.2317038 -1.8495541 -0.22539772
3.2238908 -1.8056998 -0.22515567
3.2160728 -1.7618197 -0.22491343
3.2085922 -1.7178855 -0.21339986
3.1988082 -1.6629673 -0.21309263
3.189018 -1.6080122 -0.21278514
3.8442733 -1.4762326 -0.2609928
4.2027631 -1.4058632 -0.26917136
3.1839204 -1.5668228 -0.20829445
3.3196874 -1.5252117 -0.22875676
3.4289112 -1.5298402 -0.24103422
3.5773091 -1.4700555 -0.23291251
3.705797 -1.4730285 -0.24642733
3.88276 -1.4046599 -0.23783982
4.0361967 -1.405237 -0.25286281
3.1744483 -1.5236365 -0.19726484
3.2174907 -1.5208808 -0.21726924
3.3462665 -1.4647099 -0.20861055
3.457767 -1.4672896 -0.22033858
3.6095192 -1.4036323 -0.21108679
3.7409592 -1.4041266 -0.22395609
4.0796938 -1.3285754 -0.22828312
3.1661768 -1.4759086 -0.18946758
3.2420232 -1.4622978 -0.19764587
3.0815356 -1.0008073 -0.1867379
3.6451442 -0.90134585 -0.22038019
3.9415584 -0.83295137 -0.22077967
3.0775857 -0.97863644 -0.18661052
3.1983836 -0.96719235 -0.19950224
3.2334065 -1.8493919 -0.16909549
3.2255948 -1.8055441 -0.16883698
3.2177792 -1.7616706 -0.16857831
3.2103002 -1.7177427 -0.15705055
3.2005181 -1.6628327 -0.15672272
3.1907296 -1.6078855 -0.15639466
3.182893 -1.5638977 -0.156132
3.1750524 -1.5198839 -0.15586923
3.1652448 -1.4648291 -0.15554053
3.3734891 -1.402745 -0.18797706
3.4873445 -1.4031729 -0.19912468
3.7770813 -1.3333431 -0.2008712
3.9223397 -1.3310546 -0.21402933
4.1245227 -1.2496156 -0.20296748
3.1590374 -1.4105458 -0.15555561
3.2671306 -1.4023448 -0.1775635
3.5176725 -1.3374302 -0.17737283
3.6425762 -1.3354623 -0.18868716
3.8142037 -1.2606 -0.17714715
3.9630647 -1.2553295 -0.18953329
3.147917 -1.3656144 -0.14365378
3.1912847 -1.3425726 -0.14780721
3.2928319 -1.3409727 -0.15700576
3.4013784 -1.3392622 -0.16683839
3.5487797 -1.2699987 -0.15506232
3.6765141 -1.2654754 -0.16569059
3.0825772 -1.0007854 -0.15276991
3.0766521 -0.96752882 -0.15257132
3.2236009 -0.92335206 -0.17883423
3.4211171 -0.91304088 -0.19830079
3.6794801 -0.85022718 -0.19690715
3.982765 -0.77649212 -0.19527125
3.0695238 -0.92686141 -0.14855239
3.2493536 -0.87858075 -0.15772733
3.4658878 -0.84089285 -0.16470268
3.714654 -0.79786068 -0.17286101
3.0706954 -0.89035785 -0.14145349
3.2351091 -1.8492296 -0.11280884
3.2272992 -1.8053882 -0.11253393
3.219485 -1.7615212 -0.11225883
3.2116663 -1.7176282 -0.1119836
3.2018855 -1.6627247 -0.11163929
3.1920986 -1.6077843 -0.11129476
3.1842635 -1.5638014 -0.11101893
3.1764243 -1.5197932 -0.11074299
3.1666181 -1.4647448 -0.1103978
3.1568053 -1.4096588 -0.11005238
3.1489496 -1.3655599 -0.10977582
4.0050106 -1.1773945 -0.16432343
3.1410897 -1.3214352 -0.10949914
3.2155669 -1.2817982 -0.12733701
3.3191488 -1.2781303 -0.13595563
3.4299581 -1.2742065 -0.14517565
3.7113726 -1.1935995 -0.14207326
3.8523896 -1.1858172 -0.15275869
3.1324136 -1.2717551 -0.10353763
3.3461032 -1.2137647 -0.11439519
3.4592557 -1.2075175 -0.12296925
3.5806959 -1.2008131 -0.13217129
3.141484 -1.2250613 -0.098890282
3.240418 -1.2195995 -0.10638695
3.6134715 -1.1298057 -0.10867808
3.7472122 -1.1197585 -0.11781108
3.0859385 -1.0118359 -0.10755768
3.0780408 -0.96750361 -0.10727964
3.0701392 -0.923145 -0.10700151
4.0250654 -0.71853316 -0.16908513
3.0622325 -0.87876034 -0.10672316
3.0936937 -0.84735119 -0.12095771
3.2756596 -0.83284861 -0.13616742
3.5120358 -0.76652592 -0.1300713
3.7506971 -0.74419969 -0.14822052
3.0546694 -0.83434731 -0.095113128
3.1171622 -0.80346537 -0.10004279
3.3025362 -0.78612399 -0.11413972
3.5437562 -0.71540409 -0.10626455
3.787611 -0.68919593 -0.12296124
3.2387624 -1.860023 -0.056611922
3.2357068 -1.8454589 -0.071518697
3.2286623 -1.8052636 -0.067503937
3.220849 -1.7614017 -0.067215733
3.2130313 -1.717514 -0.066927344
3.2032526 -1.6626172 -0.066566601
3.1934674 -1.6076828 -0.066205643
3.1856337 -1.5637052 -0.065916643
3.1777956 -1.5197021 -0.0656275
3.1679912 -1.4646606 -0.065265834
3.15818 -1.4095812 -0.0649039
3.150326 -1.3654873 -0.064614162
3.1424673 -1.321368 -0.064324267
3.132637 -1.2661808 -0.063961618
3.1227999 -1.210956 -0.063598767
3.3737197 -1.1478193 -0.092305645
3.4893012 -1.139134 -0.10019859
3.1156962 -1.1704272 -0.059564192
3.1649671 -1.1635067 -0.078050129
3.2658587 -1.1559249 -0.084939927
3.1073911 -1.1224986 -0.051710308
3.1889958 -1.1005231 -0.056726079
3.2919121 -1.0907224 -0.062978178
3.4020371 -1.0802373 -0.069668204
3.0873256 -1.0118055 -0.062290117
3.0794294 -0.96747833 -0.061998822
3.0715287 -0.92312509 -0.06170737
3.0636237 -0.87874573 -0.061415758
3.0537355 -0.82323325 -0.061051011
3.0446167 -0.77138782 -0.056932125
3.1411159 -0.75867289 -0.078695804
3.3440154 -0.71397054 -0.080122285
3.5761509 -0.66307348 -0.081890024
3.8254018 -0.63279974 -0.097058721
3.9402349 -0.5726437 -0.074519329
3.0431397 -0.7344014 -0.049425472
3.1655455 -0.71294516 -0.056901772
3.5845242 -0.63657904 -0.05555173
3.7537012 -0.60617113 -0.064572766
3.239783 -1.8599247 -0.022861103
3.2358804 -1.8380154 -0.022710556
3.2300248 -1.8051391 -0.022484669
3.2222128 -1.7612822 -0.022183314
3.2143967 -1.7174 -0.021881804
3.2046194 -1.6625094 -0.021504631
3.1948359 -1.6075815 -0.02112722
3.1870041 -1.5636094 -0.020825094
3.1791673 -1.5196114 -0.020522768
3.1693642 -1.464576 -0.020144612
3.1595547 -1.4095032 -0.019766204
3.1517019 -1.3654151 -0.01946326
3.1438441 -1.3213006 -0.01916014
3.1340156 -1.26612 -0.018781006
3.1241803 -1.2109019 -0.018401586
3.1163063 -1.1666968 -0.018097838
3.108428 -1.122466 -0.017793939
3.1034977 -1.0720489 -0.01992725
3.0899651 -1.0184183 -0.014816956
3.0808175 -0.96745312 -0.016728809
